-31.4920730591 34.2700614929 65.9253234863
-31.5827484131 34.3648910522 65.7432022095
-31.6487674713 34.4334983826 65.5579071045
-31.6905155182 34.4762992859 65.3694229126
-31.7108478546 34.4963264465 65.1780929565
-31.7109470367 34.4948387146 64.9840087891
-31.6924228668 34.4735450745 64.7873535156
-31.6594810486 34.4369163513 64.5886383057
-31.6160182953 34.3891029358 64.3883972168
-31.5629367828 34.3310546875 64.1867065430
-31.5016746521 34.2643089294 63.9837608337
-31.4393005371 34.1963806152 63.7805404663
-31.3866882324 34.1388320923 63.5785942078
-31.3514213562 34.0997276306 63.3790473938
-31.3349285126 34.0805892944 63.1821479797
-31.3376483917 34.0818824768 62.9880142212
-31.3659152985 34.1103477478 62.7976188660
-31.4320259094 34.1790580750 62.6128540039
-31.5446529388 34.2972412109 62.4351005554
-31.6981735229 34.4589157104 62.2636413574
-31.8746471405 34.6450080872 62.0958900452
-32.0580139160 34.8384323120 61.9294815063
-32.2413101196 35.0317840576 61.7633705139
-32.4163856506 35.2163925171 61.5963134766
-32.5625915527 35.3703041077 61.4251098633
-32.6539039612 35.4658317566 61.2456665039
-32.6795234680 35.4914855957 61.0561561584
-32.6557426453 35.4646072388 60.8589553833
-32.6156578064 35.4203834534 60.6591377258
-32.5865859985 35.3878707886 60.4609794617
-32.5766372681 35.3756980896 60.2658004761
-32.5784721375 35.3760604858 60.0724792480
-32.5806579590 35.3767929077 59.8792076111
-32.5759429932 35.3701858521 59.6848106384
-32.5645713806 35.3564987183 59.4893150330
-32.5550308228 35.3447647095 59.2940864563
-32.5621871948 35.3507804871 59.1015739441
-32.6002655029 35.3896942139 58.9141693115
-32.6719131470 35.4643096924 58.7323951721
-32.7623329163 35.5588989258 58.5538711548
-32.8471603394 35.6475372314 58.3745536804
-32.9082374573 35.7109146118 58.1913681030
-32.9424743652 35.7457427979 58.0037307739
-32.9595947266 35.7623634338 57.8132247925
-32.9766197205 35.7788848877 57.6227226257
-33.0123252869 35.8152732849 57.4354553223
-33.0778732300 35.8834152222 57.2534065247
-33.1673469543 35.9770011902 57.0756187439
-33.2593421936 36.0732727051 56.8984222412
-33.3310737610 36.1479911804 56.7178115845
-33.3719062805 36.1898384094 56.5318641663
-33.3860816956 36.2033271790 56.3412475586
-33.3863868713 36.2020683289 56.1481742859
-33.3854331970 36.1994667053 55.9548606873
-33.3892135620 36.2018966675 55.7623901367
-33.3957214355 36.2072334290 55.5704078674
-33.3985519409 36.2086601257 55.3777580261
-33.3919868469 36.2000885010 55.1833877563
-33.3738975525 36.1792602539 54.9868774414
-33.3454551697 36.1474151611 54.7884140015
-33.3090705872 36.1071205139 54.5884208679
-33.2674674988 36.0612754822 54.3873825073
-33.2255020142 36.0150375366 54.1861877441
-33.1921195984 35.9779357910 53.9865264893
-33.1780357361 35.9613647461 53.7904396057
-33.1898422241 35.9723358154 53.5992279053
-33.2270088196 36.0102882385 53.4128570557
-33.2852897644 36.0706977844 53.2305870056
-33.3619918823 36.1507110596 53.0519523621
-33.4571342468 36.2503471375 52.8770027161
-33.5699806213 36.3688163757 52.7056465149
-33.6946640015 36.4998779297 52.5367889404
-33.8188323975 36.6303977966 52.3680343628
-33.9279747009 36.7449302673 52.1965332031
-34.0135498047 36.8343925476 52.0205574036
-34.0786209106 36.9020385742 51.8406486511
-34.1359939575 36.9614982605 51.6593093872
-34.1991195679 37.0270767212 51.4792137146
-34.2709274292 37.1018943787 51.3009605408
-34.3384017944 37.1721000671 51.1219520569
-34.3787574768 37.2134552002 50.9375457764
-34.3740425110 37.2068557739 50.7440185547
-34.3227615356 37.1507110596 50.5409431458
-34.2392921448 37.0603179932 50.3311500549
-34.1422538757 36.9554824829 50.1183967590
-34.0436058044 36.8489379883 49.9051322937
-33.9495925903 36.7473220825 49.6926460266
-33.8697280884 36.6607589722 49.4829406738
-33.8197288513 36.6059722900 49.2793540955
-33.8132286072 36.5974693298 49.0848426819
-33.8520507813 36.6371917725 48.8998985291
-33.9257659912 36.7140426636 48.7224311829
-34.0203742981 36.8131217957 48.5495414734
-34.1262779236 36.9242248535 48.3792266846
-34.2381820679 37.0417137146 48.2103805542
-34.3504600525 37.1596031189 48.0418014526
-34.4561920166 37.2705268860 47.8719902039
-34.5509033203 37.3697242737 47.6999511719
-34.6358604431 37.4585456848 47.5259361267
-34.7163238525 37.5425872803 47.3510704041
-34.7950439453 37.6247711182 47.1759529114
-34.8668327332 37.6995811462 46.9994316101
-34.9203605652 37.7549629211 46.8189620972
-34.9448051453 37.7793960571 46.6320915222
-34.9338836670 37.7661933899 46.4373321533
-34.8865242004 37.7142143250 46.2343482971
-34.8091697693 37.6303176880 46.0244979858
-34.7178230286 37.5315284729 45.8113288879
-34.6327247620 37.4393844604 45.5994110107
-34.5675697327 37.3684692383 45.3918876648
-34.5241355896 37.3206634521 45.1892166138
-34.4965591431 37.2897300720 44.9901123047
-34.4785881042 37.2690200806 44.7931671143
-34.4672393799 37.2553596497 44.5977134705
-34.4630012512 37.2492675781 44.4038848877
-34.4694099426 37.2545013428 44.2125282288
-34.4925270081 37.2775192261 44.0250892639
-34.5382156372 37.3245582581 43.8429946899
-34.6069793701 37.3961524963 43.6664237976
-34.6914710999 37.4844894409 43.4936904907
-34.7820053101 37.5792579651 43.3225364685
-34.8756866455 37.6773796082 43.1522865295
-34.9774017334 37.7840499878 42.9841117859
-35.0894660950 37.9017372131 42.8185997009
-35.2021484375 38.0200843811 42.6534271240
-35.2971496582 38.1196098328 42.4841499329
-35.3599929810 38.1849136353 42.3072052002
-35.3878211975 38.2129554749 42.1218109131
-35.3875961304 38.2111358643 41.9295730591
-35.3701248169 38.1909637451 41.7330856323
-35.3446044922 38.1622200012 41.5345687866
-35.3147392273 38.1288566589 41.3349189758
-35.2777175903 38.0878677368 41.1334266663
-35.2273063660 38.0326385498 40.9285163879
-35.1601562500 37.9595832825 40.7193183899
-35.0810852051 37.8738403320 40.5069923401
-35.0025634766 37.7886810303 40.2946548462
-34.9380493164 37.7184333801 40.0857124329
-34.8955841064 37.6716499329 39.8822479248
-34.8777503967 37.6510810852 39.6849708557
-34.8859214783 37.6581954956 39.4943046570
-34.9214782715 37.6944618225 39.3106651306
-34.9814758301 37.7567405701 39.1333732605
-35.0548629761 37.8332710266 38.9596366882
-35.1262435913 37.9076690674 38.7854957581
-35.1846427917 37.9682502747 38.6080932617
-35.2281951904 38.0130271912 38.4269104004
-35.2612571716 38.0466384888 38.2430458069
-35.2890205383 38.0746078491 38.0578346252
-35.3145103455 38.1001625061 37.8720664978
-35.3383789063 38.1239852905 37.6859016418
-35.3601531982 38.1455841064 37.4992103577
-35.3802490234 38.1653938293 37.3121032715
-35.4013252258 38.1862487793 37.1252822876
-35.4266281128 38.2116012573 36.9396171570
-35.4554023743 38.2406539917 36.7549247742
-35.4798660278 38.2651138306 36.5691070557
-35.4885597229 38.2727851868 36.3790512085
-35.4739227295 38.2556228638 36.1826667786
-35.4361877441 38.2138710022 35.9799499512
-35.3802452087 38.1527366638 35.7721824646
-35.3110847473 38.0775337219 35.5606765747
-35.2344245911 37.9943389893 35.3469772339
-35.1616287231 37.9152565002 35.1341972351
-35.1114006042 37.8602066040 34.9275283813
-35.1022338867 37.8488616943 34.7321662903
-35.1394042969 37.8868484497 34.5496864319
-35.2093162537 37.9596900940 34.3764114380
-35.2891540527 38.0431022644 34.2060356140
-35.3629455566 38.1200790405 34.0340881348
-35.4279518127 38.1877021790 33.8597831726
-35.4878082275 38.2498474121 33.6841239929
-35.5433769226 38.3074264526 33.5073394775
-35.5909957886 38.3565406799 33.3283805847
-35.6266365051 38.3929023743 33.1460723877
-35.6491012573 38.4152412415 32.9600410461
-35.6595497131 38.4247817993 32.7705841064
-35.6595687866 38.4232215881 32.5781288147
-35.6499481201 38.4113960266 32.3828735352
-35.6301307678 38.3887176514 32.1846313477
-35.5980644226 38.3529968262 31.9827785492
-35.5516738892 38.3020210266 31.7766799927
-35.4926567078 38.2375984192 31.5667896271
-35.4293403625 38.1686019897 31.3555221558
-35.3736495972 38.1077232361 31.1463794708
-35.3332138062 38.0630874634 30.9416332245
-35.3067817688 38.0333595276 30.7409553528
-35.2874259949 38.0111656189 30.5423221588
-35.2689590454 37.9899215698 30.3439083099
-35.2501640320 37.9683227539 30.1453533173
-35.2363471985 37.9520263672 29.9482479095
-35.2381973267 37.9524116516 29.7558193207
-35.2664489746 37.9809036255 29.5713443756
-35.3246917725 38.0413360596 29.3959827423
-35.4060249329 38.1263542175 29.2277183533
-35.4960708618 38.2206497192 29.0622386932
-35.5801963806 38.3086471558 28.8950996399
-35.6508712769 38.3823165894 28.7239818573
-35.7098922729 38.4435806274 28.5494022369
-35.7631072998 38.4986610413 28.3731307983
-35.8127250671 38.5499153137 28.1958293915
-35.8551292419 38.5934867859 28.0163745880
-35.8851318359 38.6238517761 27.8331336975
-35.9007606506 38.6389122009 27.6454582214
-35.9037590027 38.6405220032 27.4538574219
-35.8962402344 38.6309356689 27.2589588165
-35.8773002625 38.6091880798 27.0604496002
-35.8428382874 38.5709037781 26.8570079803
-35.7892112732 38.5122146606 26.6474437714
-35.7175445557 38.4343109131 26.4320602417
-35.6339950562 38.3437538147 26.2127666473
-35.5456047058 38.2480430603 25.9917736053
-35.4569778442 38.1520767212 25.7705383301
-35.3718070984 38.0597915649 25.5502414703
-35.2963676453 37.9778633118 25.3329067230
-35.2396278381 37.9158515930 25.1214485168
-35.2088050842 37.8814392090 24.9182472229
-35.2040710449 37.8748092651 24.7234268188
-35.2174034119 37.8874206543 24.5344505310
-35.2374153137 37.9071426392 24.3476619720
-35.2564620972 37.9258422852 24.1605834961
-35.2742538452 37.9432029724 23.9731178284
-35.2953643799 37.9640960693 23.7867603302
-35.3230552673 37.9919967651 23.6025943756
-35.3542175293 38.0235977173 23.4196147919
-35.3794822693 38.0489196777 23.2347259521
-35.3887519836 38.0572052002 23.0445671082
-35.3778800964 38.0440368652 22.8477153778
-35.3506622314 38.0134620667 22.6453819275
-35.3143501282 37.9731979370 22.4399490356
-35.2735023499 37.9281044006 22.2329196930
-35.2284278870 37.8785095215 22.0243873596
-35.1790542603 37.8243331909 21.8143157959
-35.1288146973 37.7692375183 21.6038532257
-35.0839729309 37.7198829651 21.3951187134
-35.0496673584 37.6817550659 21.1898727417
-35.0275306702 37.6565856934 20.9887008667
-35.0167884827 37.6435546875 20.7913684845
-35.0167312622 37.6419029236 20.5976657867
-35.0281295776 37.6524505615 20.4078826904
-35.0529975891 37.6773452759 20.2227439880
-35.0930290222 37.7183952332 20.0428695679
-35.1472702026 37.7745780945 19.8679714203
-35.2104530334 37.8402862549 19.6962585449
-35.2737312317 37.9060974121 19.5246810913
-35.3278884888 37.9621925354 19.3500251770
-35.3670005798 38.0022659302 19.1701984406
-35.3901519775 38.0253334045 18.9848365784
-35.4001121521 38.0343551636 18.7948741913
-35.4002723694 38.0329360962 18.6014671326
-35.3920402527 38.0225753784 18.4050884247
-35.3740196228 38.0017929077 18.2052211761
-35.3431472778 37.9673156738 18.0007514954
-35.2972488403 37.9168357849 17.7908725739
-35.2376708984 37.8517761230 17.5760231018
-35.1698036194 37.7778930664 17.3580951691
-35.1006011963 37.7025833130 17.1395587921
-35.0346984863 37.6307868958 16.9220714569
-34.9730758667 37.5635528564 16.7059993744
-34.9168930054 37.5021095276 16.4917697906
-34.8729019165 37.4536514282 16.2818412781
-34.8528137207 37.4306564331 16.0804958344
-34.8648605347 37.4418945313 15.8907880783
-34.9068870544 37.4850692749 15.7120189667
-34.9693984985 37.5500717163 15.5407991409
-35.0435867310 37.6275100708 15.3739557266
-35.1233062744 37.7108421326 15.2092657089
-35.2012100220 37.7922439575 15.0440368652
-35.2681617737 37.8619766235 14.8748960495
-35.3180541992 37.9135360718 14.6995525360
-35.3508110046 37.9468421936 14.5179347992
-35.3699684143 37.9656600952 14.3313121796
-35.3788032532 37.9734802246 14.1408662796
-35.3790245056 37.9721260071 13.9472093582
-35.3715591431 37.9625778198 13.7506637573
-35.3571281433 37.9456138611 13.5514822006
-35.3356132507 37.9211006165 13.3496007919
-35.3050003052 37.8868904114 13.1442394257
-35.2618522644 37.8393287659 12.9340782166
-35.2047920227 37.7769432068 12.7185602188
-35.1387405396 37.7049789429 12.4995174408
-35.0752410889 37.6357269287 12.2813158035
-35.0268592834 37.5825843811 12.0687570572
-34.9998855591 37.5522499084 11.8642854691
-34.9910964966 37.5412902832 11.6667232513
-34.9910392761 37.5396347046 11.4724874496
-34.9917907715 37.5388412476 11.2785520554
-34.9935226440 37.5390892029 11.0849866867
-35.0042152405 37.5488891602 10.8948783875
-35.0328216553 37.5777702332 10.7117204666
-35.0818176270 37.6283798218 10.5365257263
-35.1445884705 37.6936683655 10.3667697906
-35.2090225220 37.7607269287 10.1977634430
-35.2645568848 37.8183021545 10.0253801346
-35.3071708679 37.8621177673 9.8480205536
-35.3386230469 37.8940353394 9.6663389206
-35.3619155884 37.9172592163 9.4814882278
-35.3779182434 37.9327163696 9.2937917709
-35.3853149414 37.9390029907 9.1027078629
-35.3820495605 37.9339332581 8.9074001312
-35.3659896851 37.9152221680 8.7069883347
-35.3350067139 37.8806152344 8.5005970001
-35.2885208130 37.8294868469 8.2879495621
-35.2306137085 37.7661857605 8.0706405640
-35.1719245911 37.7020492554 7.8529024124
-35.1273574829 37.6529617310 7.6407251358
-35.1102714539 37.6331596375 7.4395251274
-35.1267929077 37.6491699219 7.2518477440
-35.1739997864 37.6978759766 7.0766019821
-35.2426834106 37.7694740295 6.9101362228
-35.3220672607 37.8524703979 6.7481284142
-35.4035034180 37.9376564026 6.5870876312
-35.4818572998 38.0195617676 6.4249229431
-35.5545768738 38.0954589844 6.2605829239
-35.6197280884 38.1632957458 6.0932598114
-35.6753845215 38.2210159302 5.9221425056
-35.7208595276 38.2678833008 5.7469210625
-35.7572898865 38.3051147461 5.5680398941
-35.7859992981 38.3341178894 5.3860206604
-35.8065071106 38.3543777466 5.2006435394
-35.8166694641 38.3636169434 5.0109968185
-35.8148460388 38.3600769043 4.8163700104
-35.8018913269 38.3446807861 4.6170878410
-35.7813262939 38.3211708069 4.4145922661
-35.7575645447 38.2942543030 4.2107114792
-35.7336082458 38.2671279907 4.0066947937
-35.7098731995 38.2402381897 3.8027172089
-35.6846160889 38.2117271423 3.5980458260
-35.6552505493 38.1788330078 3.3915827274
-35.6201782227 38.1398620605 3.1826429367
-35.5810432434 38.0965538025 2.9719054699
-35.5437393188 38.0552024841 2.7618668079
-35.5165023804 38.0245780945 2.5560381413
-35.5061454773 38.0119438171 2.3573524952
-35.5153427124 38.0201492310 2.1670014858
-35.5418739319 38.0468292236 1.9840840101
-35.5789947510 38.0848007202 1.8057510853
-35.6172676086 38.1239967346 1.6279691458
-35.6480751038 38.1552352905 1.4470244646
-35.6670188904 38.1738319397 1.2609993219
-35.6748275757 38.1805572510 1.0701731443
-35.6752700806 38.1794319153 0.8761550188
-35.6720848083 38.1744422913 0.6805500388
-35.6668548584 38.1672744751 0.4840370715
-35.6587677002 38.1570549011 0.2862563133
-35.6458511353 38.1416931152 0.0863386095
34.8114318848 35.2210807800 92.4921493530
34.8506965637 35.2588806152 92.3038406372
34.9133224487 35.3191452026 92.1163940430
34.9831924438 35.3863792419 91.9292984009
35.0498924255 35.4505615234 91.7422027588
35.1114883423 35.5098381042 91.5550308228
35.1698226929 35.5659751892 91.3678283691
35.2249145508 35.6189956665 91.1805953979
35.2748680115 35.6670761108 90.9932403564
35.3198928833 35.7104148865 90.8057708740
35.3635482788 35.7524337769 90.6183166504
35.4086990356 35.7958946228 90.4309921265
35.4530830383 35.8386192322 90.2436981201
35.4898109436 35.8739776611 90.0561447144
35.5114173889 35.8947982788 89.8679656982
35.5123786926 35.8957557678 89.6788864136
35.4886703491 35.8729972839 89.4886474609
35.4367065430 35.8230628967 89.2970275879
35.3529243469 35.7425270081 89.1037826538
35.2352104187 35.6293601990 88.9087219238
35.0873756409 35.4872283936 88.7119522095
34.9228363037 35.3290290833 88.5140762329
34.7606010437 35.1730422974 88.3160247803
34.6168403625 35.0348281860 88.1186447144
34.5024375916 34.9248466492 87.9225769043
34.4266357422 34.8519859314 87.7283935547
34.3983078003 34.8247833252 87.5366821289
34.4223709106 34.8479614258 87.3478317261
34.4957962036 34.9186134338 87.1618194580
34.6075210571 35.0260963440 86.9781341553
34.7428092957 35.1562423706 86.7960052490
34.8877334595 35.2956542969 86.6146774292
35.0301971436 35.4326972961 86.4334411621
35.1599960327 35.5575637817 86.2516632080
35.2705421448 35.6639175415 86.0689163208
35.3598365784 35.7498283386 85.8850250244
35.4297904968 35.8171424866 85.7000427246
35.4857444763 35.8709907532 85.5142669678
35.5349845886 35.9183845520 85.3281478882
35.5825843811 35.9641990662 85.1419906616
35.6277313232 36.0076522827 84.9557495117
35.6649551392 36.0434913635 84.7690353394
35.6886634827 36.0663299561 84.5814514160
35.6954307556 36.0728759766 84.3927154541
35.6824455261 36.0604248047 84.2025909424
35.6456184387 36.0250511169 84.0107345581
35.5805282593 35.9624900818 83.8167648315
35.4852638245 35.8709106445 83.6204681396
35.3631896973 35.7535514832 83.4220123291
35.2253532410 35.6210365295 83.2221527100
35.0914573669 35.4923095703 83.0223541260
34.9856338501 35.3905792236 82.8244628906
34.9265441895 35.3337860107 82.6299972534
34.9187583923 35.3263397217 82.4394378662
34.9532585144 35.3595581055 82.2522048950
35.0160942078 35.4200248718 82.0672988892
35.0961570740 35.4970588684 81.8838806152
35.1855201721 35.5830383301 81.7013549805
35.2756805420 35.6697807312 81.5190429688
35.3565254211 35.7475662231 81.3361053467
35.4196586609 35.8083190918 81.1517944336
35.4618530273 35.8489379883 80.9658126831
35.4853553772 35.8715782166 80.7782745361
35.4959716797 35.8818244934 80.5896530151
35.5013084412 35.8869972229 80.4005737305
35.5082702637 35.8937301636 80.2116470337
35.5190429688 35.9041290283 80.0230636597
35.5289192200 35.9136657715 79.8344039917
35.5293731689 35.9141426086 79.6448974609
35.5146331787 35.9000053406 79.4539794922
35.4872932434 35.8737487793 79.2618637085
35.4595222473 35.8470840454 79.0696411133
35.4479064941 35.8359489441 78.8788986206
35.4639129639 35.8513832092 78.6907730103
35.5069694519 35.8928260803 78.5052719116
35.5652732849 35.9489364624 78.3213272095
35.6229972839 36.0044860840 78.1374130249
35.6684913635 36.0482788086 77.9523773193
35.6991157532 36.0777664185 77.7659301758
35.7205696106 36.0984344482 77.5785980225
35.7418174744 36.1189117432 77.3912811279
35.7691116333 36.1451988220 77.2046051025
35.8030090332 36.1778335571 77.0186538696
35.8395843506 36.2130470276 76.8330383301
35.8733329773 36.2455406189 76.6471710205
35.8988609314 36.2701301575 76.4604873657
35.9122200012 36.2830123901 76.2725372314
35.9136886597 36.2844657898 76.0833282471
35.9099617004 36.2809181213 75.8935394287
35.9116592407 36.2825889587 75.7043380737
35.9268608093 36.2972488403 75.5166168213
35.9558181763 36.3251342773 75.3304443359
35.9908447266 36.3588562012 75.1449890137
36.0204772949 36.3873901367 74.9589843750
36.0334358215 36.3998908997 74.7711257935
36.0195312500 36.3865585327 74.5801925659
35.9705123901 36.3394584656 74.3851776123
35.8854484558 36.2576904297 74.1858673096
35.7771301270 36.1535644531 73.9836807251
35.6701660156 36.0507354736 73.7814483643
35.5896987915 35.9733924866 73.5821838379
35.5522842407 35.9374465942 73.3879318237
35.5662193298 35.9508857727 73.1998062134
35.6339111328 36.0160217285 73.0182342529
35.7476615906 36.1254539490 72.8424148560
35.8842926025 36.2568855286 72.6696014404
36.0102119446 36.3780212402 72.4956893921
36.0964698792 36.4610137939 72.3170242310
36.1328430176 36.4960289001 72.1322250366
36.1328277588 36.4960556030 71.9428558350
36.1268386841 36.4903335571 71.7527236938
36.1463813782 36.5091667175 71.5658493042
36.2082443237 36.5686988831 71.3844833374
36.3071975708 36.6638984680 71.2080459595
36.4201202393 36.7725296021 71.0335998535
36.5196990967 36.8683319092 70.8575897217
36.5891227722 36.9351348877 70.6777267456
36.6264114380 36.9710311890 70.4936828613
36.6368217468 36.9810829163 70.3060760498
36.6229591370 36.9677886963 70.1151885986
36.5817985535 36.9282455444 69.9205474854
36.5097389221 36.8589820862 69.7215881348
36.4106750488 36.7637519836 69.5187683105
36.2994918823 36.6568717957 69.3140792847
36.1968193054 36.5581741333 69.1103820801
36.1188697815 36.4832458496 68.9099731445
36.0712051392 36.4374465942 68.7137145996
36.0509757996 36.4180335999 68.5212631226
36.0543022156 36.4212684631 68.3321533203
36.0822410583 36.4481735229 68.1465835571
36.1407470703 36.5044746399 67.9654922485
36.2338829041 36.5940856934 67.7895431519
36.3554763794 36.7110557556 67.6179275513
36.4888801575 36.8393859863 67.4482574463
36.6175270081 36.9631423950 67.2781066895
36.7345581055 37.0757255554 67.1064300537
36.8393135071 37.1765022278 66.9331054688
36.9269828796 37.2608528137 66.7573776245
36.9874916077 37.3190803528 66.5776596069
37.0154075623 37.3459663391 66.3930587769
37.0164947510 37.3470497131 66.2043762207
37.0017929077 37.3329505920 66.0132446289
36.9770774841 37.3092193604 65.8205261230
36.9401130676 37.2737121582 65.6258392334
36.8878288269 37.2234687805 65.4286651611
36.8241119385 37.1622314453 65.2295913696
36.7596511841 37.1002807617 65.0302810669
36.7055587769 37.0482978821 64.8325042725
36.6689186096 37.0131034851 64.6374359131
36.6536750793 36.9984817505 64.4457473755
36.6626548767 37.0071525574 64.2579574585
36.6964759827 37.0397186279 64.0742263794
36.7505149841 37.0917243958 63.8938751221
36.8140754700 37.1528892517 63.7151756287
36.8735504150 37.2101211548 63.5359001160
36.9173507690 37.2522811890 63.3541030884
36.9394226074 37.2735443115 63.1687355042
36.9402885437 37.2744140625 62.9798240662
36.9269790649 37.2616539001 62.7885055542
36.9121284485 37.2474136353 62.5968933105
36.9104537964 37.2458419800 62.4075012207
36.9327316284 37.2673034668 62.2222175598
36.9809494019 37.3137092590 62.0414505005
37.0475120544 37.3777618408 61.8639411926
37.1183700562 37.4459419250 61.6872901917
37.1782684326 37.5035820007 61.5088310242
37.2166137695 37.5404968262 61.3266716003
37.2313156128 37.5546722412 61.1403770447
37.2277603149 37.5512924194 60.9508514404
37.2131729126 37.5373039246 60.7593345642
37.1901931763 37.5152397156 60.5662765503
37.1538581848 37.4803390503 60.3707618713
37.0953483582 37.4241104126 60.1711463928
37.0118331909 37.3438339233 59.9668579102
36.9131584167 37.2489814758 59.7596435547
36.8163986206 37.1559677124 59.5525970459
36.7342834473 37.0770378113 59.3480834961
36.6720046997 37.0171852112 59.1471099854
36.6336784363 36.9803657532 58.9504890442
36.6267585754 36.9737472534 58.7596893311
36.6594734192 37.0052490234 58.5763359070
36.7371940613 37.0800285339 58.4015541077
36.8605537415 37.1986999512 58.2355842590
37.0211944580 37.3532218933 58.0769424438
37.1971664429 37.5224876404 57.9215164185
37.3590240479 37.6781806946 57.7636642456
37.4863548279 37.8006668091 57.5993995667
37.5778999329 37.8887405396 57.4283828735
37.6446533203 37.9529762268 57.2526741028
37.6961441040 38.0025291443 57.0740776062
37.7349357605 38.0398750305 56.8930549622
37.7601890564 38.0641975403 56.7094154358
37.7711067200 38.0747337341 56.5229568481
37.7653160095 38.0692024231 56.3331680298
37.7361755371 38.0412178040 56.1386795044
37.6758384705 37.9832305908 55.9378433228
37.5847778320 37.8957023621 55.7306747437
37.4781112671 37.7931594849 55.5201683044
37.3782386780 37.6971549988 55.3108520508
37.2991142273 37.6211051941 55.1056098938
37.2396545410 37.5639610291 54.9042701721
37.1949157715 37.5209732056 54.7058639526
37.1721725464 37.4991455078 54.5119361877
37.1897163391 37.5160522461 54.3263626099
37.2532386780 37.5771789551 54.1504364014
37.3374023438 37.6581535339 53.9789543152
37.4026679993 37.7209587097 53.8036193848
37.4331207275 37.7502784729 53.6210098267
37.4496345520 37.7661972046 53.4354782104
37.4838027954 37.7990951538 53.2537384033
37.5454025269 37.8583717346 53.0779418945
37.6176757813 37.9279136658 52.9045410156
37.6785011292 37.9864463806 52.7287788391
37.7204132080 38.0267906189 52.5490112305
37.7517013550 38.0569190979 52.3669891357
37.7844734192 38.0884704590 52.1853370667
37.8240242004 38.1265449524 52.0052261353
37.8666877747 38.1676101685 51.8258628845
37.9044609070 38.2039718628 51.6454772949
37.9313087463 38.2298316956 51.4627227783
37.9457588196 38.2437629700 51.2772407532
37.9485054016 38.2464447021 51.0891494751
37.9380302429 38.2364120483 50.8980789185
37.9083747864 38.2079315186 50.7026481628
37.8519744873 38.1537284851 50.5010948181
37.7674903870 38.0725212097 50.2930374146
37.6666908264 37.9756278992 50.0811004639
37.5725173950 37.8851013184 49.8704948425
37.5075988770 37.8227081299 49.6664543152
37.4816436768 37.7977867126 49.4713020325
37.4871940613 37.8031616211 49.2834053040
37.5066413879 37.8219070435 49.0987472534
37.5247612000 37.8393669128 48.9138031006
37.5382614136 37.8523902893 48.7277984619
37.5576972961 37.8711166382 48.5432052612
37.6001091003 37.9119415283 48.3640708923
37.6742515564 37.9832801819 48.1925315857
37.7694664001 38.0748825073 48.0261268616
37.8609733582 38.1629180908 47.8589973450
37.9270629883 38.2265129089 47.6859245300
37.9599952698 38.2582244873 47.5049743652
37.9637908936 38.2619094849 47.3170318604
37.9481887817 38.2469444275 47.1243820190
37.9259605408 38.2256088257 46.9300880432
37.9106636047 38.2109375000 46.7374420166
37.9117813110 38.2120475769 46.5487785339
37.9301757813 38.2297782898 46.3643608093
37.9583206177 38.2568817139 46.1823768616
37.9856681824 38.2832183838 46.0002326965
38.0049819946 38.3018264771 45.8161315918
38.0145301819 38.3110504150 45.6296195984
38.0154571533 38.3119812012 45.4409599304
38.0079002380 38.3047523499 45.2501602173
37.9889602661 38.2865753174 45.0564689636
37.9540977478 38.2530899048 44.8587112427
37.9026184082 38.2036209106 44.6566658020
37.8441581726 38.1474418640 44.4527435303
37.7975387573 38.1026496887 44.2517395020
37.7789535522 38.0848159790 44.0578308105
37.7909736633 38.0964088440 43.8717575073
37.8239479065 38.1281623840 43.6911125183
37.8648567200 38.1675415039 43.5125694275
37.9019241333 38.2032203674 43.3330879211
37.9235916138 38.2240982056 43.1496505737
37.9186706543 38.2194061279 42.9592819214
37.8818359375 38.1840209961 42.7605171204
37.8200988770 38.1246871948 42.5551223755
37.7513313293 38.0585937500 42.3477516174
37.6945800781 38.0040588379 42.1434402466
37.6628570557 37.9735908508 41.9456787109
37.6637649536 37.9745025635 41.7565650940
37.6990051270 38.0084304810 41.5766372681
37.7568321228 38.0640792847 41.4028320313
37.8089981079 38.1142845154 41.2275924683
37.8249855042 38.1296958923 41.0426559448
37.7925300598 38.0985221863 40.8445930481
37.7221984863 38.0309257507 40.6361579895
37.6350212097 37.9471321106 40.4229927063
37.5519943237 37.8673286438 40.2108039856
37.4929618835 37.8105964661 40.0050544739
37.4761810303 37.7944946289 39.8108406067
37.5132446289 37.8301811218 39.6314811707
37.6030502319 37.9165802002 39.4668083191
37.7290954590 38.0378265381 39.3123664856
37.8631591797 38.1667900085 39.1603775024
37.9769744873 38.2762794495 39.0029411316
38.0555610657 38.3518905640 38.8358039856
38.1011390686 38.3957557678 38.6594924927
38.1255035400 38.4192314148 38.4772567749
38.1400833130 38.4332847595 38.2922821045
38.1512413025 38.4440574646 38.1063499451
38.1605033875 38.4530029297 37.9198913574
38.1655769348 38.4579200745 37.7322387695
38.1599159241 38.4525108337 37.5415077209
38.1320304871 38.4257354736 37.3443565369
38.0683441162 38.3645286560 37.1368141174
37.9619979858 38.2622985840 36.9167938232
37.8223571777 38.1280517578 36.6869087219
37.6749420166 37.9863281250 36.4545059204
37.5487442017 37.8650093079 36.2280387878
37.4615669250 37.7812118530 36.0127792358
37.4158134460 37.7372550964 35.8095359802
37.4060745239 37.7279281616 35.6168289185
37.4288444519 37.7498626709 35.4337081909
37.4844741821 37.8033981323 35.2603683472
37.5697898865 37.8854789734 35.0959510803
37.6696243286 37.9815216064 34.9360046387
37.7577819824 38.0663375854 34.7727279663
37.8094139099 38.1160316467 34.5986404419
37.8158073425 38.1222152710 34.4110145569
37.7893486023 38.0968093872 34.2134704590
37.7541580200 38.0630073547 34.0132331848
37.7312583923 38.0410232544 33.8166542053
37.7321357727 38.0419082642 33.6272697449
37.7625350952 38.0711822510 33.4468955994
37.8249664307 38.1312561035 33.2763748169
37.9126701355 38.2156372070 33.1137161255
38.0037460327 38.3032531738 32.9522438049
38.0687637329 38.3658180237 32.7828712463
38.0892944336 38.3855972290 32.5998229980
38.0689735413 38.3660964966 32.4041137695
38.0264053345 38.3251991272 32.2014312744
37.9794616699 38.2800941467 31.9972991943
37.9370689392 38.2393646240 31.7945022583
37.9014511108 38.2051506042 31.5937500000
37.8725395203 38.1773910522 31.3950405121
37.8495750427 38.1553421021 31.1981506348
37.8314170837 38.1379241943 31.0027351379
37.8170242310 38.1241188049 30.8084754944
37.8053817749 38.1129646301 30.6150569916
37.7948379517 38.1028594971 30.4219627380
37.7829322815 38.0914497375 30.2284030914
37.7673950195 38.0765495300 30.0336513519
37.7475280762 38.0574798584 29.8374671936
37.7251396179 38.0359878540 29.6404266357
37.7048339844 38.0164985657 29.4440135956
37.6929016113 38.0050659180 29.2502746582
37.6938896179 38.0060539246 29.0607109070
37.7070388794 38.0187377930 28.8751106262
37.7264633179 38.0374565125 28.6915798187
37.7441749573 38.0545272827 28.5075130463
37.7504615784 38.0606117249 28.3197097778
37.7308616638 38.0418014526 28.1233692169
37.6675148010 37.9809226990 27.9125137329
37.5505714417 37.8685035706 27.6837654114
37.3913764954 37.7154541016 27.4407539368
37.2214736938 37.5521087646 27.1938858032
37.0752220154 37.4115028381 26.9546165466
36.9721565247 37.3124313354 26.7295589447
36.9135284424 37.2560882568 26.5192413330
36.8902397156 37.2337341309 26.3207206726
36.8907737732 37.2342872620 26.1301994324
36.9042091370 37.2472457886 25.9440364838
36.9225120544 37.2648849487 25.7595443726
36.9454879761 37.2870178223 25.5766639709
36.9831123352 37.3232383728 25.3988170624
37.0487670898 37.3864135742 25.2306175232
37.1471939087 37.4811019897 25.0737667084
37.2689743042 37.5982475281 24.9251136780
37.3962402344 37.7206764221 24.7785568237
37.5116653442 37.8317070007 24.6281204224
37.6031494141 37.9197235107 24.4695816040
37.6658477783 37.9800529480 24.3011951447
37.7029724121 38.0157928467 24.1240024567
37.7222404480 38.0343627930 23.9406318665
37.7289047241 38.0408058167 23.7528724670
37.7216758728 38.0338935852 23.5602436066
37.6953582764 38.0086250305 23.3608760834
37.6477432251 37.9628753662 23.1539440155
37.5836563110 37.9012870789 22.9410972595
37.5108299255 37.8312911987 22.7250308990
37.4322509766 37.7557640076 22.5067844391
37.3464393616 37.6732826233 22.2858161926
37.2553977966 37.5857734680 22.0628204346
37.1677780151 37.5015525818 21.8408832550
37.0939483643 37.4305992126 21.6237316132
37.0419006348 37.3805847168 21.4142780304
37.0158882141 37.3556098938 21.2141113281
37.0125770569 37.3524627686 21.0220947266
37.0186653137 37.3583564758 20.8334732056
37.0179634094 37.3577232361 20.6423854828
37.0028114319 37.3431892395 20.4460277557
36.9778022766 37.3191757202 20.2460365295
36.9532356262 37.2955932617 20.0461559296
36.9363861084 37.2794265747 19.8490543365
36.9281616211 37.2715606689 19.6550846100
36.9255218506 37.2690582275 19.4631500244
36.9250259399 37.2686233521 19.2719955444
36.9245567322 37.2682075500 19.0808391571
36.9230117798 37.2667617798 18.8892765045
36.9193305969 37.2632598877 18.6969070435
36.9114799500 37.2557487488 18.5029678345
36.8962631226 37.2411537170 18.3062553406
36.8712539673 37.2171440125 18.1058368683
36.8388633728 37.1860351563 17.9025974274
36.8094444275 37.1577835083 17.7004089355
36.7988662720 37.1476516724 17.5052700043
36.8197822571 37.1678047180 17.3220119476
36.8721656799 37.2182159424 17.1507091522
36.9412956238 37.2847328186 16.9858512878
37.0065803528 37.3475532532 16.8196430206
37.0541572571 37.3933410645 16.6467819214
37.0820808411 37.4202308655 16.4664783478
37.0956878662 37.4333534241 16.2807254791
37.1004562378 37.4379806519 16.0915946960
37.0991325378 37.4367446899 15.9001159668
37.0930900574 37.4309730530 15.7068042755
37.0843391418 37.4225997925 15.5124263763
37.0756607056 37.4142913818 15.3180532455
37.0691947937 37.4081153870 15.1245164871
37.0653915405 37.4044952393 14.9319963455
37.0630760193 37.4023056030 14.7400417328
37.0597610474 37.3991584778 14.5476846695
37.0516014099 37.3913459778 14.3534126282
37.0334854126 37.3739662170 14.1552047729
37.0002059937 37.3420028687 13.9509830475
36.9487533569 37.2925643921 13.7395210266
36.8811340332 37.2275772095 13.5215606689
36.8059043884 37.1552734375 13.3004550934
36.7361030579 37.0881881714 13.0813674927
36.6833305359 37.0374832153 12.8689317703
36.6525230408 37.0078964233 12.6651649475
36.6422309875 36.9980354309 12.4695415497
36.6495742798 37.0051383972 12.2809648514
36.6748886108 37.0295219421 12.0996131897
36.7217254639 37.0746002197 11.9269666672
36.7915954590 37.1418266296 11.7636899948
36.8775672913 37.2245368958 11.6070404053
36.9638671875 37.3075637817 11.4506664276
37.0337905884 37.3748435974 11.2877845764
37.0786666870 37.4180374146 11.1148185730
37.0993385315 37.4379539490 10.9320478439
37.1010932922 37.4396781921 10.7415695190
37.0888175964 37.4279136658 10.5453376770
37.0656166077 37.4056434631 10.3445882797
37.0331993103 37.3745079041 10.1399974823
36.9929351807 37.3358306885 9.9321060181
36.9475212097 37.2921981812 9.7220058441
36.9021415710 37.2485961914 9.5118312836
36.8643417358 37.2122840881 9.3047151566
36.8432769775 37.1920661926 9.1044845581
36.8485374451 37.1971664429 8.9151821136
36.8872718811 37.2344512939 8.7398605347
36.9597549438 37.3041954041 8.5787267685
37.0567665100 37.3975219727 8.4280004501
37.1631584167 37.4998664856 8.2813768387
37.2673873901 37.6001358032 8.1340227127
37.3682823181 37.6971969604 7.9854364395
37.4695434570 37.7946090698 7.8371734619
37.5674018860 37.8887557983 7.6876397133
37.6484260559 37.9667053223 7.5311183929
37.7017173767 38.0179939270 7.3629293442
37.7299613953 38.0451889038 7.1841416359
37.7464141846 38.0610504150 7.0003581047
37.7635574341 38.0775756836 6.8168892860
37.7858390808 38.0990409851 6.6356487274
37.8105964661 38.1228828430 6.4555015564
37.8328552246 38.1443290710 6.2743144035
37.8491630554 38.1600494385 6.0905890465
37.8587226868 38.1692810059 5.9039640427
37.8627548218 38.1731987000 5.7149519920
37.8635673523 38.1740188599 5.5245394707
37.8634490967 38.1739425659 5.3337144852
37.8632278442 38.1737709045 5.1428365707
37.8613967896 38.1720466614 4.9512453079
37.8550567627 38.1659889221 4.7576689720
37.8424034119 38.1538619995 4.5613021851
37.8250999451 38.1372604370 4.3628602028
37.8088989258 38.1217193604 4.1648650169
37.8010749817 38.1142349243 3.9705314636
37.8056945801 38.1187133789 3.7816786766
37.8211288452 38.1335945129 3.5976207256
37.8426208496 38.1543006897 3.4162707329
37.8664779663 38.1772842407 3.2360041142
37.8914833069 38.2013664246 3.0562820435
37.9174728394 38.2263984680 2.8770353794
37.9437828064 38.2517356873 2.6979687214
37.9686470032 38.2756881714 2.5182936192
37.9892196655 38.2955055237 2.3367230892
38.0018806458 38.3077201843 2.1516203880
38.0034484863 38.3092651367 1.9615250826
37.9931335449 38.2993888855 1.7660545111
37.9738311768 38.2808609009 1.5664852858
37.9507293701 38.2586898804 1.3651512861
37.9280776978 38.2369422913 1.1639709473
37.9068641663 38.2165832520 0.9633985758
37.8850860596 38.1956825256 0.7625238299
37.8596458435 38.1712532043 0.5599259138
37.8285293579 38.1413688660 0.3546740115
37.7925987244 38.1068572998 0.1471491754
-4.7518992424 21.1514911652 88.0516281128
-4.7563056946 21.1638870239 87.8440475464
-4.7661910057 21.1975269318 87.6369552612
-4.7821383476 21.2546730042 87.4304580688
-4.8035306931 21.3329315186 87.2245254517
-4.8284807205 21.4249858856 87.0190200806
-4.8554725647 21.5249595642 86.8138275146
-4.8852534294 21.6357517242 86.6090240479
-4.9200654030 21.7660541534 86.4048690796
-4.9596428871 21.9148368835 86.2013702393
-4.9978671074 22.0583782196 85.9978942871
-5.0246944427 22.1577262878 85.7933273315
-5.0328741074 22.1847705841 85.5867691040
-5.0239253044 22.1453914642 85.3782577515
-5.0080790520 22.0792655945 85.1688766479
-4.9976978302 22.0343284607 84.9600677490
-4.9994025230 22.0362606049 84.7526626587
-5.0118680000 22.0799236298 84.5466003418
-5.0307254791 22.1483745575 84.3414001465
-5.0550413132 22.2379951477 84.1369781494
-5.0893616676 22.3664188385 83.9339752197
-5.1401443481 22.5586891174 83.7333374023
-5.2099151611 22.8246059418 83.5355224609
-5.2938623428 23.1455116272 83.3400039673
-5.3816046715 23.4811439514 83.1454086304
-5.4625887871 23.7905750275 82.9502410889
-5.5311565399 24.0518589020 82.7536239624
-5.5883851051 24.2691669464 82.5556411743
-5.6396212578 24.4632396698 82.3570022583
-5.6889519691 24.6499271393 82.1583099365
-5.7349720001 24.8237800598 81.9593124390
-5.7721338272 24.9632778168 81.7591247559
-5.7961363792 25.0517368317 81.5569839478
-5.8073925972 25.0907554626 81.3528594971
-5.8097491264 25.0952548981 81.1473007202
-5.8072757721 25.0810184479 80.9409255981
-5.8026871681 25.0585765839 80.7341690063
-5.7976546288 25.0344123840 80.5272903442
-5.7933373451 25.0130214691 80.3205032349
-5.7905440331 24.9975414276 80.1139450073
-5.7898101807 24.9900493622 79.9077377319
-5.7909283638 24.9897422791 79.7018432617
-5.7915644646 24.9875659943 79.4958496094
-5.7865157127 24.9633331299 79.2887802124
-5.7701878548 24.8953418732 79.0795364380
-5.7418231964 24.7806529999 78.8678894043
-5.7084197998 24.6464138031 78.6551132202
-5.6811103821 24.5358123779 78.4433593750
-5.6678214073 24.4796009064 78.2342529297
-5.6696834564 24.4821720123 78.0281143188
-5.6838364601 24.5324268341 77.8244781494
-5.7075066566 24.6196098328 77.6228561401
-5.7381029129 24.7336673737 77.4227752686
-5.7709341049 24.8563976288 77.2233047485
-5.7997231483 24.9634494781 77.0231018066
-5.8207783699 25.0404949188 76.8213653564
-5.8362832069 25.0960083008 76.6184921265
-5.8527660370 25.1553153992 76.4159011841
-5.8756723404 25.2395496368 76.2148056030
-5.9050469398 25.3488845825 76.0152587891
-5.9364275932 25.4660072327 75.8162918091
-5.9657459259 25.5751304626 75.6169891357
-5.9932346344 25.6771545410 75.4173889160
-6.0229716301 25.7879066467 75.2184295654
-6.0587530136 25.9221191406 75.0210342407
-6.1004123688 26.0791416168 74.8252029419
-6.1449060440 26.2471694946 74.6302490234
-6.1911559105 26.4220161438 74.4359130859
-6.2423214912 26.6159458160 74.2430038452
-6.3020997047 26.8433036804 74.0524749756
-6.3697905540 27.1013755798 73.8642044067
-6.4405794144 27.3714790344 73.6770324707
-6.5103397369 27.6375961304 73.4899215698
-6.5781483650 27.8961467743 73.3026199341
-6.6437392235 28.1460952759 73.1150512695
-6.7048506737 28.3786678314 72.9266052246
-6.7592306137 28.5851192474 72.7366409302
-6.8083806038 28.7712783813 72.5455245972
-6.8566169739 28.9538936615 72.3543701172
-6.9053959846 29.1386241913 72.1635894775
-6.9500894547 29.3074989319 71.9719009399
-6.9836654663 29.4332275391 71.7773132324
-7.0030622482 29.5039215088 71.5789031982
-7.0114006996 29.5316925049 71.3774337769
-7.0149440765 29.5408535004 71.1746215820
-7.0192131996 29.5528316498 70.9720230103
-7.0278582573 29.5817947388 70.7706985474
-7.0436220169 29.6383914948 70.5714797974
-7.0690979958 29.7326927185 70.3751907349
-7.1063656807 29.8727703094 70.1825180054
-7.1561741829 30.0615329742 69.9937667847
-7.2170829773 30.2933940887 69.8085861206
-7.2850275040 30.5525722504 69.6258392334
-7.3541531563 30.8163433075 69.4437561035
-7.4189372063 31.0632686615 69.2606506348
-7.4759378433 31.2799816132 69.0754089355
-7.5236573219 31.4606704712 68.8875198364
-7.5612020493 31.6018619537 68.6966171265
-7.5877895355 31.7005138397 68.5023880005
-7.6038765907 31.7584037781 68.3048934937
-7.6121563911 31.7859840393 68.1049346924
-7.6164479256 31.7980766296 67.9037017822
-7.6192479134 31.8043823242 67.7019805908
-7.6207423210 31.8056163788 67.4998321533
-7.6203618050 31.7995719910 67.2970428467
-7.6192955971 31.7908630371 67.0940093994
-7.6216626167 31.7954864502 66.8921203613
-7.6329040527 31.8345661163 66.6932449341
-7.6557297707 31.9186286926 66.4983901978
-7.6867918968 32.0346755981 66.3064727783
-7.7181096077 32.1517181396 66.1147689819
-7.7429070473 32.2434425354 65.9209289551
-7.7605586052 32.3074226379 65.7246704102
-7.7766418457 32.3653144836 65.5279235840
-7.7991881371 32.4483070374 65.3335494995
-7.8341970444 32.5796928406 65.1437530518
-7.8825168610 32.7627754211 64.9589309692
-7.9393372536 32.9788780212 64.7774276733
-7.9961090088 33.1947937012 64.5961685181
-8.0438098907 33.3754882813 64.4118118286
-8.0767602921 33.4989051819 64.2221832275
-8.0951757431 33.5658721924 64.0272598267
-8.1039981842 33.5955886841 63.8287963867
-8.1088714600 33.6099662781 63.6288642883
-8.1131267548 33.6219444275 63.4287033081
-8.1177806854 33.6354713440 63.2287025452
-8.1228799820 33.6507301331 63.0288772583
-8.1281175613 33.6665267944 62.8291206360
-8.1327123642 33.6798248291 62.6291198730
-8.1358270645 33.6873741150 62.4285430908
-8.1379089355 33.6909103394 62.2275581360
-8.1415739059 33.7005958557 62.0271987915
-8.1509513855 33.7324752808 61.8291320801
-8.1702013016 33.8026962280 61.6350784302
-8.2021360397 33.9221916199 61.4462432861
-8.2471075058 34.0923347473 61.2628707886
-8.3027563095 34.3039550781 61.0840797424
-8.3651895523 34.5419349670 60.9083442688
-8.4304361343 34.7908515930 60.7340660095
-8.4948444366 35.0365142822 60.5597305298
-8.5551319122 35.2661819458 60.3839645386
-8.6090278625 35.4710235596 60.2057723999
-8.6556167603 35.6474800110 60.0247192383
-8.6946706772 35.7946739197 59.8406600952
-8.7259368896 35.9116172791 59.6534233093
-8.7494173050 35.9983139038 59.4629592896
-8.7659206390 36.0579109192 59.2695617676
-8.7764949799 36.0944709778 59.0736389160
-8.7810173035 36.1075248718 58.8750915527
-8.7779350281 36.0910301208 58.6731948853
-8.7663192749 36.0413780212 58.4674758911
-8.7486515045 35.9682121277 58.2589797974
-8.7315187454 35.8971252441 58.0506286621
-8.7230644226 35.8597526550 57.8460922241
-8.7291269302 35.8787841797 57.6480941772
-8.7512474060 35.9602050781 57.4574356079
-8.7874984741 36.0965385437 57.2733497620
-8.8341445923 36.2732658386 57.0942153931
-8.8865242004 36.4722747803 56.9179496765
-8.9398136139 36.6748199463 56.7423477173
-8.9901676178 36.8659706116 56.5656127930
-9.0354490280 37.0374145508 56.3867187500
-9.0752582550 37.1875953674 56.2054367065
-9.1108751297 37.3214874268 56.0223426819
-9.1446609497 37.4482727051 55.8385276794
-9.1780881882 37.5736656189 55.6546897888
-9.2098369598 37.6925430298 55.4701843262
-9.2365388870 37.7918090820 55.2833709717
-9.2557020187 37.8617744446 55.0929985046
-9.2674932480 37.9030990601 54.8990859985
-9.2739658356 37.9237556458 54.7025985718
-9.2773609161 37.9324493408 54.5046043396
-9.2792453766 37.9352722168 54.3058624268
-9.2805137634 37.9356994629 54.1068038940
-9.2816667557 37.9356803894 53.9076805115
-9.2830924988 37.9367218018 53.7086830139
-9.2854099274 37.9412269592 53.5101318359
-9.2899169922 37.9542388916 53.3126907349
-9.2989416122 37.9848136902 53.1175727844
-9.3155412674 38.0448341370 52.9263763428
-9.3422060013 38.1439743042 52.7404441833
-9.3793468475 38.2838363647 52.5600662231
-9.4249696732 38.4566726685 52.3842773438
-9.4754419327 38.6483612061 52.2112312317
-9.5259695053 38.8402709961 52.0384445190
-9.5708990097 39.0104293823 51.8629302979
-9.6054630280 39.1402931213 51.6821098328
-9.6284379959 39.2251167297 51.4952621460
-9.6427259445 39.2761688232 51.3038482666
-9.6528415680 39.3110046387 51.1102485657
-9.6619052887 39.3417549133 50.9161071777
-9.6706256866 39.3711700439 50.7218132019
-9.6781616211 39.3959770203 50.5269012451
-9.6835460663 39.4124259949 50.3308296204
-9.6867113113 39.4202461243 50.1335449219
-9.6884517670 39.4225234985 49.9354743958
-9.6894779205 39.4220314026 49.7370033264
-9.6899700165 39.4194526672 49.5382232666
-9.6910610199 39.4192085266 49.3397636414
-9.6969795227 39.4377326965 49.1440162659
-9.7144603729 39.5012092590 48.9548110962
-9.7485275269 39.6291770935 48.7750892639
-9.7985115051 39.8190307617 48.6045913696
-9.8586111069 40.0482215881 48.4401092529
-9.9224424362 40.2919273376 48.2780456543
-9.9866132736 40.5369606018 48.1164741516
-10.0501012802 40.7793464661 47.9548034668
-10.1115036011 41.0136299133 47.7922134399
-10.1681337357 41.2293586731 47.6271133423
-10.2175598145 41.4170875549 47.4580497742
-10.2589244843 41.5734672546 47.2844543457
-10.2924575806 41.6994056702 47.1064147949
-10.3183908463 41.7957916260 46.9240074158
-10.3367843628 41.8628578186 46.7372131348
-10.3481082916 41.9024353027 46.5462570190
-10.3535699844 41.9192161560 46.3518180847
-10.3550662994 41.9205818176 46.1549949646
-10.3551712036 41.9165344238 45.9573211670
-10.3569812775 41.9191131592 45.7606697083
-10.3635873795 41.9403495789 45.5669441223
-10.3775844574 41.9903259277 45.3777732849
-10.4006004333 42.0753822327 45.1942062378
-10.4325151443 42.1950454712 45.0162391663
-10.4711742401 42.3409423828 44.8426017761
-10.5136289597 42.5016098022 44.6715049744
-10.5578689575 42.6692161560 44.5017127991
-10.6031723022 42.8409729004 44.3327865601
-10.6488437653 43.0141601563 44.1643028259
-10.6927919388 43.1806488037 43.9949302673
-10.7316236496 43.3272438049 43.8225097656
-10.7624616623 43.4427528381 43.6451644897
-10.7847738266 43.5251007080 43.4624938965
-10.8004255295 43.5815391541 43.2756347656
-10.8121843338 43.6228408813 43.0863265991
-10.8222150803 43.6574211121 42.8959426880
-10.8314027786 43.6887245178 42.7050476074
-10.8394994736 43.7157821655 42.5134696960
-10.8457536697 43.7356719971 42.3207054138
-10.8496685028 43.7464675903 42.1264266968
-10.8514738083 43.7490501404 41.9307556152
-10.8523159027 43.7478904724 41.7344398499
-10.8544139862 43.7516136169 41.5389518738
-10.8609018326 43.7724151611 41.3463859558
-10.8747920990 43.8220138550 41.1587905884
-10.8975477219 43.9061050415 40.9772033691
-10.9289093018 44.0236778259 40.8015174866
-10.9681949615 44.1720809937 40.6313285828
-11.0149555206 44.3495712280 40.4663925171
-11.0678510666 44.5509300232 40.3058509827
-11.1235227585 44.7630996704 40.1474494934
-11.1772212982 44.9675979614 39.9879493713
-11.2247819901 45.1482200623 39.8244705200
-11.2645969391 45.2987098694 39.6558532715
-11.2982358932 45.4251785278 39.4831275940
-11.3289051056 45.5400886536 39.3084869385
-11.3588342667 45.6521263123 39.1334648132
-11.3878803253 45.7607269287 38.9579505920
-11.4142704010 45.8590011597 38.7806968689
-11.4362831116 45.9402427673 38.6004676819
-11.4531002045 46.0012702942 38.4166526794
-11.4644060135 46.0408515930 38.2289848328
-11.4699363708 46.0579605103 38.0372390747
-11.4698915482 46.0533752441 37.8415184021
-11.4652814865 46.0310249329 37.6425056458
-11.4571094513 45.9948120117 37.4408874512
-11.4454736710 45.9451179504 37.2367095947
-11.4306201935 45.8829040527 37.0301284790
-11.4156799316 45.8203468323 36.8233985901
-11.4077835083 45.7852058411 36.6217269897
-11.4147739410 45.8079910278 36.4309043884
-11.4394979477 45.8997955322 36.2531356812
-11.4772491455 46.0423011780 36.0850791931
-11.5189666748 46.2002487183 35.9201278687
-11.5572719574 46.3449172974 35.7528343201
-11.5904979706 46.4698219299 35.5819244385
-11.6221532822 46.5886154175 35.4099922180
-11.6567888260 46.7190170288 35.2404327393
-11.6956472397 46.8658523560 35.0742034912
-11.7352447510 47.0155715942 34.9087066650
-11.7695331573 47.1446266174 34.7393684387
-11.7935152054 47.2335739136 34.5623588562
-11.8055915833 47.2761840820 34.3763809204
-11.8076496124 47.2797966003 34.1827888489
-11.8035516739 47.2594451904 33.9844741821
-11.7971229553 47.2300186157 33.7843284607
-11.7905712128 47.2001152039 33.5840454102
-11.7841129303 47.1705780029 33.3837890625
-11.7766981125 47.1373100281 33.1827430725
-11.7671661377 47.0958023071 32.9799957275
-11.7555999756 47.0463752747 32.7756004333
-11.7445392609 46.9989128113 32.5715293884
-11.7386417389 46.9715461731 32.3714485168
-11.7421436310 46.9807739258 32.1787376404
-11.7564916611 47.0322265625 31.9946079254
-11.7807474136 47.1222534180 31.8183956146
-11.8135375977 47.2455024719 31.6490802765
-11.8536310196 47.3971939087 31.4857425690
-11.8991470337 47.5699996948 31.3269271851
