21.0536136627 -32.2896766663 5.3828234673
21.0933723450 -32.3604812622 5.2052526474
21.1282978058 -32.4236984253 5.0251460075
21.1616096497 -32.4843788147 4.8442416191
21.1985416412 -32.5507392883 4.6653923988
21.2447109222 -32.6315803528 4.4916834831
21.3046340942 -32.7339897156 4.3256273270
21.3811893463 -32.8624725342 4.1688508987
21.4752998352 -33.0184822083 4.0219235420
21.5848350525 -33.1986694336 3.8837308884
21.7034397125 -33.3930625916 3.7508106232
21.8212165833 -33.5861511230 3.6177086830
21.9272556305 -33.7608222961 3.4783625603
22.0121498108 -33.9023284912 3.3274943829
22.0696315765 -34.0008430481 3.1615324020
22.0977325439 -34.0532913208 2.9792811871
22.0991153717 -34.0638465881 2.7821288109
22.0797080994 -34.0418128967 2.5733094215
22.0462207794 -33.9976997375 2.3565220833
22.0041446686 -33.9401321411 2.1348156929
21.9570655823 -33.8747215271 1.9101840258
21.9067802429 -33.8042945862 1.6836265326
21.8538036346 -33.7296524048 1.4554250240
21.7981281281 -33.6507835388 1.2255642414
21.7398414612 -33.5678291321 0.9940853119
21.6793041229 -33.4813499451 0.7611849308
21.6169681549 -33.3920593262 0.5271132588
21.5531902313 -33.3005180359 0.2920688987
21.4884490967 -33.2074699402 0.0563217737
64.3259048462 3.6848046780 57.7535018921
64.3481445313 3.6912288666 57.5705909729
64.4022827148 3.6987538338 57.3915557861
64.4928970337 3.7075352669 57.2170066833
64.6279907227 3.7178475857 57.0479888916
64.8116149902 3.7298271656 56.8850822449
65.0358047485 3.7431974411 56.7273902893
65.2801666260 3.7572541237 56.5724563599
65.5197906494 3.7711391449 56.4172210693
65.7349090576 3.7841730118 56.2591972351
65.9158706665 3.7960252762 56.0971260071
66.0623703003 3.8066878319 55.9309120178
66.1794738770 3.8163359165 55.7611312866
66.2732086182 3.8251781464 55.5885009766
66.3482208252 3.8333749771 55.4135742188
66.4083557129 3.8410596848 55.2368125916
66.4586257935 3.8484044075 55.0588378906
66.5054855347 3.8556308746 54.8804740906
66.5545959473 3.8629326820 54.7024459839
66.6082611084 3.8703892231 54.5250663757
66.6653213501 3.8779597282 54.3481903076
66.7233810425 3.8855628967 54.1715049744
66.7810745239 3.8931515217 53.9948272705
66.8379745483 3.9007115364 53.8181076050
66.8931655884 3.9082112312 53.6412162781
66.9445648193 3.9155797958 53.4638710022
66.9896392822 3.9227313995 53.2857208252
67.0263824463 3.9295980930 53.1064834595
67.0540618896 3.9361550808 52.9260406494
67.0737686157 3.9424400330 52.7445297241
67.0881805420 3.9485449791 52.5623016357
67.1000671387 3.9545633793 52.3797302246
67.1104812622 3.9605319500 52.1969566345
67.1183929443 3.9664154053 52.0138397217
67.1217346191 3.9721434116 51.8300781250
67.1188049316 3.9776597023 51.6454315186
67.1095275879 3.9829607010 51.4598693848
67.0960235596 3.9881196022 51.2736892700
67.0819931030 3.9932613373 51.0874061584
67.0708389282 3.9985010624 50.9015083313
67.0640335083 4.0038886070 50.7162132263
67.0611114502 4.0094079971 50.5314598083
67.0606231689 4.0150103569 50.3470458984
67.0611038208 4.0206451416 50.1627655029
67.0615310669 4.0262784958 49.9784622192
67.0616073608 4.0319008827 49.7941055298
67.0620117188 4.0375342369 49.6097831726
67.0644302368 4.0432357788 49.4257469177
67.0713272095 4.0490880013 49.2423744202
67.0850296021 4.0551695824 49.0600128174
67.1060180664 4.0614957809 48.8787536621
67.1313323975 4.0679674149 48.6981620789
67.1547012329 4.0743727684 48.5172920227
67.1688613892 4.0804681778 48.3350448608
67.1684570313 4.0860748291 48.1505889893
67.1513977051 4.0911231041 47.9635734558
67.1183319092 4.0956358910 47.7740669250
67.0711746216 4.0996780396 47.5823402405
67.0121078491 4.1033234596 47.3887023926
66.9434967041 4.1066522598 47.1935005188
66.8682861328 4.1097626686 46.9971771240
66.7899856567 4.1127729416 46.8002662659
66.7123947144 4.1158103943 46.6033630371
66.6392593384 4.1189999580 46.4070587158
66.5737686157 4.1224474907 46.2118682861
66.5176162720 4.1262087822 46.0180740356
66.4702606201 4.1302661896 45.8256034851
66.4293441772 4.1345400810 45.6340980530
66.3920059204 4.1389346123 45.4431114197
66.3560562134 4.1433773041 45.2522888184
66.3203964233 4.1478314400 45.0614624023
66.2848587036 4.1522912979 44.8706054688
66.2498779297 4.1567707062 44.6797828674
66.2161026001 4.1612920761 44.4891052246
66.1840972900 4.1658740044 44.2986679077
66.1540298462 4.1705212593 44.1085014343
66.1251525879 4.1752095222 43.9184875488
66.0952453613 4.1798653603 43.7282562256
66.0606460571 4.1843667030 43.5371932983
66.0174789429 4.1885862350 43.3446464539
65.9635162354 4.1924505234 43.1502227783
65.8990554810 4.1959705353 42.9539489746
65.8265228271 4.1992259026 42.7562255859
65.7495651245 4.2023386955 42.5576477051
65.6724548340 4.2054495811 42.3589439392
65.5992507935 4.2086920738 42.1608009338
65.5327301025 4.2121582031 41.9637107849
65.4737472534 4.2158751488 41.7678260803
65.4213180542 4.2198109627 41.5729980469
65.3733215332 4.2238941193 41.3788604736
65.3276138306 4.2280550003 41.1850547791
65.2829513550 4.2322521210 40.9913673401
65.2385482788 4.2364602089 40.7976608276
65.1928710938 4.2406277657 40.6036643982
65.1431732178 4.2446656227 40.4088935852
65.0869445801 4.2484917641 40.2128982544
65.0237808228 4.2520923615 40.0155868530
64.9557952881 4.2555379868 39.8173332214
64.8863754272 4.2589397430 39.6187248230
64.8185119629 4.2623949051 39.4203071594
64.7535552979 4.2659478188 39.2223167419
64.6903991699 4.2695627213 39.0245628357
64.6258239746 4.2731337547 38.8264694214
64.5566940308 4.2765583992 38.6274528503
64.4826431274 4.2798256874 38.4274482727
64.4068145752 4.2830376625 38.2270126343
64.3339767456 4.2863507271 38.0270271301
64.2680511475 4.2898917198 37.8282203674
64.2108612061 4.2937202454 37.6309394836
64.1624755859 4.2978372574 37.4352111816
64.1221771240 4.3022198677 37.2409248352
64.0890274048 4.3068361282 37.0479125977
64.0618057251 4.3116464615 36.8559646606
64.0388183594 4.3165960312 36.6647682190
64.0178222656 4.3216109276 36.4739074707
63.9962234497 4.3266077042 36.2828979492
63.9716491699 4.3315086365 36.0912895203
63.9427299500 4.3362708092 35.8988113403
63.9093360901 4.3408889771 35.7054328918
63.8718490601 4.3453764915 35.5112190247
63.8304748535 4.3497395515 35.3162002563
63.7857093811 4.3539953232 35.1204681396
63.7392425537 4.3581981659 34.9243431091
63.6933784485 4.3624219894 34.7282676697
63.6492729187 4.3667049408 34.5324668884
63.6061286926 4.3710207939 34.3367919922
63.5623626709 4.3753185272 34.1409339905
63.5175094604 4.3795833588 33.9447937012
63.4732818604 4.3838696480 33.7487182617
63.4331703186 4.3882908821 33.5533905029
63.4007263184 4.3929600716 33.3595237732
63.3776130676 4.3979310989 33.1674690247
63.3629226685 4.4031734467 32.9770545959
63.3541526794 4.4086065292 32.7877998352
63.3485870361 4.4141430855 32.5991668701
63.3441429138 4.4197163582 32.4107437134
63.3395080566 4.4252839088 32.2222633362
63.3339958191 4.4308238029 32.0335922241
63.3272819519 4.4363260269 31.8446598053
63.3191757202 4.4417839050 31.6554260254
63.3094482422 4.4471907616 31.4658393860
63.2977180481 4.4525341988 31.2758197784
63.2832336426 4.4577903748 31.0852088928
63.2647666931 4.4629201889 30.8937492371
63.2406539917 4.4678711891 30.7010879517
63.2091102600 4.4725866318 30.5068454742
63.1686668396 4.4770197868 30.3107013702
63.1186676025 4.4811506271 30.1125011444
63.0593147278 4.4849863052 29.9122734070
62.9912185669 4.4885463715 29.7101249695
62.9151535034 4.4918556213 29.5062065125
62.8327217102 4.4949660301 29.3008403778
62.7470893860 4.4979782104 29.0946865082
62.6624946594 4.5010266304 28.8886375427
62.5826492310 4.5042295456 28.6834888458
62.5092353821 4.5076389313 28.4796047211
62.4416236877 4.5112357140 28.2768650055
62.3783416748 4.5149722099 28.0749645233
62.3197097778 4.5188579559 27.8739776611
62.2691078186 4.5230002403 27.6746444702
62.2310333252 4.5275406837 27.4779529572
62.2072677612 4.5325350761 27.2843170166
62.1946601868 4.5378823280 27.0930709839
62.1862030029 4.5433611870 26.9027080536
62.1742019653 4.5487289429 26.7115478516
62.1531677246 4.5538129807 26.5183773041
62.1210021973 4.5585479736 26.3227176666
62.0785255432 4.5629596710 26.1247310638
62.0282897949 4.5671291351 25.9249629974
61.9732780457 4.5711512566 25.7240619659
61.9157409668 4.5750956535 25.5225219727
61.8565979004 4.5789928436 25.3205413818
61.7956733704 4.5828361511 25.1180801392
61.7319679260 4.5865950584 24.9149112701
61.6636466980 4.5902118683 24.7106132507
61.5890808105 4.5936360359 24.5048122406
61.5094757080 4.5969052315 24.2977676392
61.4307250977 4.6002049446 24.0908107758
61.3617019653 4.6038117409 23.8859634399
61.3097114563 4.6079535484 23.6849079132
61.2768249512 4.6126942635 23.4881534576
61.2596702576 4.6179270744 23.2949581146
61.2516670227 4.6234464645 23.1038360596
61.2452850342 4.6290173531 22.9130687714
61.2333259583 4.6344146729 22.7209949493
61.2098159790 4.6394529343 22.5262145996
61.1707763672 4.6440095901 22.3277854919
61.1148719788 4.6480436325 22.1253662109
61.0442924500 4.6516237259 21.9194393158
60.9656486511 4.6549568176 21.7115249634
60.8892669678 4.6583628654 21.5040340424
60.8258285522 4.6621737480 21.2994918823
60.7819900513 4.6665949821 21.0994911194
60.7578582764 4.6716284752 20.9040927887
60.7477073669 4.6770963669 20.7119731903
60.7427215576 4.6827244759 20.5210609436
60.7341957092 4.6882438660 20.3292884827
60.7159805298 4.6934642792 20.1351776123
60.6854934692 4.6983065605 19.9380893707
60.6434783936 4.7027950287 19.7381820679
60.5932502747 4.7070312500 19.5362319946
60.5393867493 4.7111577988 19.3333339691
60.4858665466 4.7152972221 19.1304416656
60.4344596863 4.7195038795 18.9279861450
60.3845481873 4.7237591743 18.7258224487
60.3342628479 4.7280049324 18.5234966278
60.2815780640 4.7321791649 18.3205127716
60.2245025635 4.7362203598 18.1163749695
60.1602630615 4.7400445938 17.9103965759
60.0848388672 4.7435278893 17.7015724182
59.9943046570 4.7465515137 17.4889087677
59.8877296448 4.7490868568 17.2721500397
59.7693634033 4.7512650490 17.0523223877
59.6479072571 4.7533535957 16.8315696716
59.5330924988 4.7556505203 16.6123180389
59.4320297241 4.7583723068 16.3963546753
59.3473892212 4.7615995407 16.1843776703
59.2777214050 4.7652878761 15.9760522842
59.2187385559 4.7693047523 15.7703256607
59.1642799377 4.7734627724 15.5656585693
59.1067924500 4.7775301933 15.3601484299
59.0384330750 4.7812690735 15.1517972946
58.9531135559 4.7844948769 14.9390344620
58.8487777710 4.7871451378 14.7213068008
58.7289505005 4.7893290520 14.4994792938
58.6022529602 4.7913084030 14.2757339478
58.4792213440 4.7934045792 14.0527639389
58.3676109314 4.7958521843 13.8325757980
58.2691612244 4.7987031937 13.6156396866
58.1796989441 4.8018307686 13.4008979797
58.0919456482 4.8050136566 13.1864805222
57.9990768433 4.8080453873 12.9706144333
57.8969764709 4.8108019829 12.7522182465
57.7844123840 4.8132457733 12.5309534073
57.6618309021 4.8153915405 12.3069181442
57.5306510925 4.8172821999 12.0804653168
57.3933219910 4.8189926147 11.8522243500
57.2525253296 4.8206043243 11.6228914261
57.1090011597 4.8221387863 11.3926534653
56.9604797363 4.8235287666 11.1609067917
56.8038368225 4.8246798515 10.9268121719
56.6386680603 4.8255805969 10.6902456284
56.4685783386 4.8263401985 10.4521541595
56.2990837097 4.8271236420 10.2140035629
56.1343269348 4.8280568123 9.9769048691
55.9758262634 4.8291835785 9.7412738800
55.8236770630 4.8305072784 9.5071487427
55.6780128479 4.8320312500 9.2745761871
55.5385017395 4.8337454796 9.0434789658
55.4025459290 4.8355717659 8.8131647110
55.2647438049 4.8373484612 8.5821714401
55.1190490723 4.8388938904 8.3488502502
54.9622688293 4.8401141167 8.1123161316
54.7959671021 4.8410563469 7.8729753494
54.6254348755 4.8418788910 7.6322603226
54.4565773010 4.8427577019 7.3917870522
54.2925872803 4.8437881470 7.1524367332
54.1319274902 4.8449249268 6.9137935638
53.9686546326 4.8459897041 6.6742205620
53.7950782776 4.8467540741 6.4315814972
53.6049385071 4.8470335007 6.1841192245
53.3952140808 4.8467378616 5.9309625626
53.1665878296 4.8458890915 5.6722640991
52.9235763550 4.8446221352 5.4092535973
52.6742553711 4.8431777954 5.1441679001
52.4288978577 4.8418602943 4.8798785210
52.1977005005 4.8409714699 4.6192631721
51.9886512756 4.8407478333 4.3646011353
51.8062973022 4.8413219452 4.1172161102
51.6519470215 4.8427309990 3.8775317669
51.5253868103 4.8449673653 3.6455352306
51.4266700745 4.8480310440 3.4212937355
51.3561553955 4.8519306183 3.2049612999
51.3126106262 4.8566288948 2.9962382317
51.2918586731 4.8620009422 2.7939763069
51.2878761292 4.8678679466 2.5964901447
51.2950935364 4.8740649223 2.4022092819
51.3093528748 4.8804693222 2.2099564075
51.3271903992 4.8869786263 2.0187425613
51.3453521729 4.8934969902 1.8276336193
51.3620414734 4.8999724388 1.6361104250
51.3789100647 4.9064521790 1.4446480274
51.4012298584 4.9130916595 1.2547839880
51.4349861145 4.9200654030 1.0682733059
51.4826393127 4.9274458885 0.8858585954
51.5412940979 4.9351463318 0.7067155838
51.6048049927 4.9429874420 0.5290598273
51.6677665710 4.9508099556 0.3513085842
51.7280921936 4.9585537910 0.1728475988
-10.0153608322 39.3983459473 67.2074203491
-10.0132446289 39.3726959229 66.9617614746
-10.0046672821 39.3262252808 66.7178115845
-9.9931526184 39.2702980042 66.4746856689
-9.9804210663 39.2104492188 66.2319488525
-9.9669427872 39.1482048035 65.9894714355
-9.9532184601 39.0851669312 65.7471313477
-9.9400758743 39.0240135193 65.5046920776
-9.9283790588 38.9675254822 65.2619323730
-9.9188194275 38.9179191589 65.0186386108
-9.9118032455 38.8765106201 64.7746810913
-9.9074306488 38.8436164856 64.5300292969
-9.9056882858 38.8192024231 64.2846603394
-9.9067764282 38.8038978577 64.0385055542
-9.9112339020 38.7994461060 63.7913856506
-9.9197149277 38.8079452515 63.5430946350
-9.9325990677 38.8306274414 63.2934989929
-9.9497060776 38.8668975830 63.0426177979
-9.9700241089 38.9135017395 62.7907295227
-9.9914093018 38.9635353088 62.5384483337
-10.0105504990 39.0063362122 62.2867622375
-10.0236816406 39.0297889709 62.0368194580
-10.0278472900 39.0243797302 61.7895545959
-10.0219287872 38.9865150452 61.5453681946
-10.0068492889 38.9191627502 61.3040428162
-9.9851322174 38.8304557800 61.0648460388
-9.9602775574 38.7316627502 60.8267326355
-9.9360961914 38.6350402832 60.5885238647
-9.9159231186 38.5513305664 60.3491592407
-9.9018383026 38.4872131348 60.1079521179
-9.8942117691 38.4438819885 59.8647384644
-9.8918771744 38.4175796509 59.6198654175
-9.8929338455 38.4021949768 59.3739089966
-9.8958244324 38.3927040100 59.1273574829
-9.9001445770 38.3878135681 58.8803367615
-9.9068498611 38.3905944824 58.6325187683
-9.9177856445 38.4069824219 58.3832702637
-9.9347448349 38.4427413940 58.1319694519
-9.9584226608 38.5001068115 57.8783416748
-9.9876184464 38.5752067566 57.6227531433
-10.0189552307 38.6571884155 57.3663177490
-10.0477275848 38.7309112549 57.1106452942
-10.0700922012 38.7840232849 56.8570785522
-10.0848207474 38.8125724792 56.6060867310
11.9713287354 -32.7335739136 56.1028480530
11.9652605057 -32.7293434143 55.9009399414
11.9584569931 -32.7227592468 55.6986923218
11.9510107040 -32.7141075134 55.4961433411
11.9431238174 -32.7040519714 55.2933769226
11.9348478317 -32.6927452087 55.0904121399
11.9262065887 -32.6802711487 54.8872604370
11.9179944992 -32.6691741943 54.6842727661
11.9124050140 -32.6664924622 54.4824409485
11.9125165939 -32.6820983887 54.2831726074
11.9208030701 -32.7239189148 54.0876350403
11.9378738403 -32.7939109802 53.8961524963
11.9624557495 -32.8879890442 53.7081985474
11.9923572540 -32.9991111755 53.5228118896
12.0253047943 -33.1199913025 53.3389663696
12.0591678619 -33.2437973022 53.1556930542
12.0918817520 -33.3639106750 52.9720344543
12.1213531494 -33.4736137390 52.7869987488
12.1455135345 -33.5662803650 52.5995903015
12.1629114151 -33.6372566223 52.4090919495
12.1736459732 -33.6868705750 52.2154998779
12.1796703339 -33.7213745117 52.0197143555
12.1839122772 -33.7501678467 51.8231086731
12.1889572144 -33.7815322876 51.6269111633
12.1963062286 -33.8202781677 51.4318618774
12.2065267563 -33.8682250977 51.2382507324
12.2197952271 -33.9259376526 51.0461769104
12.2361316681 -33.9934768677 50.8556709290
12.2549972534 -34.0691108704 50.6664886475
12.2747497559 -34.1475830078 50.4778327942
12.2928686142 -34.2208099365 50.2884559631
12.3070745468 -34.2814979553 50.0972137451
12.3163499832 -34.3263816833 49.9035682678
12.3209695816 -34.3563461304 49.7076301575
12.3218650818 -34.3743782043 49.5098381042
12.3201198578 -34.3839530945 49.3107185364
12.3168773651 -34.3887329102 49.1108398438
12.3133840561 -34.3927078247 48.9108276367
12.3109025955 -34.3999214172 48.7113304138
12.3104610443 -34.4136695862 48.5128822327
12.3125228882 -34.4354362488 48.3157348633
12.3167028427 -34.4639854431 48.1197090149
12.3217687607 -34.4953651428 47.9241676331
12.3260917664 -34.5243682861 47.7282676697
12.3282880783 -34.5465583801 47.5312767029
12.3276319504 -34.5596122742 47.3327980042
12.3240785599 -34.5633926392 47.1327896118
12.3180932999 -34.5593872070 46.9314804077
12.3104486465 -34.5500717163 46.7292671204
12.3020572662 -34.5383682251 46.5266342163
12.2938346863 -34.5272064209 46.3240623474
12.2866392136 -34.5193328857 46.1220207214
12.2812128067 -34.5171241760 45.9209175110
12.2780323029 -34.5221023560 45.7210197449
12.2770586014 -34.5341453552 45.5223312378
12.2776727676 -34.5512695313 45.3245124817
12.2789802551 -34.5706100464 45.1270904541
12.2802371979 -34.5897865295 44.9296569824
12.2809686661 -34.6072845459 44.7319412231
12.2808294296 -34.6219940186 44.5337524414
12.2795724869 -34.6331253052 44.3349494934
12.2771873474 -34.6406478882 44.1355133057
12.2738704681 -34.6451911926 43.9355545044
12.2697944641 -34.6473083496 43.7351570129
12.2649555206 -34.6469841003 43.5343208313
12.2592926025 -34.6440238953 43.3330039978
12.2528963089 -34.6387176514 43.1312522888
12.2460651398 -34.6320266724 42.9292297363
12.2392024994 -34.6252365112 42.7271728516
12.2326812744 -34.6195373535 42.5252952576
12.2266778946 -34.6154937744 42.3236961365
12.2210750580 -34.6127319336 42.1223144531
12.2156238556 -34.6104583740 41.9210052490
12.2102546692 -34.6084480286 41.7197303772
12.2050914764 -34.6070976257 41.5185661316
12.2000913620 -34.6062698364 41.3174819946
12.1948137283 -34.6045570374 41.1162223816
12.1887044907 -34.6001815796 40.9144554138
12.1815977097 -34.5926246643 40.7120742798
12.1738433838 -34.5829925537 40.5092849731
12.1658897400 -34.5727348328 40.3063545227
12.1577987671 -34.5620346069 40.1033172607
12.1491336823 -34.5495033264 39.8999023438
12.1391887665 -34.5328826904 39.6956863403
12.1272115707 -34.5097694397 39.4902000427
12.1126060486 -34.4782638550 39.2830619812
12.0952873230 -34.4380874634 39.0742073059
12.0759820938 -34.3915748596 38.8640670776
12.0560598373 -34.3430976868 38.6534729004
12.0369005203 -34.2970581055 38.4432792664
12.0193710327 -34.2562370300 38.2340278625
12.0037641525 -34.2215576172 38.0259094238
11.9899425507 -34.1925849915 37.8188552856
11.9774637222 -34.1679077148 37.6125907898
11.9657201767 -34.1455802917 37.4067497253
11.9541549683 -34.1238250732 37.2009811401
11.9424533844 -34.1016387939 36.9950866699
11.9306087494 -34.0789985657 36.7890625000
11.9189252853 -34.0568733215 36.5830993652
11.9079732895 -34.0370903015 36.3775634766
11.8984947205 -34.0220108032 36.1729393005
11.8911848068 -34.0138626099 35.9696807861
11.8864374161 -34.0138931274 35.7680587769
11.8841762543 -34.0218658447 35.5680427551
11.8838825226 -34.0361137390 35.3693046570
11.8847789764 -34.0541610718 35.1713485718
11.8860588074 -34.0734367371 34.9736595154
11.8871107101 -34.0919761658 34.7758331299
11.8875913620 -34.1086959839 34.5776443481
11.8872346878 -34.1227416992 34.3789138794
11.8854722977 -34.1323051453 34.1792564392
11.8812456131 -34.1339988708 33.9779586792
11.8732786179 -34.1237602234 33.7741546631
11.8607044220 -34.0988235474 33.5672378540
11.8437023163 -34.0597572327 33.3573036194
11.8238039017 -34.0114593506 33.1453552246
11.8035802841 -33.9621276855 32.9331130981
11.7856101990 -33.9199905396 32.7223243713
11.7712965012 -33.8895263672 32.5139541626
11.7604169846 -33.8700180054 32.3078804016
11.7517213821 -33.8574790955 32.1032638550
11.7440814972 -33.8483085632 31.8993415833
11.7373676300 -33.8420944214 31.6960353851
11.7325868607 -33.8420448303 31.4940452576
11.7312822342 -33.8530845642 31.2944526672
11.7346038818 -33.8788757324 31.0980777740
11.7425727844 -33.9194869995 30.9049644470
11.7538890839 -33.9707641602 30.7142333984
11.7663192749 -34.0255889893 30.5243396759
11.7775392532 -34.0765533447 30.3336544037
11.7860603333 -34.1189079285 30.1411209106
11.7917861938 -34.1523475647 29.9466552734
11.7959957123 -34.1809501648 29.7511444092
11.8008375168 -34.2115669250 29.5561103821
11.8085451126 -34.2513160706 29.3631515503
11.8206243515 -34.3049964905 29.1733627319
11.8372802734 -34.3732566833 28.9869155884
11.8573064804 -34.4522552490 28.8029747009
11.8785915375 -34.5352554321 28.6200332642
11.8990573883 -34.6156425476 28.4365978241
11.9174585342 -34.6894416809 28.2517547607
11.9335556030 -34.7558898926 28.0653209686
11.9477767944 -34.8163566589 27.8775920868
11.9607706070 -34.8729057312 27.6890316010
11.9730310440 -34.9271163940 27.4999961853
11.9846649170 -34.9793281555 27.3105583191
11.9953746796 -35.0285873413 27.1204948425
12.0046529770 -35.0732841492 26.9294261932
12.0121231079 -35.1122207642 26.7370605469
12.0178709030 -35.1456642151 26.5434513092
12.0226526260 -35.1760292053 26.3491535187
12.0277872086 -35.2075157166 26.1551475525
12.0346508026 -35.2445106506 25.9624710083
12.0440587997 -35.2895965576 25.7717475891
12.0558834076 -35.3423805237 25.5828971863
12.0690984726 -35.3995857239 25.3951587677
12.0822200775 -35.4564895630 25.2074127197
12.0939617157 -35.5089950562 25.0186786652
12.1036605835 -35.5549888611 24.8284416199
12.1113786697 -35.5946769714 24.6367378235
12.1179008484 -35.6305580139 24.4441566467
12.1246404648 -35.6671218872 24.2517776489
12.1331911087 -35.7094535828 24.0608348846
12.1446275711 -35.7609596252 23.8721675873
12.1590156555 -35.8218612671 23.6858482361
12.1754293442 -35.8892059326 23.5011749268
12.1923704147 -35.9582176208 23.3169879913
12.2083988190 -36.0243225098 23.1321678162
12.2228116989 -36.0852775574 22.9461536407
12.2360124588 -36.1423721313 22.7592563629
12.2492675781 -36.1996383667 22.5724658966
12.2639551163 -36.2614517212 22.3868694305
12.2809152603 -36.3304939270 22.2031459808
12.3004331589 -36.4076614380 22.0215339661
12.3227710724 -36.4937973022 21.8422584534
12.3486490250 -36.5911865234 21.6659126282
12.3791866302 -36.7033882141 21.4934158325
12.4154310226 -36.8337287903 21.3256359100
12.4577579498 -36.9834022522 21.1629123688
12.5052757263 -37.1495742798 21.0045661926
12.5555477142 -37.3244857788 20.8486518860
12.6052341461 -37.4975166321 20.6924819946
12.6515712738 -37.6598854065 20.5338020325
12.6934576035 -37.8080863953 20.3716945648
12.7313585281 -37.9435958862 20.2065086365
12.7665567398 -38.0705032349 20.0392742157
12.8005084991 -38.1934394836 19.8711719513
12.8342142105 -38.3155784607 19.7030162811
12.8675813675 -38.4366302490 19.5347270966
12.8994436264 -38.5528869629 19.3653411865
12.9285163879 -38.6602668762 19.1937808990
12.9543638229 -38.7573852539 19.0196647644
12.9775199890 -38.8459434509 18.8434200287
12.9989471436 -38.9289932251 18.6658344269
13.0195522308 -39.0094299316 18.4876575470
13.0400276184 -39.0894432068 18.3094635010
13.0608501434 -39.1705513000 18.1316566467
13.0821924210 -39.2533073425 17.9543857574
13.1037034988 -39.3365898132 17.7773532867
13.1244106293 -39.4173088074 17.5997352600
13.1430892944 -39.4915809631 17.4204883575
13.1588573456 -39.5565986633 17.2388420105
13.1714239120 -39.6114387512 17.0545349121
13.1809692383 -39.6566772461 16.8676967621
13.1880054474 -39.6939430237 16.6787528992
13.1933641434 -39.7258758545 16.4884014130
13.1981477737 -39.7559814453 16.2975845337
13.2035503387 -39.7880516052 16.1073322296
13.2105522156 -39.8251991272 15.9184980392
13.2195997238 -39.8688392639 15.7314796448
13.2304811478 -39.9182968140 15.5461053848
13.2425346375 -39.9714698792 15.3618087769
13.2551269531 -40.0263557434 15.1780433655
13.2680463791 -40.0822715759 14.9946250916
13.2814836502 -40.1398277283 14.8117246628
13.2956781387 -40.1997833252 14.6295566559
13.3106698990 -40.2622642517 14.4481601715
13.3265209198 -40.3274650574 14.2675962448
13.3438568115 -40.3973770142 14.0884256363
13.3641948700 -40.4768104553 13.9120082855
13.3895702362 -40.5722198486 13.7401771545
13.4213628769 -40.6879920959 13.5742015839
13.4589214325 -40.8220520020 13.4135341644
13.4990091324 -40.9641227722 13.2553033829
13.5367670059 -41.0987854004 13.0951480865
13.5676622391 -41.2116661072 12.9289655685
13.5891571045 -41.2947044373 12.7544116974
13.6011533737 -41.3475990295 12.5713434219
13.6054134369 -41.3759536743 12.3813028336
13.6047735214 -41.3887519836 12.1868228912
13.6026859283 -41.3969612122 11.9910268784
13.6028509140 -41.4123191833 11.7972927094
13.6084842682 -41.4450149536 11.6085824966
13.6213932037 -41.5007896423 11.4265928268
13.6415271759 -41.5794754028 11.2513227463
13.6672735214 -41.6759490967 11.0813264847
13.6962347031 -41.7826118469 10.9144210815
13.7259836197 -41.8917617798 10.7483749390
13.7543449402 -41.9965019226 10.5811691284
13.7793130875 -42.0904731750 10.4109296799
13.7992038727 -42.1683349609 10.2360591888
13.8132925034 -42.2278022766 10.0558519363
13.8224277496 -42.2715530396 9.8710641861
13.8289937973 -42.3071556091 9.6839065552
13.8362588882 -42.3449745178 9.4974451065
13.8474769592 -42.3953208923 9.3147535324
13.8649940491 -42.4656257629 9.1380767822
13.8896493912 -42.5585517883 8.9682512283
13.9206686020 -42.6716384888 8.8045825958
13.9560480118 -42.7985343933 8.6452045441
13.9933958054 -42.9316520691 8.4878606796
14.0309038162 -43.0652694702 8.3308324814
14.0677795410 -43.1968688965 8.1733617783
14.1037273407 -43.3255157471 8.0151615143
14.1381778717 -43.4494094849 7.8556771278
14.1702289581 -43.5656852722 7.6940288544
14.1994495392 -43.6729850769 7.5297832489
14.2266321182 -43.7738189697 7.3636941910
14.2536239624 -43.8740348816 7.1975393295
14.2823095322 -43.9796142578 7.0331540108
14.3136901855 -44.0937156677 6.8715233803
14.3476200104 -44.2158813477 6.7125225067
14.3831300735 -44.3430404663 6.5552182198
14.4190082550 -44.4713554382 6.3984308243
14.4542007446 -44.5974845886 6.2411251068
14.4876871109 -44.7182006836 6.0822925568
14.5182342529 -44.8295974731 5.9207038879
14.5446701050 -44.9279670715 5.7551813126
14.5665311813 -45.0118446350 5.5852398872
14.5844392776 -45.0831947327 5.4114675522
14.5999450684 -45.1469345093 5.2353863716
14.6150121689 -45.2092819214 5.0589394569
14.6313238144 -45.2755622864 4.8838076591
14.6496572495 -45.3482360840 4.7107782364
14.6696023941 -45.4260025024 4.5394501686
14.6897621155 -45.5044479370 4.3684301376
14.7085161209 -45.5784301758 4.1960840225
14.7249469757 -45.6450614929 4.0214776993
14.7392187119 -45.7048492432 3.8447606564
14.7521095276 -45.7602615356 3.6667101383
14.7642831802 -45.8134002686 3.4879922867
14.7760009766 -45.8650932312 3.3088679314
14.7874612808 -45.9159660339 3.1295385361
14.7992553711 -45.9678916931 2.9506063461
14.8122386932 -46.0235748291 2.7729499340
14.8268585205 -46.0844306946 2.5970351696
14.8426961899 -46.1491317749 2.4224433899
14.8587331772 -46.2144622803 2.2481310368
14.8739833832 -46.2772941589 2.0730800629
14.8879318237 -46.3360023499 1.8967527151
14.9005746841 -46.3905792236 1.7191371918
14.9121189117 -46.4416732788 1.5404403210
14.9225835800 -46.4893569946 1.3606764078
14.9316701889 -46.5326728821 1.1795250177
14.9390592575 -46.5706176758 0.9966451526
14.9448356628 -46.6034622192 0.8121141791
14.9494905472 -46.6327552795 0.6264380813
14.9534654617 -46.6599006653 0.4400745034
14.9567928314 -46.6849937439 0.2530533075
14.9592647552 -46.7073822021 0.0651510283
55.8413200378 -11.3780736923 55.7219276428
55.8700942993 -11.3787870407 55.5352554321
55.9333381653 -11.3874769211 55.3530120850
56.0259628296 -11.4029703140 55.1746063232
56.1394691467 -11.4232988358 54.9989929199
56.2620887756 -11.4457406998 54.8246955872
56.3808631897 -11.4672975540 54.6500320435
56.4853439331 -11.4855489731 54.4736366272
56.5706481934 -11.4993648529 54.2948379517
56.6381797791 -11.5090675354 54.1137809753
56.6942291260 -11.5161142349 53.9312744141
56.7475128174 -11.5225210190 53.7484588623
56.8065376282 -11.5302600861 53.5664634705
56.8779335022 -11.5408668518 53.3861961365
56.9662742615 -11.5554008484 53.2082939148
57.0741729736 -11.5744686127 53.0331459045
57.2011795044 -11.5979671478 52.8607292175
57.3420677185 -11.6246871948 52.6903572083
57.4869804382 -11.6523437500 52.5207023621
57.6242790222 -11.6782426834 52.3501663208
57.7444953918 -11.7001857758 52.1774139404
57.8428993225 -11.7170782089 52.0017509460
57.9195899963 -11.7289419174 51.8231582642
57.9776268005 -11.7364826202 51.6420211792
58.0210723877 -11.7406435013 51.4588851929
58.0542640686 -11.7424268723 51.2743301392
58.0814132690 -11.7428112030 51.0889434814
58.1056518555 -11.7425203323 50.9031600952
58.1284217834 -11.7418909073 50.7171859741
58.1502952576 -11.7410516739 50.5310974121
58.1721115112 -11.7402019501 50.3450126648
58.1949005127 -11.7395772934 50.1590881348
58.2188148499 -11.7392139435 49.9733467102
58.2425041199 -11.7387990952 49.7875862122
58.2634239197 -11.7377424240 49.6014328003
58.2788848877 -11.7354202271 49.4144897461
58.2871704102 -11.7314319611 49.2264785767
58.2879257202 -11.7256965637 49.0373458862
58.2817726135 -11.7183570862 48.8471641541
58.2698059082 -11.7096672058 48.6560821533
58.2536735535 -11.7000093460 48.4643478394
58.2356452942 -11.6899108887 48.2722892761
58.2179756165 -11.6798944473 48.0802536011
58.2018661499 -11.6702394485 47.8884239197
58.1870727539 -11.6608886719 47.6967620850
58.1725082397 -11.6515893936 47.5051078796
58.1571502686 -11.6421060562 47.3132972717
58.1406097412 -11.6323461533 47.1212730408
58.1232643127 -11.6223983765 46.9290885925
58.1060752869 -11.6124868393 46.7368965149
58.0902633667 -11.6028938293 46.5448875427
58.0769233704 -11.5938739777 46.3532371521
58.0668029785 -11.5856008530 46.1620712280
58.0603599548 -11.5781822205 45.9714660645
58.0578765869 -11.5716829300 45.7814750671
58.0591964722 -11.5660686493 45.5920791626
58.0631599426 -11.5610675812 45.4030990601
58.0675086975 -11.5561552048 45.2141761780
58.0701255798 -11.5508403778 45.0249633789
58.0708541870 -11.5450868607 44.8354339600
58.0720062256 -11.5394296646 44.6459617615
58.0765609741 -11.5345649719 44.4570388794
58.0853996277 -11.5306959152 44.2688179016
58.0959053040 -11.5272150040 44.0808677673
58.1030845642 -11.5229606628 43.8923683167
58.1020317078 -11.5167894363 43.7024917603
58.0899734497 -11.5080585480 43.5107612610
58.0672492981 -11.4968452454 43.3172073364
58.0371170044 -11.4839067459 43.1223602295
58.0043907166 -11.4703636169 42.9270286560
57.9735527039 -11.4572572708 42.7319602966
57.9476165771 -11.4452915192 42.5376815796
57.9282188416 -11.4348440170 42.3444786072
57.9160041809 -11.4260692596 42.1524734497
57.9105110168 -11.4188585281 41.9615974426
57.9096794128 -11.4127330780 41.7715110779
57.9099044800 -11.4068527222 41.5815963745
57.9070777893 -11.4002599716 41.3911361694
57.8980369568 -11.3922214508 41.1995773315
57.8815155029 -11.3824386597 41.0066757202
57.8582801819 -11.3710908890 40.8125610352
57.8308906555 -11.3587751389 40.6176681519
57.8031997681 -11.3463869095 40.4226760864
57.7792549133 -11.3348703384 40.2283058167
57.7619895935 -11.3249082565 40.0350875854
57.7524719238 -11.3167524338 39.8432273865
57.7499694824 -11.3102283478 39.6526031494
57.7521972656 -11.3048076630 39.4628181458
57.7555694580 -11.2996530533 39.2732315063
57.7558250427 -11.2937717438 39.0830688477
57.7491149902 -11.2862663269 38.8916244507
57.7330513000 -11.2765789032 38.6984443665
57.7071151733 -11.2645883560 38.5034217834
57.6723594666 -11.2505407333 38.3067283630
57.6310958862 -11.2349739075 38.1087722778
57.5871009827 -11.2187681198 37.9102516174
57.5457267761 -11.2031707764 37.7121467590
57.5126838684 -11.1895151138 37.5155372620
57.4918212891 -11.1786994934 37.3211555481
57.4835624695 -11.1708221436 37.1291084290
57.4847946167 -11.1651592255 36.9388275146
57.4898147583 -11.1603794098 36.7492561340
57.4921760559 -11.1549806595 36.5591735840
57.4875221252 -11.1479425430 36.3677444458
57.4759368896 -11.1392860413 36.1749687195
57.4617500305 -11.1300230026 35.9816703796
57.4509811401 -11.1215562820 35.7890014648
57.4487228394 -11.1150741577 35.5979461670
57.4580421448 -11.1112957001 35.4091224670
57.4800300598 -11.1104755402 35.2227554321
57.5142631531 -11.1125154495 35.0387954712
57.5595588684 -11.1171388626 34.8570289612
57.6148681641 -11.1241035461 34.6772689819
57.6798171997 -11.1333198547 34.4994659424
57.7546501160 -11.1448478699 34.3236808777
57.8397941589 -11.1587877274 34.1500205994
57.9352722168 -11.1751451492 33.9785079956
58.0403785706 -11.1937541962 33.8090209961
58.1536979675 -11.2142868042 33.6412963867
58.2733688354 -11.2363071442 33.4749755859
58.3971481323 -11.2592926025 33.3096160889
58.5221557617 -11.2825698853 33.1446495056
58.6444129944 -11.3052072525 32.9792709351
58.7583389282 -11.3259029388 32.8123397827
58.8562545776 -11.3428602219 32.6422767639
58.9284286499 -11.3538007736 32.4670639038
58.9644699097 -11.3562955856 32.2845268250
58.9557762146 -11.3483304977 32.0928230286
58.8978080750 -11.3288421631 31.8909378052
58.7917556763 -11.2981052399 31.6790218353
58.6460571289 -11.2580890656 31.4587383270
58.4769554138 -11.2125930786 31.2333889008
58.3055915833 -11.1665611267 31.0073451996
58.1516342163 -11.1245946884 30.7847175598
58.0271759033 -11.0895233154 30.5680789948
57.9347038269 -11.0619316101 30.3580074310
57.8693428040 -11.0406808853 30.1535358429
57.8229331970 -11.0238618851 29.9529838562
57.7874946594 -11.0096092224 29.7546901703
57.7573928833 -10.9966039658 29.5574798584
57.7305908203 -10.9843692780 29.3609237671
57.7090110779 -10.9733562469 29.1654415131
57.6969909668 -10.9645795822 28.9719753265
57.6978912354 -10.9588270187 28.7812652588
57.7113761902 -10.9560222626 28.5932674408
57.7334899902 -10.9552373886 28.4071445465
57.7586975098 -10.9551792145 28.2217082977
57.7819976807 -10.9546737671 28.0358772278
57.8000984192 -10.9529504776 27.8489265442
57.8115234375 -10.9496641159 27.6605205536
57.8159980774 -10.9447488785 27.4705867767
57.8138160706 -10.9382743835 27.2791805267
57.8057556152 -10.9304218292 27.0864582062
57.7934684753 -10.9215784073 26.8927745819
57.7798690796 -10.9124259949 26.6987724304
57.7690696716 -10.9039287567 26.5053653717
57.7655563354 -10.8971395493 26.3135643005
57.7728118896 -10.8928728104 26.1241607666
57.7918930054 -10.8913793564 25.9374141693
57.8207511902 -10.8921785355 25.7528858185
57.8548240662 -10.8942022324 25.5695610046
57.8884735107 -10.8961267471 25.3861694336
57.9162979126 -10.8966865540 25.2014846802
57.9340019226 -10.8948726654 25.0145130157
57.9389305115 -10.8900623322 24.8246288300
57.9301986694 -10.8820476532 24.6316070557
57.9084548950 -10.8709802628 24.4355678558
57.8758697510 -10.8573665619 24.2369899750
57.8367080688 -10.8422088623 24.0368385315
57.7976264954 -10.8270683289 23.8366432190
57.7661781311 -10.8137168884 23.6381626129
57.7475738525 -10.8033781052 23.4426231384
57.7421112061 -10.7961235046 23.2501220703
57.7455101013 -10.7909479141 23.0596752167
57.7516212463 -10.7864093781 22.8698616028
57.7551918030 -10.7812728882 22.6794414520
57.7530670166 -10.7748003006 22.4876708984
57.7442283630 -10.7667493820 22.2942924500
57.7294731140 -10.7573099136 22.0994873047
57.7111396790 -10.7470283508 21.9037990570
57.6925506592 -10.7366847992 21.7080135345
57.6770858765 -10.7270755768 21.5129413605
57.6669960022 -10.7187271118 21.3191261292
57.6623611450 -10.7116603851 21.1266002655
57.6607780457 -10.7053089142 20.9347915649
57.6580314636 -10.6986837387 20.7426891327
57.6497573853 -10.6907596588 20.5492286682
57.6332931519 -10.6809101105 20.3537540436
57.6088676453 -10.6691875458 20.1563053131
57.5794258118 -10.6562852859 19.9575901031
57.5491256714 -10.6431798935 19.7586135864
57.5214157104 -10.6306810379 19.5602226257
57.4980468750 -10.6192016602 19.3628540039
57.4793701172 -10.6088237762 19.1666030884
57.4651336670 -10.5994901657 18.9714145660
57.4549140930 -10.5910997391 18.7771949768
57.4480667114 -10.5835018158 18.5837860107
57.4435005188 -10.5764398575 18.3909282684
57.4395370483 -10.5695180893 18.1982002258
57.4338874817 -10.5621995926 18.0050334930
57.4239768982 -10.5538787842 17.8107776642
57.4077568054 -10.5440721512 17.6149063110
57.3847312927 -10.5326633453 17.4172840118
57.3565902710 -10.5200490952 17.2183246613
57.3269462585 -10.5070800781 17.0189380646
57.3001976013 -10.4947900772 16.8202362061
57.2795066833 -10.4839248657 16.6230335236
57.2645301819 -10.4744043350 16.4272556305
57.2508087158 -10.4651775360 16.2317676544
57.2319145203 -10.4547319412 16.0349216461
57.2030487061 -10.4419374466 15.8354692459
57.1632728577 -10.4265727997 15.6331520081
57.1150436401 -10.4092149734 15.4285850525
57.0619621277 -10.3907117844 15.2226848602
57.0069694519 -10.3717556000 15.0162086487
56.9523124695 -10.3528776169 14.8097391129
56.9001884460 -10.3345928192 14.6038513184
56.8523483276 -10.3173151016 14.3990068436
56.8089141846 -10.3010721207 14.1952466965
56.7681770325 -10.2854633331 13.9921302795
56.7279663086 -10.2699775696 13.7890892029
56.6869888306 -10.2543077469 13.5857810974
56.6447410583 -10.2383365631 13.3820734024
56.6007270813 -10.2219476700 13.1778316498
56.5543823242 -10.2050075531 12.9729003906
56.5057373047 -10.1875219345 12.7672834396
56.4555969238 -10.1696825027 12.5611944199
56.4051933289 -10.1517772675 12.3549585342
56.3557586670 -10.1340990067 12.1489076614
56.3081321716 -10.1168451309 11.9432687759
56.2622642517 -10.1000032425 11.7380332947
56.2172927856 -10.0833702087 11.5329704285
56.1722564697 -10.0667209625 11.3278207779
56.1267738342 -10.0499629974 11.1224803925
56.0815124512 -10.0332555771 10.9171314240
56.0384674072 -10.0170688629 10.7123184204
56.0005378723 -10.0020875931 10.5088405609
55.9703025818 -9.9889211655 10.3074159622
55.9488830566 -9.9778327942 10.1083660126
55.9355888367 -9.9686603546 9.9115171432
55.9279518127 -9.9608230591 9.7162046432
55.9216842651 -9.9533081055 9.5212478638
55.9110450745 -9.9447612762 9.3250579834
55.8904838562 -9.9338693619 9.1260795593
55.8567962646 -9.9198780060 8.9234018326
55.8099441528 -9.9027767181 8.7169885635
55.7518653870 -9.8830194473 8.5073566437
55.6850051880 -9.8611869812 8.2951736450
55.6119003296 -9.8378763199 8.0811357498
55.5351028442 -9.8136892319 7.8659515381
55.4567146301 -9.7891244888 7.6502089500
55.3780136108 -9.7644805908 7.4342656136
55.2994422913 -9.7398653030 7.2182483673
55.2207069397 -9.7152070999 7.0020723343
55.1412391663 -9.6903724670 6.7855763435
55.0614776611 -9.6654644012 6.5688834190
54.9841041565 -9.6411180496 6.3527617455
54.9139289856 -9.6184692383 6.1385974884
54.8563423157 -9.5987930298 5.9279541969
54.8154830933 -9.5830698013 5.7220511436
54.7933349609 -9.5717687607 5.5214934349
54.7900352478 -9.5649232864 5.3263545036
54.8047485352 -9.5623369217 5.1364288330
54.8362350464 -9.5637178421 4.9513888359
54.8825340271 -9.5686035156 4.7706952095
54.9402084351 -9.5761814117 4.5933723450
55.0042266846 -9.5852622986 4.4179668427
55.0689735413 -9.5945167542 4.2428431511
55.1298332214 -9.6028537750 4.0666456223
55.1842498779 -9.6096687317 3.8886134624
55.2318496704 -9.6148719788 3.7086243629
55.2737655640 -9.6187324524 3.5270004272
55.3117065430 -9.6216526031 3.3442382813
55.3475418091 -9.6240749359 3.1608839035
55.3833465576 -9.6264925003 2.9775555134
55.4209671021 -9.6293392181 2.7947998047
55.4608306885 -9.6327190399 2.6127514839
55.5016975403 -9.6363372803 2.4310407639
55.5419807434 -9.6398191452 2.2491946220
55.5811996460 -9.6430501938 2.0670661926
55.6197471619 -9.6461219788 1.8847720623
55.6573982239 -9.6489839554 1.7022433281
55.6922912598 -9.6511926651 1.5189139843
55.7213172913 -9.6520137787 1.3338354826
55.7416992188 -9.6507873535 1.1461519003
55.7530212402 -9.6474132538 0.9557193518
55.7587013245 -9.6427030563 0.7635649443
55.7656745911 -9.6382989883 0.5718011260
55.7819290161 -9.6360960007 0.3828817606
55.8131713867 -9.6374435425 0.1985754073
55.8603172302 -9.6425628662 0.0191950072
0.5600415468 38.5636291504 65.3959579468
0.5548663735 38.5538406372 65.1503677368
0.5502830744 38.5289802551 64.9060134888
0.5461210608 38.4934120178 64.6625823975
0.5421208739 38.4537391663 64.4195251465
0.5380170345 38.4167289734 64.1762771606
0.5336871743 38.3854827881 63.9325752258
0.5292384624 38.3572731018 63.6886367798
0.5248957872 38.3263816833 63.4449577332
0.5207655430 38.2901153564 63.2017707825
0.5166990161 38.2522430420 62.9587631226
0.5123474598 38.2216300964 62.7151451111
0.5072891712 38.2089653015 62.4699592590
0.5011394024 38.2239837646 62.2222938538
0.4936743379 38.2723388672 61.9715957642
0.4849740565 38.3519592285 61.7179794312
0.4754925072 38.4513092041 61.4624481201
0.4659644067 38.5517578125 61.2066802979
0.4571704268 38.6335449219 60.9525032043
0.4496998191 38.6817703247 60.7013473511
3.3904292583 -41.0313644409 58.8901138306
3.3863253593 -41.0399017334 58.6940650940
3.3825147152 -41.0557365417 58.4989204407
3.3787758350 -41.0733489990 58.3040122986
3.3749544621 -41.0889091492 58.1088562012
3.3709809780 -41.1006736755 57.9132347107
3.3668315411 -41.1080741882 57.7170639038
3.3625063896 -41.1111068726 57.5203361511
3.3580353260 -41.1105270386 57.3231430054
3.3535153866 -41.1087341309 57.1257820129
3.3491451740 -41.1106605530 56.9288902283
3.3452217579 -41.1236763000 56.7334289551
3.3420720100 -41.1558609009 56.5404777527
3.3399269581 -41.2129135132 56.3508148193
3.3387904167 -41.2949142456 56.1645011902
3.3383710384 -41.3946228027 55.9806251526
3.3381400108 -41.4989242554 55.7974777222
3.3375129700 -41.5933570862 55.6131286621
3.3360645771 -41.6674194336 55.4261589050
3.3336555958 -41.7176856995 55.2360649109
3.3304119110 -41.7472877502 55.0432205200
3.3266007900 -41.7628555298 54.8484954834
3.3225018978 -41.7713127136 54.6528091431
3.3183379173 -41.7781639099 54.4569053650
3.3142707348 -41.7874031067 54.2613258362
3.3104228973 -41.8020477295 54.0665016174
3.3068790436 -41.8241958618 53.8727264404
3.3036592007 -41.8543090820 53.6800880432
3.3006899357 -41.8905906677 53.4883422852
3.2978136539 -41.9291419983 53.2969551086
3.2948248386 -41.9649009705 53.1052131653
3.2915182114 -41.9928131104 52.9123840332
3.2877404690 -42.0091133118 52.7179260254
3.2834312916 -42.0123367310 52.5215950012
3.2786264420 -42.0033721924 52.3235015869
3.2734270096 -41.9847145081 52.1239814758
3.2679655552 -41.9596443176 51.9234962463
3.2623763084 -41.9314460754 51.7225112915
3.2567553520 -41.9025039673 51.5213737488
3.2511372566 -41.8736457825 51.3202018738
3.2455129623 -41.8446731567 51.1189651489
3.2398858070 -41.8156471252 50.9176750183
3.2342984676 -41.7876243591 50.7164916992
3.2288064957 -41.7619667053 50.5156173706
3.2234294415 -41.7391510010 50.3151283264
3.2181413174 -41.7185363770 50.1149330139
3.2129120827 -41.6993789673 49.9149246216
3.2077543736 -41.6819915771 49.7151489258
3.2027304173 -41.6678962708 49.5158500671
3.1979198456 -41.6590347290 49.3173294067
3.1933746338 -41.6566810608 49.1197891235
3.1890954971 -41.6608352661 48.9232482910
3.1850390434 -41.6704292297 48.7275466919
3.1811513901 -41.6841545105 48.5324974060
3.1774122715 -41.7014961243 48.3380203247
3.1738634109 -41.7234802246 48.1442871094
3.1706030369 -41.7524948120 47.9516868591
3.1677284241 -41.7909049988 47.7606010437
3.1652567387 -41.8391227722 47.5711212158
3.1630949974 -41.8948669434 47.3829002380
3.1610960960 -41.9545478821 47.1953659058
3.1591498852 -42.0154762268 47.0081024170
3.1572198868 -42.0767593384 46.8209648132
3.1552975178 -42.1381950378 46.6339187622
3.1533451080 -42.1988639832 46.4468154907
3.1512851715 -42.2568702698 46.2593421936
3.1490345001 -42.3102111816 46.0711669922
3.1465442181 -42.3576927185 45.8820800781
3.1438248158 -42.3995819092 45.6921157837
3.1409516335 -42.4377021790 45.5015716553
3.1380302906 -42.4746398926 45.3108673096
3.1351425648 -42.5123634338 45.1203308105
3.1323044300 -42.5512771606 44.9300308228
3.1294660568 -42.5901641846 44.7397689819
3.1265392303 -42.6268844604 44.5491790771
3.1234464645 -42.6595535278 44.3579368591
3.1201736927 -42.6878509521 44.1659774780
3.1168050766 -42.7138061523 43.9736442566
3.1135177612 -42.7417221069 43.7816696167
3.1105282307 -42.7768325806 43.5909652710
3.1079971790 -42.8230209351 43.4022178650
3.1059494019 -42.8808746338 43.2155456543
3.1042671204 -42.9475326538 43.0304756165
3.1027591228 -43.0183677673 42.8462104797
3.1012611389 -43.0894050598 42.6620635986
3.0997102261 -43.1591148376 42.4777603149
3.0981347561 -43.2281875610 42.2934226990
3.0965576172 -43.2971801758 42.1091499329
3.0948896408 -43.3639335632 41.9245529175
3.0929217339 -43.4234161377 41.7387313843
3.0904297829 -43.4702148438 41.5506973267
3.0873069763 -43.5017776489 41.3599662781
3.0836226940 -43.5197868347 41.1668128967
3.0795710087 -43.5289459229 40.9720649719
3.0753693581 -43.5344810486 40.7766609192
3.0711936951 -43.5406494141 40.5813713074
3.0671865940 -43.5508766174 40.3868217468
3.0634851456 -43.5684509277 40.1936264038
3.0602240562 -43.5966148376 40.0024032593
3.0574972630 -43.6376075745 39.8135833740
3.0552973747 -43.6912498474 39.6271591187
3.0534889698 -43.7542686462 39.4425392151
3.0518643856 -43.8216629028 39.2588119507
3.0502636433 -43.8895912170 39.0752601624
3.0486619473 -43.9574508667 38.8917694092
3.0471580029 -44.0276145935 38.7087936401
3.0459039211 -44.1037330627 38.5270233154
3.0450339317 -44.1890106201 38.3470878601
3.0445911884 -44.2844848633 38.1691970825
3.0444564819 -44.3872718811 37.9928207397
3.0443329811 -44.4902687073 37.8166007996
3.0438396931 -44.5843391418 37.6387825012
3.0426735878 -44.6622505188 37.4579467773
3.0407457352 -44.7218818665 37.2736473083
3.0382049084 -44.7668075562 37.0865516663
3.0353651047 -44.8045616150 36.8981018066
3.0326061249 -44.8442268372 36.7100639343
3.0302782059 -44.8941726685 36.5240898132
3.0286116600 -44.9598922729 36.3412818909
3.0276498795 -45.0424003601 36.1618728638
3.0272374153 -45.1379737854 35.9851531982
3.0270807743 -45.2395896912 35.8097457886
3.0268616676 -45.3396530151 35.6341514587
3.0263414383 -45.4324722290 35.4572181702
3.0253989697 -45.5151710510 35.2783584595
3.0240077972 -45.5871162415 35.0974273682
3.0222163200 -45.6494827271 34.9146347046
3.0201766491 -45.7059020996 34.7307052612
3.0181777477 -45.7632598877 34.5470314026
3.0165932178 -45.8304367065 34.3654251099
3.0157146454 -45.9143829346 34.1873283386
3.0155739784 -46.0158195496 34.0129280090
3.0158939362 -46.1281509399 33.8408927917
3.0162055492 -46.2402038574 33.6689300537
3.0160374641 -46.3407974243 33.4947242737
3.0150773525 -46.4225120544 33.3167076111
3.0132622719 -46.4838714600 33.1345367432
3.0108070374 -46.5300064087 32.9492454529
3.0081548691 -46.5714340210 32.7630157471
3.0058145523 -46.6202392578 32.5783805847
3.0041427612 -46.6848678589 32.3971405029
3.0031988621 -46.7667160034 32.2196235657
3.0027639866 -46.8605690002 32.0447540283
3.0024762154 -46.9578590393 31.8707256317
3.0019884109 -47.0503425598 31.6957836151
3.0010769367 -47.1327438354 31.5187854767
2.9996833801 -47.2036781311 31.3394184113
2.9978833199 -47.2649574280 31.1580467224
2.9958248138 -47.3200912476 30.9754161835
2.9936790466 -47.3731307983 30.7923889160
2.9916126728 -47.4280090332 30.6098213196
2.9897441864 -47.4875373840 30.4283294678
2.9880864620 -47.5520057678 30.2479839325
2.9865300655 -47.6188240051 30.0682258606
2.9849135876 -47.6841888428 29.8882236481
2.9831357002 -47.7457008362 29.7074451447
2.9812264442 -47.8040847778 29.5260410309
2.9793488979 -47.8631782532 29.3448600769
2.9777426720 -47.9286308289 29.1651611328
2.9766352177 -48.0058021545 28.9881515503
2.9761376381 -48.0972824097 28.8144359589
2.9761857986 -48.2015609741 28.6437015533
2.9765784740 -48.3138847351 28.4749011993
2.9770691395 -48.4284400940 28.3067378998
2.9774315357 -48.5399093628 28.1380100250
2.9774785042 -48.6438827515 27.9677143097
2.9770715237 -48.7371292114 27.7950973511
