25.2065029144 45.7033576965 29.9061851501
25.2055511475 45.7038841248 29.7145709991
25.2099723816 45.7147178650 29.5256175995
25.2193984985 45.7351455688 29.3391609192
25.2319622040 45.7615852356 29.1542911530
25.2452754974 45.7894668579 28.9698257446
25.2573928833 45.8150520325 28.7847938538
25.2671089172 45.8360290527 28.5985813141
25.2738342285 45.8512763977 28.4108829498
25.2774085999 45.8604850769 28.2216072083
25.2779903412 45.8639526367 28.0308170319
25.2760543823 45.8625907898 27.8387432098
25.2723999023 45.8579368591 27.6457843781
25.2680759430 45.8520011902 27.4524688721
25.2641887665 45.8469009399 27.2593612671
25.2616710663 45.8444252014 27.0669422150
25.2611160278 45.8457145691 26.8755245209
25.2626399994 45.8509902954 26.6851749420
25.2658252716 45.8594512939 26.4956836700
25.2698478699 45.8695144653 26.3066329956
25.2738189697 45.8794822693 26.1175632477
25.2771987915 45.8883132935 25.9281902313
25.2801151276 45.8962554932 25.7385787964
25.2834815979 45.9050636292 25.5492076874
25.2888908386 45.9177856445 25.3609161377
25.2982559204 45.9380912781 25.1747226715
25.3131351471 45.9689674377 24.9914684296
25.3339214325 46.0111656189 24.8113803864
25.3592777252 46.0621261597 24.6337776184
25.3864212036 46.1165084839 24.4571914673
25.4121246338 46.1681327820 24.2799053192
25.4336853027 46.2118148804 24.1004657745
25.4493236542 46.2441444397 23.9178981781
25.4583129883 46.2637252808 23.7317905426
25.4609966278 46.2712173462 23.5422954559
25.4583930969 46.2685775757 23.3499431610
25.4515228271 46.2577590942 23.1552639008
25.4411163330 46.2401657104 22.9586391449
25.4278659821 46.2171173096 22.7604274750
25.4126243591 46.1902542114 22.5610885620
25.3963794708 46.1614685059 22.3611526489
25.3802375793 46.1328773499 22.1612243652
25.3653240204 46.1066474915 21.9619255066
25.3524799347 46.0843811035 21.7637233734
25.3419837952 46.0666160583 21.5667819977
25.3336658478 46.0530281067 21.3710174561
25.3271942139 46.0429763794 21.1762504578
25.3222332001 46.0358238220 20.9823055267
25.3184642792 46.0309486389 20.7890090942
25.3156948090 46.0279960632 20.5962581635
25.3141288757 46.0273475647 20.4041690826
25.3145351410 46.0304832458 20.2131843567
25.3181304932 46.0397262573 20.0239963531
25.3261775970 46.0575027466 19.8373336792
25.3394985199 46.0853881836 19.6536788940
25.3580036163 46.1232032776 19.4730052948
25.3803596497 46.1684036255 19.2945728302
25.4041175842 46.2162895203 19.1169986725
25.4264583588 46.2614593506 18.9386730194
25.4452285767 46.2997817993 18.7583522797
25.4595317841 46.3295440674 18.5755100250
25.4694747925 46.3509521484 18.3901863098
25.4753665924 46.3645935059 18.2025432587
25.4771423340 46.3703460693 18.0125274658
25.4747276306 46.3680725098 17.8200759888
25.4692306519 46.3598899841 17.6258201599
25.4637393951 46.3517189026 17.4315471649
25.4625205994 46.3517379761 17.2397556305
25.4689064026 46.3663253784 17.0524139404
25.4836387634 46.3969078064 16.8699932098
25.5047168732 46.4396514893 16.6913471222
25.5282592773 46.4871177673 16.5142078400
25.5495929718 46.5303459167 16.3358230591
25.5645923615 46.5614395142 16.1537322998
25.5711688995 46.5763931274 15.9666719437
25.5700378418 46.5765762329 15.7750301361
25.5641212463 46.5675888062 15.5805225372
25.5571346283 46.5565567017 15.3853540421
25.5522537231 46.5495529175 15.1914253235
25.5512104034 46.5499038696 14.9997863770
25.5539493561 46.5575065613 14.8104219437
25.5591201782 46.5697669983 14.6225299835
25.5651950836 46.5837554932 14.4351930618
25.5713195801 46.5978393555 14.2479000092
25.5773258209 46.6117019653 14.0605478287
25.5831832886 46.6252746582 13.8731164932
25.5884132385 46.6376457214 13.6853132248
25.5917587280 46.6464080811 13.4963665009
25.5914115906 46.6480941772 13.3051567078
25.5859718323 46.6400222778 13.1108093262
25.5757789612 46.6228485107 12.9135141373
25.5634937286 46.6016616821 12.7148914337
25.5532054901 46.5843009949 12.5174674988
25.5487270355 46.5780715942 12.3236179352
25.5522956848 46.5872650146 12.1347570419
25.5640888214 46.6122093201 11.9510278702
25.5822963715 46.6494407654 11.7713336945
25.6037368774 46.6928710938 11.5937099457
25.6249961853 46.7359504700 11.4160261154
25.6433715820 46.7735061646 11.2365837097
25.6571559906 46.8022613525 11.0542936325
25.6655788422 46.8207511902 10.8686504364
25.6688518524 46.8293685913 10.6797647476
25.6680526733 46.8301887512 10.4883022308
25.6645870209 46.8259010315 10.2951374054
25.6595630646 46.8186264038 10.1009664536
25.6537322998 46.8098106384 9.9062623978
25.6478977203 46.8009834290 9.7115354538
25.6432495117 46.7944297791 9.5175485611
25.6412143707 46.7928810120 9.3252229691
25.6429328918 46.7985267639 9.1353054047
25.6486949921 46.8119163513 8.9479980469
25.6576309204 46.8313827515 8.7627525330
25.6678581238 46.8533287048 8.5783653259
25.6770744324 46.8733329773 8.3933448792
25.6832923889 46.8875923157 8.2063941956
25.6854286194 46.8940353394 8.0167932510
25.6835460663 46.8927841187 7.8245697021
25.6787376404 46.8859252930 7.6304197311
25.6727371216 46.8767814636 7.4354696274
25.6675434113 46.8691825867 7.2410278320
25.6652164459 46.8670768738 7.0484580994
25.6677837372 46.8743476868 6.8591098785
25.6769313812 46.8942222595 6.6741180420
25.6934223175 46.9281616211 6.4940171242
25.7166652679 46.9750289917 6.3184423447
25.7449207306 47.0314979553 6.1462650299
25.7760925293 47.0935516357 5.9761066437
25.8083133698 47.1576118469 5.8067302704
25.8397579193 47.2201843262 5.6369175911
25.8680839539 47.2767868042 5.4650931358
25.8904685974 47.3220062256 5.2893457413
25.9045486450 47.3513183594 5.1080570221
25.9095249176 47.3632011414 4.9206547737
25.9066829681 47.3601074219 4.7279691696
25.8991889954 47.3481025696 4.5321168900
25.8912792206 47.3353004456 4.3359570503
25.8869571686 47.3293724060 4.1422147751
25.8887310028 47.3351211548 3.9526143074
25.8969154358 47.3531455994 3.7673981190
25.9096317291 47.3798446655 3.5853033066
25.9234180450 47.4085960388 3.4039745331
25.9344978333 47.4321594238 3.2208161354
25.9402332306 47.4454917908 3.0340020657
25.9399814606 47.4473609924 2.8430652618
25.9348983765 47.4399757385 2.6487801075
25.9271202087 47.4274291992 2.4526090622
25.9189414978 47.4141159058 2.2561330795
25.9122924805 47.4037322998 2.0606958866
25.9085140228 47.3988418579 1.8672364950
25.9082241058 47.4006385803 1.6762015820
25.9112854004 47.4088478088 1.4875060320
25.9170055389 47.4221496582 1.3006805182
25.9246139526 47.4390716553 1.1151938438
25.9335842133 47.4585952759 0.9306823015
25.9436111450 47.4801445007 0.7469362617
25.9544105530 47.5031738281 0.5637606382
25.9655399323 47.5268325806 0.3808425367
25.9763526917 47.5498847961 0.1977269202
25.9863815308 47.5714378357 0.0140787363
-22.0395240784 35.8904533386 74.6892852783
-22.0524883270 35.9130744934 74.4942016602
-22.0785999298 35.9561347961 74.3007278442
-22.1156291962 36.0161743164 74.1086349487
-22.1600418091 36.0876922607 73.9175262451
-22.2067050934 36.1627082825 73.7267837524
-22.2497634888 36.2321166992 73.5356903076
-22.2844772339 36.2885475159 73.3436431885
-22.3081455231 36.3278083801 73.1502609253
-22.3192996979 36.3476104736 72.9553222656
-22.3166332245 36.3459205627 72.7586135864
-22.2990417480 36.3210220337 72.5599517822
-22.2665672302 36.2729873657 72.3592910767
-22.2212810516 36.2050361633 72.1568527222
-22.1674804688 36.1238441467 71.9531784058
-22.1110019684 36.0384941101 71.7490158081
-22.0578231812 35.9582748413 71.5451736450
-22.0125064850 35.8902778625 71.3422927856
-21.9772396088 35.8379096985 71.1406860352
-21.9520149231 35.8011512756 70.9403991699
-21.9355525970 35.7780189514 70.7412796021
-21.9259853363 35.7656097412 70.5430984497
-21.9206218719 35.7597351074 70.3454895020
-21.9155445099 35.7543029785 70.1479034424
-21.9061794281 35.7422065735 69.9496765137
-21.8886108398 35.7173576355 69.7502365112
-21.8604965210 35.6761131287 69.5492019653
-21.8213863373 35.6177749634 69.3464736938
-21.7729949951 35.5450096130 69.1422729492
-21.7191200256 35.4637222290 68.9371337891
-21.6645450592 35.3813514709 68.7317733765
-21.6132259369 35.3040351868 68.5267791748
-21.5670490265 35.2347221375 68.3224563599
-21.5260200500 35.1734085083 68.1188278198
-21.4893035889 35.1188011169 67.9157714844
-21.4559307098 35.0693931580 67.7131500244
-21.4246234894 35.0231933594 67.5107879639
-21.3933506012 34.9770545959 67.3083496094
-21.3595066071 34.9269142151 67.1054306030
-21.3205661774 34.8688545227 66.9016036987
-21.2746143341 34.7999000549 66.6965560913
-21.2205028534 34.7182617188 66.4900665283
-21.1580123901 34.6235961914 66.2820816040
-21.0882930756 34.5177001953 66.0727539063
-21.0140571594 34.4047851563 65.8625106812
-20.9388618469 34.2903823853 65.6519470215
-20.8657302856 34.1791877747 65.4415588379
-20.7960395813 34.0733451843 65.2315902710
-20.7293872833 33.9722251892 65.0219802856
-20.6642112732 33.8734016418 64.8124771118
-20.5985889435 33.7738876343 64.6027450562
-20.5308475494 33.6710815430 64.3924942017
-20.4601516724 33.5636863708 64.1815719604
-20.3872661591 33.4528884888 63.9701080322
-20.3151721954 33.3433227539 63.7586174011
-20.2486782074 33.2424621582 63.5479621887
-20.1927013397 33.1579513550 63.3390502930
-20.1501598358 33.0943222046 63.1324424744
-20.1208019257 33.0511817932 62.9281349182
-20.1013431549 33.0234298706 62.7255706787
-20.0863571167 33.0026283264 62.5237846375
-20.0692291260 32.9785003662 62.3215637207
-20.0431957245 32.9405326843 62.1176414490
-20.0028762817 32.8803634644 61.9109764099
-19.9460639954 32.7945594788 61.7011070251
-19.8744907379 32.6858215332 61.4883079529
-19.7928142548 32.5613861084 61.2734146118
-19.7064342499 32.4296379089 61.0574378967
-19.6194877625 32.2970161438 60.8411521912
-19.5339851379 32.1666412354 60.6249542236
-19.4503402710 32.0391540527 60.4089241028
-19.3686351776 31.9146842957 60.1930885315
-19.2896404266 31.7944259644 59.9776039124
-19.2151374817 31.6811523438 59.7628326416
-19.1476802826 31.5788307190 59.5492973328
-19.0899257660 31.4915847778 59.3375587463
-19.0437946320 31.4224071503 59.1280364990
-19.0098094940 31.3721008301 58.9208717346
-18.9868259430 31.3388919830 58.7158737183
-18.9722881317 31.3188095093 58.5125541687
-18.9628257751 31.3066139221 58.3102455139
-18.9548683167 31.2967529297 58.1082229614
-18.9451332092 31.2841339111 57.9058074951
-18.9310626984 31.2647781372 57.7024574280
-18.9112854004 31.2365570068 57.4978675842
-18.8859920502 31.1997623444 57.2920646667
-18.8568401337 31.1569728851 57.0853767395
-18.8262672424 31.1119785309 56.8783149719
-18.7966194153 31.0684242249 56.6713867188
-18.7696552277 31.0290374756 56.4649620056
-18.7463417053 30.9953231812 56.2592697144
-18.7266941071 30.9673061371 56.0543251038
-18.7098045349 30.9435749054 55.8499336243
-18.6942062378 30.9218521118 55.6457862854
-18.6784896851 30.8999462128 55.4415740967
-18.6618137360 30.8765487671 55.2371101379
-18.6440658569 30.8514842987 55.0323638916
-18.6254310608 30.8250446320 54.8273735046
-18.6057529449 30.7969856262 54.6221046448
-18.5843887329 30.7663059235 54.4164009094
-18.5607509613 30.7320938110 54.2101287842
-18.5349502563 30.6945266724 54.0033035278
-18.5079059601 30.6550254822 53.7961311340
-18.4809875488 30.6157207489 53.5889205933
-18.4555873871 30.5787734985 53.3820037842
-18.4328060150 30.5458965302 53.1756362915
-18.4132137299 30.5179748535 52.9699630737
-18.3968734741 30.4951057434 52.7650108337
-18.3838291168 30.4773578644 52.5607986450
-18.3747806549 30.4658164978 52.3575057983
-18.3712577820 30.4628620148 52.1555099487
-18.3749618530 30.4711322784 51.9552383423
-18.3867530823 30.4919662476 51.7569274902
-18.4060287476 30.5244255066 51.5604515076
-18.4308910370 30.5655632019 51.3653793335
-18.4588432312 30.6115016937 51.1711120605
-18.4874248505 30.6584148407 50.9770545959
-18.5145206451 30.7030200958 50.7826919556
-18.5386962891 30.7430877686 50.5876579285
-18.5599250793 30.7785797119 50.3919372559
-18.5803070068 30.8127555847 50.1960449219
-18.6036338806 30.8515033722 50.0009384155
-18.6334686279 30.9003582001 49.8075180054
-18.6711883545 30.9614620209 49.6161651611
-18.7157440186 31.0331821442 49.4266281128
-18.7651329041 31.1124076843 49.2384223938
-18.8180103302 31.1970520020 49.0512161255
-18.8742256165 31.2868785858 48.8649864197
-18.9344520569 31.3829326630 48.6799125671
-18.9997100830 31.4868011475 48.4962806702
-19.0711097717 31.6002082825 48.3143920898
-19.1496696472 31.7247352600 48.1345329285
-19.2360897064 31.8614673615 47.9569206238
-19.3304328918 32.0105018616 47.7815856934
-19.4316196442 32.1701622009 47.6082763672
-19.5369014740 32.3361816406 47.4362792969
-19.6417579651 32.5015373230 47.2643966675
-19.7406024933 32.6575508118 47.0911178589
-19.8282985687 32.7962493896 46.9150428772
-19.9020557404 32.9132957458 46.7353782654
-19.9625682831 33.0097732544 46.5522575378
-20.0134601593 33.0913085938 46.3666381836
-20.0594100952 33.1651649475 46.1797714233
-20.1042728424 33.2373313904 45.9926986694
-20.1502742767 33.3112678528 45.8060340881
-20.1983928680 33.3884887695 45.6200561523
-20.2492446899 33.4699516296 45.4349441528
-20.3035507202 33.5567817688 45.2509040833
-20.3618087769 33.6497421265 45.0680961609
-20.4236335754 33.7482452393 44.8864135742
-20.4875507355 33.8499908447 44.7054595947
-20.5512275696 33.9513664246 44.5245742798
-20.6117630005 34.0478591919 44.3429260254
-20.6662540436 34.1349678040 44.1596717834
-20.7129745483 34.2100028992 43.9743003845
-20.7524337769 34.2737655640 43.7869262695
-20.7874469757 34.3306236267 43.5983467102
-20.8222312927 34.3871192932 43.4097709656
-20.8612594604 34.4502105713 43.2225112915
-20.9082794189 34.5257072449 43.0376739502
-20.9654197693 34.6169166565 42.8559188843
-21.0327091217 34.7238845825 42.6772842407
-21.1081752777 34.8435478210 42.5012245178
-21.1883277893 34.9704856873 42.3267173767
-21.2685165405 35.0974769592 42.1523933411
-21.3433609009 35.2161674500 41.9766387939
-21.4077320099 35.3185958862 41.7978935242
-21.4585781097 35.4000205994 41.6151962280
-21.4965267181 35.4614181519 41.4286956787
-21.5257225037 35.5092277527 41.2396125793
-21.5519504547 35.5524253845 41.0496788025
-21.5807571411 35.5996284485 40.8605880737
-21.6165733337 35.6577110291 40.6737174988
-21.6620922089 35.7308616638 40.4899139404
-21.7173194885 35.8190803528 40.3092193604
-21.7790737152 35.9174308777 40.1306686401
-21.8418388367 36.0173530579 39.9525680542
-21.8997573853 36.1097450256 39.7730827332
-21.9487514496 36.1882820129 39.5909156799
-21.9880580902 36.2517776489 39.4057960510
-22.0204868317 36.3045921326 39.2185821533
-22.0511207581 36.3546218872 39.0308647156
-22.0851154327 36.4098701477 38.8442802429
-22.1261806488 36.4760894775 38.6600303650
-22.1764354706 36.5565757751 38.4788169861
-22.2367954254 36.6527481079 38.3009605408
-22.3066825867 36.7637100220 38.1263160706
-22.3832798004 36.8850860596 37.9539947510
-22.4617919922 37.0094337463 37.7824630737
-22.5371513367 37.1288833618 37.6100730896
-22.6058864594 37.2380485535 37.4356727600
-22.6669559479 37.3353157043 37.2588996887
-22.7219638824 37.4231643677 37.0802574158
-22.7752285004 37.5083122253 36.9011535645
-22.8330631256 37.6005477905 36.7236862183
-22.9016666412 37.7094993591 36.5499229431
-22.9845867157 37.8406753540 36.3810958862
-23.0811462402 37.9930191040 36.2170219421
-23.1861915588 38.1585311890 36.0560073853
-23.2913551331 38.3242263794 35.8952636719
-23.3877048492 38.4762344360 35.7317619324
-23.4685020447 38.6041030884 35.5631866455
-23.5306644440 38.7030410767 35.3884315491
-23.5750064850 38.7743186951 35.2077140808
-23.6061916351 38.8251724243 35.0225791931
-23.6320552826 38.8677673340 34.8356781006
-23.6612644196 38.9155540466 34.6499824524
-23.7000102997 38.9781417847 34.4676475525
-23.7500514984 39.0582580566 34.2893218994
-23.8095798492 39.1531028748 34.1144104004
-23.8756160736 39.2580451965 33.9419021606
-23.9456768036 39.3692283630 33.7709465027
-24.0178489685 39.4836883545 33.6008834839
-24.0899620056 39.5980567932 33.4309539795
-24.1588726044 39.7074508667 33.2600479126
-24.2205867767 39.8056755066 33.0867309570
-24.2714347839 39.8870315552 32.9096755981
-24.3098011017 39.9490165710 32.7282638550
-24.3373985291 39.9942893982 32.5430755615
-24.3591060638 40.0304183960 32.3558235168
-24.3812103271 40.0671653748 32.1687583923
-24.4092807770 40.1131668091 31.9838962555
-24.4471073151 40.1743125916 31.8026332855
-24.4965209961 40.2534332275 31.6256675720
-24.5570297241 40.3497772217 31.4528598785
-24.6255340576 40.4585227966 31.2831077576
-24.6970233917 40.5719032288 31.1145992279
-24.7659358978 40.6812820435 30.9452972412
-24.8271408081 40.7786941528 30.7732925415
-24.8765087128 40.8577384949 30.5970306396
-24.9117927551 40.9149246216 30.4156379700
-24.9337921143 40.9514999390 30.2293643951
-24.9468688965 40.9742240906 30.0397987366
-24.9579105377 40.9937896729 29.8494930267
-24.9738674164 41.0209846497 29.6610584259
-24.9993743896 41.0629959106 29.4762573242
-25.0362091064 41.1225852966 29.2957935333
-25.0844955444 41.1999435425 29.1197547913
-25.1435298920 41.2939796448 28.9479084015
-25.2112216949 41.4014472961 28.7794952393
-25.2836647034 41.5162849426 28.6130447388
-25.3562889099 41.6313972473 28.4468193054
-25.4253597260 41.7410011292 28.2793827057
-25.4881038666 41.8407821655 28.1096496582
-25.5420112610 41.9268493652 27.9366302490
-25.5849399567 41.9958839417 27.7594604492
-25.6162891388 42.0469474792 27.5778713226
-25.6380939484 42.0832023621 27.3926200867
-25.6551418304 42.1120796204 27.2055492401
-25.6738643646 42.1435508728 27.0191707611
-25.7001781464 42.1868057251 26.8358173370
-25.7370414734 42.2464179993 26.6566867828
-25.7831306458 42.3203506470 26.4812870026
-25.8338031769 42.4013900757 26.3078041077
-25.8835620880 42.4810104370 26.1340675354
-25.9281768799 42.5526504517 25.9583797455
-25.9655132294 42.6129989624 25.7798728943
-25.9953460693 42.6617012024 25.5984287262
-26.0185489655 42.7001190186 25.4143772125
-26.0360774994 42.7297325134 25.2280807495
-26.0486583710 42.7516670227 25.0398139954
-26.0576152802 42.7679824829 24.8500995636
-26.0657997131 42.7831001282 24.6600856781
-26.0773887634 42.8034973145 24.4714775085
-26.0965576172 42.8356513977 24.2859916687
-26.1261062622 42.8839111328 24.1048049927
-26.1669120789 42.9496307373 23.9283142090
-26.2180500031 43.0313796997 23.7561721802
-26.2768249512 43.1249732971 23.5872993469
-26.3385925293 43.2232055664 23.4197940826
-26.3970890045 43.3163642883 23.2510604858
-26.4457416534 43.3942527771 23.0783443451
-26.4796257019 43.4492263794 22.8995571136
-26.4970989227 43.4787445068 22.7139568329
-26.5001697540 43.4859237671 22.5223350525
-26.4934082031 43.4778480530 22.3265724182
-26.4824066162 43.4631958008 22.1289978027
-26.4727573395 43.4506454468 21.9319667816
-26.4694557190 43.4479370117 21.7376079559
-26.4762210846 43.4608421326 21.5475254059
-26.4950218201 43.4924201965 21.3625946045
-26.5261764526 43.5431594849 21.1829891205
-26.5688247681 43.6117210388 21.0083827972
-26.6212139130 43.6953964233 20.8380603790
-26.6805572510 43.7898521423 20.6708507538
-26.7429046631 43.8889694214 20.5050659180
-26.8035888672 43.9855041504 20.3386936188
-26.8582496643 44.0726928711 20.1698322296
-26.9037647247 44.1456947327 19.9971008301
-26.9385509491 44.2020568848 19.8197765350
-26.9625301361 44.2416572571 19.6377906799
-26.9775123596 44.2673034668 19.4519004822
-26.9876060486 44.2853660583 19.2638874054
-26.9983978271 44.3045120239 19.0761985779
-27.0149993896 44.3326644897 18.8911018372
-27.0403900146 44.3744506836 18.7099380493
-27.0749301910 44.4304275513 18.5328941345
-27.1165847778 44.4974327087 18.3590946198
-27.1613597870 44.5692825317 18.1867790222
-27.2042083740 44.6381378174 18.0136947632
-27.2406578064 44.6970710754 17.8378257751
-27.2684593201 44.7425918579 17.6581382751
-27.2878684998 44.7750930786 17.4747200012
-27.3004665375 44.7970352173 17.2882595062
-27.3078136444 44.8108329773 17.0994377136
-27.3110046387 44.8181877136 16.9087390900
-27.3111763000 44.8208580017 16.7166671753
-27.3103218079 44.8219337463 16.5241222382
-27.3116893768 44.8264617920 16.3325881958
-27.3194160461 44.8408470154 16.1439743042
-27.3372936249 44.8709716797 15.9600439072
-27.3669776917 44.9194068909 15.7815971375
-27.4065055847 44.9831085205 15.6077651978
-27.4504070282 45.0535850525 15.4360427856
-27.4916839600 45.1199951172 15.2631950378
-27.5244026184 45.1731300354 15.0864458084
-27.5453910828 45.2080764771 14.9042892456
-27.5546455383 45.2248268127 14.7166814804
-27.5546188354 45.2271881104 14.5247364044
-27.5490722656 45.2209892273 14.3301906586
-27.5422897339 45.2128753662 14.1350460052
-27.5389232635 45.2100563049 13.9414958954
-27.5439052582 45.2201843262 13.7518882751
-27.5618648529 45.2504310608 13.5684461594
-27.5960273743 45.3058013916 13.3927497864
-27.6471710205 45.3875007629 13.2252235413
-27.7133216858 45.4924659729 13.0649785995
-27.7902774811 45.6141815186 12.9100542068
-27.8723030090 45.7437591553 12.7577304840
-27.9526977539 45.8708038330 12.6047983170
-28.0247459412 45.9849014282 12.4480123520
-28.0831241608 46.0778083801 12.2847728729
-28.1248950958 46.1449661255 12.1136102676
-28.1494636536 46.1854476929 11.9341783524
-28.1580619812 46.2011756897 11.7470216751
-28.1536960602 46.1968002319 11.5535526276
-28.1417350769 46.1806526184 11.3563556671
-28.1302814484 46.1652870178 11.1593761444
-28.1288909912 46.1655235291 10.9673109055
-28.1454925537 46.1936569214 10.7840976715
-28.1831569672 46.2544441223 10.6113128662
-28.2387733459 46.3430557251 10.4474849701
-28.3044624329 46.4472846985 10.2887716293
-28.3709602356 46.5527648926 10.1305999756
-28.4310379028 46.6482887268 9.9693746567
-28.4810562134 46.7282180786 9.8032569885
-28.5202617645 46.7913856506 9.6318397522
-28.5492515564 46.8387184143 9.4553833008
-28.5690326691 46.8717689514 9.2743597031
-28.5807971954 46.8923950195 9.0893392563
-28.5858745575 46.9026527405 8.9009666443
-28.5857810974 46.9048995972 8.7099866867
-28.5824947357 46.9021949768 8.5173835754
-28.5787792206 46.8988227844 8.3245506287
-28.5781574249 46.9002456665 8.1332788467
-28.5843448639 46.9122276306 7.9454765320
-28.6003112793 46.9393653870 7.7626833916
-28.6272048950 46.9834403992 7.5855197906
-28.6636581421 47.0423316956 7.4133191109
-28.7060089111 47.1103630066 7.2442302704
-28.7493438721 47.1799240112 7.0757384300
-28.7886772156 47.2432746887 6.9052705765
-28.8198375702 47.2939605713 6.7306523323
-28.8400249481 47.3276367188 6.5504045486
-28.8480987549 47.3425369263 6.3638958931
-28.8446445465 47.3395690918 6.1713924408
-28.8318233490 47.3220825195 5.9739842415
-28.8128833771 47.2951126099 5.7733407021
-28.7916297913 47.2645606995 5.5714368820
-28.7721023560 47.2366828918 5.3703889847
-28.7581520081 47.2174453735 5.1722311974
-28.7526226044 47.2112655640 4.9784841537
-28.7566356659 47.2198715210 4.7897682190
-28.7695770264 47.2423171997 4.6057891846
-28.7897205353 47.2759208679 4.4256601334
-28.8147888184 47.3171615601 4.2481937408
-28.8420333862 47.3617706299 4.0719399452
-28.8681755066 47.4046707153 3.8951516151
-28.8897838593 47.4405479431 3.7159893513
-28.9041404724 47.4651794434 3.5329773426
-28.9100341797 47.4766998291 3.3454415798
-28.9080066681 47.4759445190 3.1536464691
-28.9000740051 47.4660377502 2.9586515427
-28.8892517090 47.4516487122 2.7620711327
-28.8788681030 47.4379463196 2.5657012463
-28.8713970184 47.4287567139 2.3708863258
-28.8673992157 47.4249458313 2.1779413223
-28.8656673431 47.4246482849 1.9862202406
-28.8644981384 47.4252243042 1.7947986126
-28.8627071381 47.4248390198 1.6030290127
-28.8596591949 47.4225006104 1.4105603695
-28.8549251556 47.4175529480 1.2171546221
-28.8483734131 47.4097862244 1.0227308273
-28.8406085968 47.4001426697 0.8276192546
-28.8333053589 47.3912124634 0.6327414513
-28.8289985657 47.3869285583 0.4395040870
-28.8303470612 47.3914031982 0.2493950427
-28.8393039703 47.4076728821 0.0635211021
37.5858421326 38.7819137573 75.0763168335
37.6020126343 38.8011512756 74.8894882202
37.6298904419 38.8331680298 74.7040786743
37.6657333374 38.8738746643 74.5196762085
37.7040328979 38.9172668457 74.3356323242
37.7395362854 38.9576034546 74.1513137817
37.7689094543 38.9912490845 73.9663009644
37.7905349731 39.0164375305 73.7803726196
37.8032379150 39.0318870544 73.5933685303
37.8056755066 39.0361328125 73.4050903320
37.7970314026 39.0282859802 73.2154083252
37.7780838013 39.0091896057 73.0243835449
37.7516212463 38.9818992615 72.8323516846
37.7220115662 38.9511680603 72.6398620605
37.6941947937 38.9223937988 72.4475402832
37.6726264954 38.9004440308 72.2559890747
37.6604385376 38.8887290955 72.0656280518
37.6588478088 38.8885803223 71.8766555786
37.6668167114 38.8988685608 71.6889572144
37.6811637878 38.9161109924 71.5021286011
37.6973609924 38.9353790283 71.3155746460
37.7107582092 38.9515838623 71.1286621094
37.7173728943 38.9603881836 70.9408340454
37.7141342163 38.9584426880 70.7516403198
37.6991767883 38.9437065125 70.5607986450
37.6724815369 38.9161605835 70.3682708740
37.6364593506 38.8784408569 70.1743698120
37.5955772400 38.8354148865 69.9797058105
37.5547218323 38.7924156189 69.7849578857
37.5172729492 38.7531394958 69.5906219482
37.4844970703 38.7189598083 69.3968963623
37.4564743042 38.6899719238 69.2037887573
37.4333038330 38.6662750244 69.0113449097
37.4153289795 38.6482505798 68.8196258545
37.4024009705 38.6357307434 68.6286163330
37.3929977417 38.6270637512 68.4381027222
37.3841209412 38.6189651489 68.2476501465
37.3721237183 38.6074638367 68.0567016602
37.3540687561 38.5893592834 67.8647994995
37.3288192749 38.5633926392 67.6717529297
37.2972412109 38.5305290222 67.4776687622
37.2615699768 38.4931945801 67.2828903198
37.2243194580 38.4541435242 67.0877914429
37.1875915527 38.4156608582 66.8927001953
37.1528778076 38.3793716431 66.6978530884
37.1210479736 38.3462333679 66.5033950806
37.0921211243 38.3162651062 66.3093414307
37.0650444031 38.2883110046 66.1155242920
37.0379714966 38.2603683472 65.9216461182
37.0092353821 38.2306098938 65.7274475098
36.9783287048 38.1984786987 65.5328369141
36.9461936951 38.1650123596 65.3379516602
36.9148406982 38.1323966980 65.1431427002
36.8867111206 38.1032981873 64.9487991333
36.8640823364 38.0802078247 64.7553176880
36.8485374451 38.0648422241 64.5629882813
36.8405418396 38.0577125549 64.3719024658
36.8392410278 38.0578880310 64.1819381714
36.8425483704 38.0630950928 63.9927597046
36.8476676941 38.0702743530 63.8038902283
36.8518791199 38.0764656067 63.6148681641
36.8533058167 38.0796203613 63.4253654480
36.8511505127 38.0788612366 63.2352294922
36.8453521729 38.0741348267 63.0444450378
36.8361892700 38.0657310486 62.8530464172
36.8240890503 38.0541267395 62.6611061096
36.8096504211 38.0399703979 62.4687156677
36.7935333252 38.0239830017 62.2759933472
36.7763710022 38.0068550110 62.0830459595
36.7588386536 37.9893264771 61.8899955750
36.7417640686 37.9722976685 61.6969871521
36.7260055542 37.9566993713 61.5041847229
36.7123374939 37.9433860779 61.3117332458
36.7014465332 37.9331054688 61.1197662354
36.6937904358 37.9263496399 60.9283752441
36.6891517639 37.9228897095 60.7375297546
36.6865119934 37.9216041565 60.5470466614
36.6846466064 37.9211692810 60.3567008972
36.6831321716 37.9211120605 60.1664123535
36.6828842163 37.9224395752 59.9763565063
36.6857490540 37.9271659851 59.7868919373
36.6933403015 37.9370422363 59.5983390808
36.7060127258 37.9524650574 59.4107780457
36.7226867676 37.9722518921 59.2240142822
36.7413444519 37.9942054749 59.0376663208
36.7596206665 38.0157394409 58.8512725830
36.7751350403 38.0342559814 58.6643600464
36.7858314514 38.0475196838 58.4765167236
36.7904472351 38.0541572571 58.2874755859
36.7889328003 38.0541000366 58.0972099304
36.7826080322 38.0488014221 57.9059638977
36.7739410400 38.0409431458 57.7142333984
36.7659301758 38.0338058472 57.5226097107
36.7612228394 38.0302658081 57.3316421509
36.7612762451 38.0319213867 57.1416358948
36.7659950256 38.0386695862 56.9525833130
36.7740020752 38.0489997864 56.7642135620
36.7833137512 38.0607566833 56.5761299133
36.7922096252 38.0720558167 56.3879661560
36.7999572754 38.0821037292 56.1995735168
36.8072357178 38.0916404724 56.0110893250
36.8159408569 38.1027336121 55.8229179382
36.8284530640 38.1179771423 55.6355667114
36.8466873169 38.1394653320 55.4494514465
36.8714675903 38.1680908203 55.2647666931
36.9023208618 38.2033386230 55.0814323425
36.9374618530 38.2432594299 54.8990745544
36.9737319946 38.2844200134 54.7170219421
37.0070495605 38.3223533630 54.5343894958
37.0336952209 38.3530120850 54.3503494263
37.0515403748 38.3740730286 54.1644248962
37.0601463318 38.3850555420 53.9764823914
37.0599899292 38.3864784241 53.7866096497
37.0520019531 38.3793640137 53.5949897766
37.0379600525 38.3656463623 53.4019927979
37.0209655762 38.3487091064 53.2083053589
37.0051040649 38.3330078125 53.0148315430
36.9941444397 38.3226547241 52.8224372864
36.9904899597 38.3202629089 52.6316719055
36.9950523376 38.3268394470 52.4427719116
37.0077514648 38.3422851563 52.2557411194
37.0276336670 38.3655662537 52.0703811646
37.0527458191 38.3945465088 51.8862609863
37.0801353455 38.4260139465 51.7027091980
37.1061897278 38.4560241699 51.5188941956
37.1269798279 38.4802932739 51.3338890076
37.1386566162 38.4946212769 51.1467781067
37.1379776001 38.4954757690 50.9567718506
37.1228256226 38.4805526733 50.7633323669
37.0928039551 38.4494094849 50.5663299561
37.0497474670 38.4040527344 50.3661575317
36.9976501465 38.3488426208 50.1637306213
36.9415473938 38.2892608643 49.9602432251
36.8859710693 38.2302551270 49.7567710876
36.8341484070 38.1753463745 49.5540962219
36.7880859375 38.1267204285 49.3527221680
36.7489700317 38.0856628418 49.1529541016
36.7173538208 38.0527877808 48.9549407959
36.6932945251 38.0281562805 48.7587280273
36.6765327454 38.0114784241 48.5642623901
36.6666412354 38.0022964478 48.3714599609
36.6632804871 38.0002288818 48.1802635193
36.6668357849 38.0057106018 47.9907798767
36.6791267395 38.0207099915 47.8034858704
36.7031555176 38.0485115051 47.6191596985
36.7417945862 38.0922470093 47.4385681152
36.7962837219 38.1532592773 47.2620544434
36.8653755188 38.2301902771 47.0893516541
36.9452896118 38.3189239502 46.9195365906
37.0304107666 38.4133300781 46.7511978149
37.1145553589 38.5066757202 46.5827636719
37.1921730042 38.5929031372 46.4127922058
37.2589035034 38.6672554016 46.2401428223
37.3118209839 38.7265472412 46.0640220642
37.3498039246 38.7695579529 45.8840980530
37.3736915588 38.7971992493 45.7005500793
37.3857002258 38.8118858337 45.5139198303
37.3885154724 38.8165512085 45.3248825073
37.3847465515 38.8140373230 45.1341018677
37.3768272400 38.8069992065 44.9422073364
37.3669471741 38.7978248596 44.7497711182
37.3570594788 38.7886428833 44.5573081970
37.3490562439 38.7815132141 44.3653259277
37.3447647095 38.7784309387 44.1743240356
37.3454475403 38.7807693481 43.9846534729
37.3509521484 38.7883682251 43.7962837219
37.3591651917 38.7989196777 43.6086578369
37.3663024902 38.8083000183 43.4207496643
37.3680496216 38.8117980957 43.2313690186
37.3611106873 38.8058319092 43.0396003723
37.3446617126 38.7894973755 42.8451881409
37.3211860657 38.7654991150 42.6487960815
37.2961044312 38.7397537231 42.4519119263
37.2758903503 38.7193145752 42.2563285828
37.2654838562 38.7095680237 42.0634422302
37.2665100098 38.7122879028 41.8737411499
37.2769165039 38.7252311707 41.6866760254
37.2918624878 38.7431221008 41.5009040833
37.3055648804 38.7596549988 41.3148040771
37.3134384155 38.7698364258 41.1270675659
37.3133163452 38.7712974548 40.9370574951
37.3051872253 38.7640342712 40.7447547913
37.2903175354 38.7494277954 40.5504951477
37.2707977295 38.7297439575 40.3548660278
37.2495803833 38.7082138062 40.1586990356
37.2303886414 38.6888961792 39.9630775452
37.2169837952 38.6758804321 39.7690963745
37.2121810913 38.6722412109 39.5775947571
37.2172279358 38.6793441772 39.3889617920
37.2314910889 38.6964912415 39.2030372620
37.2524337769 38.7209167480 39.0191001892
37.2760391235 38.7482452393 38.8359832764
37.2976226807 38.7733688354 38.6523056030
37.3127365112 38.7914390564 38.4667396545
37.3181152344 38.7989044189 38.2782936096
37.3125152588 38.7943992615 38.0865669250
37.2968215942 38.7788925171 37.8917961121
37.2733879089 38.7549476624 37.6946601868
37.2453956604 38.7260360718 37.4960975647
37.2165069580 38.6961479187 37.2972106934
37.1903457642 38.6692314148 37.0990867615
37.1696243286 38.6482467651 36.9025688171
37.1554946899 38.6344490051 36.7080230713
37.1474571228 38.6272888184 36.5153121948
37.1435775757 38.6246604919 36.3238601685
37.1408653259 38.6233024597 36.1327552795
37.1360359192 38.6196441650 35.9409828186
37.1267089844 38.6110763550 35.7478027344
37.1122550964 38.5969238281 35.5530014038
37.0939102173 38.5785331726 35.3569564819
37.0741157532 38.5585556030 35.1604118347
37.0556030273 38.5399856567 34.9642333984
37.0407409668 38.5253868103 34.7691612244
37.0311813354 38.5165710449 34.5757331848
37.0278320313 38.5145225525 34.3842468262
37.0307617188 38.5193176270 34.1947479248
37.0390052795 38.5299034119 34.0069389343
37.0503616333 38.5438804626 33.8201408386
37.0617027283 38.5578384399 33.6333465576
37.0698394775 38.5683097839 33.4455451965
37.0724372864 38.5727424622 33.2559623718
37.0684928894 38.5700416565 33.0642623901
37.0586929321 38.5609664917 32.8706512451
37.0455398560 38.5482330322 32.6759262085
37.0327072144 38.5358543396 32.4812774658
37.0237159729 38.5276565552 32.2878532410
37.0207405090 38.5260162354 32.0963821411
37.0241088867 38.5312881470 31.9069843292
37.0323143005 38.5418319702 31.7191867828
37.0425453186 38.5545845032 31.5320682526
37.0517044067 38.5661659241 31.3446063995
37.0574378967 38.5740165710 31.1560173035
37.0587348938 38.5770339966 30.9659538269
37.0559310913 38.5755805969 30.7745151520
37.0503616333 38.5711135864 30.5821361542
37.0436973572 38.5654525757 30.3893737793
37.0372467041 38.5600280762 30.1966629028
37.0317459106 38.5556373596 30.0042591095
37.0277824402 38.5529174805 29.8123588562
37.0262184143 38.5528182983 29.6212635040
37.0282402039 38.5566253662 29.4313831329
37.0349235535 38.5655059814 29.2430953979
37.0465850830 38.5798149109 29.0565242767
37.0621643066 38.5983924866 28.8713150024
37.0791435242 38.6184997559 28.6866149902
37.0944099426 38.6367340088 28.5013465881
37.1054077148 38.6503181458 28.3146228790
37.1107177734 38.6577033997 28.1259326935
37.1097640991 38.6582717896 27.9350662231
37.1023597717 38.6518058777 27.7419357300
37.0885429382 38.6383552551 27.5465393066
37.0687866211 38.6184310913 27.3490200043
37.0441894531 38.5932350159 27.1497554779
37.0164794922 38.5646476746 26.9493389130
36.9877166748 38.5349121094 26.7484912872
36.9599266052 38.5062408447 26.5479297638
36.9348106384 38.4804801941 26.3482627869
36.9135551453 38.4589271545 26.1499233246
36.8965797424 38.4420394897 25.9530715942
36.8832817078 38.4291572571 25.7575016022
36.8722457886 38.4187393188 25.5627155304
36.8622665405 38.4094734192 25.3682842255
36.8537025452 38.4017448425 25.1743412018
36.8490905762 38.3983268738 24.9818096161
36.8525085449 38.4036560059 24.7921848297
36.8679199219 38.4220504761 24.6069335938
36.8973693848 38.4557380676 24.4268379211
36.9398422241 38.5036125183 24.2515640259
36.9913597107 38.5613365173 24.0796871185
37.0461082458 38.6225852966 23.9090919495
37.0980949402 38.6808242798 23.7375736237
37.1423721313 38.7306594849 23.5632934570
37.1755485535 38.7684020996 23.3849697113
37.1958427429 38.7921142578 23.2019100189
37.2030677795 38.8015899658 23.0140075684
37.1983642578 38.7980690002 22.8216514587
37.1837348938 38.7837333679 22.6255588531
37.1618118286 38.7614555359 22.4266929626
37.1358871460 38.7348213196 22.2262725830
37.1095275879 38.7077102661 22.0256347656
37.0854911804 38.6831283569 21.8258190155
37.0648498535 38.6622505188 21.6272449493
37.0472106934 38.6446418762 21.4297676086
37.0315704346 38.6292114258 21.2330150604
37.0168228149 38.6147499084 21.0365676880
37.0018501282 38.6000480652 20.8400020599
36.9857025146 38.5840644836 20.6429500580
36.9677467346 38.5661087036 20.4451675415
36.9476547241 38.5458335876 20.2465209961
36.9255104065 38.5233154297 20.0470352173
36.9021377563 38.4994621277 19.8470249176
36.8793220520 38.4762191772 19.6471843719
36.8595542908 38.4562950134 19.4484825134
36.8454132080 38.4425010681 19.2519397736
36.8389091492 38.4370231628 19.0583553314
36.8409729004 38.4408760071 18.8681163788
36.8512344360 38.4536552429 18.6811027527
36.8681068420 38.4736404419 18.4967136383
36.8890647888 38.4980735779 18.3139648438
36.9109802246 38.5235481262 18.1316299438
36.9305419922 38.5464630127 17.9483966827
36.9447250366 38.5635147095 17.7630500793
36.9513320923 38.5723152161 17.5746994019
36.9494552612 38.5718765259 17.3829612732
36.9396820068 38.5628433228 17.1880474091
36.9240531921 38.5474281311 16.9907550812
36.9059448242 38.5293121338 16.7924270630
36.8899269104 38.5134735107 16.5949058533
36.8810081482 38.5053672791 16.4002227783
36.8828811646 38.5090141296 16.2098979950
36.8961143494 38.5250358582 16.0241909027
36.9178390503 38.5502967834 15.8419637680
36.9431266785 38.5794487000 15.6612300873
36.9668388367 38.6068763733 15.4798927307
36.9848899841 38.6281394958 15.2962694168
36.9950370789 38.6407966614 15.1094226837
36.9972877502 38.6448554993 14.9193334579
36.9938545227 38.6427230835 14.7268924713
36.9885177612 38.6385154724 14.5336523056
36.9856529236 38.6370048523 14.3414239883
36.9890403748 38.6422996521 14.1517839432
37.0006256104 38.6565246582 13.9655656815
37.0198364258 38.6790504456 13.7825508118
37.0438499451 38.7068061829 13.6015777588
37.0685844421 38.7353477478 13.4209470749
37.0896835327 38.7599296570 13.2388286591
37.1033744812 38.7764434814 13.0536174774
37.1072235107 38.7822418213 12.8642683029
37.1006546021 38.7766952515 12.6705074310
37.0847358704 38.7609672546 12.4727582932
37.0615653992 38.7373428345 12.2718877792
37.0340003967 38.7089347839 12.0690946579
37.0059432983 38.6799888611 11.8660335541
36.9822196960 38.6557655334 11.6647710800
36.9671745300 38.6409873962 11.4671840668
36.9627380371 38.6377677917 11.2741270065
36.9677391052 38.6448173523 11.0851249695
36.9790802002 38.6587753296 10.8988656998
36.9936523438 38.6762504578 10.7140226364
37.0094451904 38.6950531006 10.5297298431
37.0253562927 38.7139854431 10.3455142975
37.0402908325 38.7318534851 10.1608953476
37.0522918701 38.7465248108 9.9750175476
37.0586433411 38.7550506592 9.7866849899
37.0572204590 38.7551078796 9.5949487686
37.0481605530 38.7468528748 9.3998470306
37.0344429016 38.7335243225 9.2026710510
37.0210990906 38.7206001282 9.0056276321
37.0135498047 38.7139930725 8.8111200333
37.0154266357 38.7176437378 8.6207685471
37.0266761780 38.7314987183 8.4345817566
37.0436325073 38.7515678406 8.2509489059
37.0610466003 38.7721328735 8.0675468445
37.0744171143 38.7882995605 7.8823661804
37.0812568665 38.7973518372 7.6942772865
37.0814819336 38.7992057800 7.5032272339
37.0772552490 38.7962150574 7.3101687431
37.0721282959 38.7922363281 7.1166896820
37.0698280334 38.7913436890 6.9244742393
37.0735054016 38.7969512939 6.7349538803
37.0855140686 38.8116340637 6.5492153168
37.1072959900 38.8369522095 6.3679351807
37.1388397217 38.8729019165 6.1911392212
37.1780662537 38.9172134399 6.0179033279
37.2207412720 38.9652786255 5.8463125229
37.2613677979 39.0111160278 5.6738591194
37.2948303223 39.0491485596 5.4981842041
37.3180580139 39.0760383606 5.3178567886
37.3308372498 39.0915565491 5.1327486038
37.3351478577 39.0978584290 4.9437470436
37.3337440491 39.0979347229 4.7520990372
37.3293380737 39.0947456360 4.5590524673
37.3248291016 39.0914459229 4.3659439087
37.3232955933 39.0913772583 4.1742057800
37.3271064758 39.0971336365 3.9849550724
37.3369636536 39.1094741821 3.7985355854
37.3518257141 39.1272583008 3.6144738197
37.3696479797 39.1482658386 3.4318244457
37.3880767822 39.1699295044 3.2494874001
37.4044532776 39.1893653870 3.0662136078
37.4158020020 39.2033233643 2.8805890083
37.4197349548 39.2092094421 2.6914687157
37.4158973694 39.2066383362 2.4986655712
37.4063644409 39.1978683472 2.3031427860
37.3946495056 39.1867218018 2.1065564156
37.3845825195 39.1773681641 1.9107300043
37.3796119690 39.1735687256 1.7173163891
37.3819084167 39.1776733398 1.5273684263
37.3913955688 39.1896057129 1.3408696651
37.4057579041 39.2068481445 1.1567286253
37.4216918945 39.2257957458 0.9733658433
37.4363746643 39.2433853149 0.7894238830
37.4482154846 39.2578773499 0.6041278243
37.4568023682 39.2688293457 0.4172731042
37.4627685547 39.2769317627 0.2291561961
37.4680404663 39.2842750549 0.0407054834
-11.4275894165 38.5716705322 75.1620788574
-11.4427947998 38.6235771179 74.9676055908
-11.4693021774 38.7108001709 74.7755432129
-11.4996786118 38.8101158142 74.5843963623
-11.5280780792 38.9032478333 74.3929443359
-11.5517988205 38.9817619324 74.2005996704
-11.5704097748 39.0443038940 74.0072402954
-11.5840291977 39.0912475586 73.8128738403
-11.5923957825 39.1217727661 73.6173934937
-11.5950326920 39.1343955994 73.4206848145
-11.5917854309 39.1286315918 73.2226638794
-11.5831308365 39.1059722900 73.0234069824
-11.5701303482 39.0697364807 72.8231353760
-11.5541372299 39.0241508484 72.6221160889
-11.5365648270 38.9736328125 72.4206695557
-11.5189323425 38.9229278564 72.2191390991
-11.5028562546 38.8770828247 72.0178985596
-11.4895782471 38.8399887085 71.8172607422
-11.4793691635 38.8124809265 71.6173095703
-11.4713850021 38.7919235229 71.4178466797
-11.4640235901 38.7733154297 71.2184982300
-11.4553527832 38.7506141663 71.0188064575
-11.4434547424 38.7178344727 70.8182754517
-11.4267988205 38.6701889038 70.6165161133
-11.4046268463 38.6053161621 70.4133071899
-11.3771686554 38.5239295959 70.2086715698
-11.3455533981 38.4295578003 70.0028686523
-11.3114748001 38.3274917603 69.7963027954
-11.2767934799 38.2235488892 69.5894546509
-11.2432203293 38.1230697632 69.3827514648
-11.2120256424 38.0300254822 69.1765441895
-11.1836900711 37.9459114075 68.9709625244
-11.1578083038 37.8694686890 68.7659301758
-11.1335897446 37.7982215881 68.5612411499
-11.1105928421 37.7307891846 68.3567810059
-11.0888528824 37.6672897339 68.1525726318
-11.0681428909 37.6070060730 67.9485626221
-11.0471391678 37.5458106995 67.7443847656
-11.0234699249 37.4762916565 67.5393829346
-10.9946594238 37.3907127380 67.3328475952
-10.9592018127 37.2843780518 67.1243209839
-10.9170598984 37.1571693420 66.9137573242
-10.8694486618 37.0128784180 66.7014694214
-10.8181524277 36.8570861816 66.4879226685
-10.7648220062 36.6949424744 66.2735900879
-10.7107362747 36.5304450989 66.0588302612
-10.6570644379 36.3672485352 65.8439712524
-10.6051683426 36.2095985413 65.6294326782
-10.5565204620 36.0620994568 65.4156494141
-10.5124082565 35.9287681580 65.2030410767
-10.4736909866 35.8122901917 64.9918823242
-10.4406957626 35.7136840820 64.7823028564
-10.4131927490 35.6322326660 64.5742721558
-10.3905305862 35.5658950806 64.3676223755
-10.3718547821 35.5120124817 64.1621170044
-10.3562517166 35.4677276611 63.9574890137
-10.3427724838 35.4300804138 63.7534675598
-10.3305234909 35.3962707520 63.5497779846
-10.3188152313 35.3641510010 63.3462104797
-10.3071784973 35.3322563171 63.1426162720
-10.2952022552 35.2993011475 62.9388656616
-10.2824163437 35.2638206482 62.7348060608
-10.2683439255 35.2243232727 62.5302772522
-10.2526092529 35.1796379089 62.3251457214
-10.2349662781 35.1289939880 62.1193275452
-10.2153120041 35.0720748901 61.9127693176
-10.1937284470 35.0091285706 61.7054901123
-10.1704711914 34.9409599304 61.4975662231
-10.1458997726 34.8686943054 61.2891082764
-10.1204481125 34.7936820984 61.0802536011
-10.0945796967 34.7173690796 60.8711547852
-10.0686111450 34.6407470703 60.6619186401
-10.0426025391 34.5639991760 60.4525642395
-10.0165176392 34.4870185852 60.2430801392
-9.9904117584 34.4099731445 60.0334892273
-9.9642381668 34.3327178955 59.8237648010
-9.9375295639 34.2537956238 59.6137504578
-9.9095306396 34.1708488464 59.4031753540
-9.8797512054 34.0823478699 59.1918525696
-9.8483772278 33.9888687134 58.9798393250
-9.8162260056 33.8929672241 58.7674217224
-9.7844152451 33.7981300354 58.5550041199
-9.7540149689 33.7076988220 58.3429679871
-9.7258796692 33.6243438721 58.1316452026
-9.7006654739 33.5501022339 57.9212799072
-9.6788635254 33.4865226746 57.7120819092
-9.6607418060 33.4344253540 57.5041618347
-9.6463012695 33.3938217163 57.2975463867
-9.6353511810 33.3641166687 57.0921821594
-9.6275682449 33.3442955017 56.8879699707
-9.6224555969 33.3328094482 56.6847381592
-9.6192693710 33.3273391724 56.4822196960
-9.6170101166 33.3247604370 56.2800445557
-9.6145334244 33.3215026855 56.0777740479
-9.6108427048 33.3144569397 55.8750190735
-9.6054830551 33.3022041321 55.6716003418
-9.5987033844 33.2855186462 55.4676017761
-9.5911464691 33.2664108276 55.2632713318
-9.5834312439 33.2468032837 55.0588455200
-9.5761814117 33.2286529541 54.8545684814
-9.5703992844 33.2150840759 54.6508522034
-9.5674114227 33.2102355957 54.4482307434
-9.5682325363 33.2172737122 54.2471313477
-9.5730533600 33.2367935181 54.0476493835
-9.5813159943 33.2670516968 53.8495903015
-9.5920047760 33.3048820496 53.6525497437
-9.6037321091 33.3459510803 53.4559745789
-9.6147975922 33.3849563599 53.2591743469
-9.6233806610 33.4162139893 53.0613822937
-9.6276779175 33.4340934753 52.8618354797
-9.6261072159 33.4336662292 52.6598510742
-9.6179103851 33.4125633240 52.4550666809
-9.6036710739 33.3726081848 52.2476997375
-9.5849170685 33.3185653687 52.0383529663
-9.5631551743 33.2551383972 51.8276519775
-9.5395841599 33.1860733032 51.6160888672
-9.5156602859 33.1159057617 51.4042816162
-9.4933786392 33.0508651733 51.1930847168
-9.4746599197 32.9969406128 50.9833488464
-9.4604511261 32.9570922852 50.7755050659
-9.4503774643 32.9301452637 50.5694160461
-9.4431142807 32.9119644165 50.3645210266
-9.4371318817 32.8977813721 50.1601638794
-9.4313421249 32.8842010498 49.9558639526
-9.4253931046 32.8701248169 49.7514686584
-9.4196538925 32.8567047119 49.5471458435
-9.4150810242 32.8469238281 49.3433227539
-9.4130687714 32.8451271057 49.1406326294
-9.4152898788 32.8565406799 48.9398574829
-9.4234066010 32.8863410950 48.7417716980
-9.4386596680 32.9384078979 48.5469856262
-9.4616308212 33.0145454407 48.3558044434
-9.4924249649 33.1150856018 48.1683197021
-9.5310401917 33.2400207520 47.9845809937
-9.5774297714 33.3891983032 47.8046073914
-9.6310844421 33.5610389709 47.6282119751
-9.6903619766 33.7504119873 47.4546623230
-9.7520809174 33.9473953247 47.2824935913
-9.8121309280 34.1391639709 47.1097717285
-9.8671178818 34.3151397705 46.9348754883
-9.9157238007 34.4712066650 46.7571525574
-9.9586076736 34.6094245911 46.5768699646
-9.9973640442 34.7347602844 46.3947677612
-10.0337362289 34.8526611328 46.2116661072
-10.0692491531 34.9678802490 46.0282859802
-10.1047487259 35.0830497742 45.8450355530
-10.1398363113 35.1969337463 45.6617202759
-10.1727123260 35.3039169312 45.4774551392
-10.2008419037 35.3960952759 45.2909774780
-10.2222766876 35.4673957825 45.1012954712
-10.2368755341 35.5173721313 44.9082984924
-10.2465620041 35.5520286560 44.7129096985
-10.2544364929 35.5810317993 44.5166473389
-10.2633914948 35.6134033203 44.3209571838
-10.2751588821 35.6545486450 44.1267166138
-10.2904415131 35.7066497803 43.9343032837
-10.3098144531 35.7715072632 43.7440261841
-10.3341760635 35.8519248962 43.5563697815
-10.3640232086 35.9494361877 43.3716163635
-10.3983383179 36.0608825684 43.1892776489
-10.4345645905 36.1782836914 43.0080528259
-10.4699602127 36.2930908203 42.8265419006
-10.5031509399 36.4010238647 42.6440162659
-10.5345640182 36.5034065247 42.4606933594
-10.5656595230 36.6047973633 42.2773246765
-10.5979585648 36.7099380493 42.0947074890
-10.6325950623 36.8223648071 41.9134483337
-10.6702671051 36.9442520142 41.7339324951
-10.7111577988 37.0761756897 41.5562744141
-10.7546901703 37.2163238525 41.3801803589
-10.7994079590 37.3601722717 41.2048912048
-10.8434896469 37.5020294189 41.0294342041
-10.8857231140 37.6381187439 40.8531494141
-10.9260597229 37.7682952881 40.6760025024
-10.9651136398 37.8944664001 40.4983100891
-11.0031528473 38.0174713135 40.3202171326
-11.0396900177 38.1357917786 40.1414451599
-11.0740499496 38.2473220825 39.9616203308
-11.1062622070 38.3521499634 39.7807426453
-11.1373653412 38.4535255432 39.5993766785
