-6.5988931656 36.4276008606 52.3329582214
-6.6007723808 36.4570922852 52.1378631592
-6.6018095016 36.4805717468 51.9418754578
-6.6019029617 36.4973182678 51.7448806763
-6.6014137268 36.5099105835 51.5472526550
-6.6012468338 36.5248031616 51.3499832153
-6.6025972366 36.5505142212 51.1543884277
-6.6061735153 36.5920944214 50.9612693787
-6.6113686562 36.6452140808 50.7699851990
-6.6162986755 36.6964416504 50.5784606934
-6.6189131737 36.7311553955 50.3843955994
-6.6182570457 36.7425498962 50.1866874695
-6.6149244308 36.7348632813 49.9859657288
-6.6105308533 36.7196121216 49.7840156555
-6.6066722870 36.7081832886 49.5826377869
-6.6041240692 36.7060928345 49.3827323914
-6.6027836800 36.7126159668 49.1841888428
-6.6021690369 36.7243041992 48.9864768982
-6.6018629074 36.7381973267 48.7891235352
-6.6016416550 36.7526969910 48.5918693542
-6.6013975143 36.7670288086 48.3945922852
-6.6010551453 36.7806625366 48.1972084045
-6.6005635262 36.7932319641 47.9996490479
-6.5999145508 36.8046798706 47.8019065857
-6.5990962982 36.8149223328 47.6039657593
-6.5980110168 36.8232612610 47.4057083130
-6.5965027809 36.8285865784 47.2069435120
-6.5944895744 36.8303146362 47.0075683594
-6.5920891762 36.8292922974 46.8077163696
-6.5896611214 36.8280677795 46.6078147888
-6.5876607895 36.8298950195 46.4084167480
-6.5863437653 36.8365859985 46.2098350525
-6.5855879784 36.8472785950 46.0119285583
-6.5850548744 36.8595504761 45.8142967224
-6.5844702721 36.8714599609 45.6166038513
-6.5837335587 36.8822860718 45.4187202454
-6.5828533173 36.8920936584 45.2206649780
-6.5818996429 36.9013710022 45.0225143433
-6.5810236931 36.9112052917 44.8244552612
-6.5805273056 36.9237442017 44.6268730164
-6.5809140205 36.9425697327 44.4303970337
-6.5828361511 36.9723205566 44.2358627319
-6.5867972374 37.0165824890 44.0439262390
-6.5927023888 37.0746803284 43.8544921875
-6.5996809006 37.1404113770 43.6664810181
-6.6065201759 37.2051467896 43.4783630371
-6.6123547554 37.2627258301 43.2890243530
-6.6168951988 37.3110923767 43.0980834961
-6.6201167107 37.3500671387 42.9054908752
-6.6219830513 37.3794021606 42.7111778259
-6.6225152016 37.3992385864 42.5151596069
-6.6219215393 37.4110641479 42.3176841736
-6.6205372810 37.4172592163 42.1191749573
-6.6186594963 37.4199523926 41.9200134277
-6.6164569855 37.4203338623 41.7204132080
-6.6139535904 37.4185752869 41.5204048157
-6.6110453606 37.4139442444 41.3198432922
-6.6075463295 37.4051055908 41.1184768677
-6.6033110619 37.3910331726 40.9161033630
-6.5984272957 37.3723526001 40.7128295898
-6.5933141708 37.3520469666 40.5092086792
-6.5885739326 37.3343963623 40.3060531616
-6.5847125053 37.3229942322 40.1040496826
-6.5820102692 37.3198356628 39.9035873413
-6.5806155205 37.3259773254 39.7048873901
-6.5806336403 37.3421630859 39.5081100464
-6.5820522308 37.3683052063 39.3132591248
-6.5846285820 37.4026794434 39.1200141907
-6.5879240036 37.4421577454 38.9277954102
-6.5914373398 37.4831809998 38.7359085083
-6.5947136879 37.5225219727 38.5437355042
-6.5974431038 37.5579719543 38.3508338928
-6.5995316505 37.5888595581 38.1570663452
-6.6010041237 37.6153717041 37.9624633789
-6.6017951965 37.6370391846 37.7669219971
-6.6017217636 37.6525611877 37.5701713562
-6.6006841660 37.6612319946 37.3720664978
-6.5988039970 37.6639175415 37.1727638245
-6.5963006020 37.6621742249 36.9725608826
-6.5932874680 37.6568145752 36.7716178894
-6.5897512436 37.6477394104 36.5699005127
-6.5857486725 37.6353492737 36.3674888611
-6.5815782547 37.6217727661 36.1648063660
-6.5776796341 37.6101264954 35.9624862671
-6.5743551254 37.6025657654 35.7609710693
-6.5716662407 37.5995178223 35.5603561401
-6.5695981979 37.6008796692 35.3606300354
-6.5682716370 37.6075134277 35.1619758606
-6.5679931641 37.6215820313 34.9648551941
-6.5691146851 37.6455955505 34.7697982788
-6.5717997551 37.6807136536 34.5770683289
-6.5758519173 37.7255287170 34.3863945007
-6.5807108879 37.7760696411 34.1969642639
-6.5855479240 37.8264541626 34.0075492859
-6.5893707275 37.8696327209 33.8166656494
-6.5912322998 37.8988876343 33.6228828430
-6.5906286240 37.9106407166 33.4254188538
-6.5878238678 37.9067687988 33.2246322632
-6.5837855339 37.8941459656 33.0219612122
-6.5797200203 37.8813285828 32.8192176819
-6.5765657425 37.8749847412 32.6178321838
-6.5747981071 37.8784828186 32.4185409546
-6.5745024681 37.8924217224 32.2214927673
-6.5754256248 37.9150123596 32.0263214111
-6.5769653320 37.9419784546 31.8321132660
-6.5783061981 37.9675292969 31.6376171112
-6.5787363052 37.9866180420 31.4417304993
-6.5779018402 37.9967346191 31.2438888550
-6.5758333206 37.9981002808 31.0441226959
-6.5728516579 37.9929885864 30.8429203033
-6.5694732666 37.9850616455 30.6410751343
-6.5663127899 37.9786834717 30.4395484924
-6.5639572144 37.9780120850 30.2392673492
-6.5628314018 37.9860687256 30.0409145355
-6.5631499290 38.0043678284 29.8448467255
-6.5649847984 38.0334129333 29.6511974335
-6.5683174133 38.0730857849 29.4599571228
-6.5729117393 38.1216964722 29.2707691193
-6.5781083107 38.1745758057 29.0825939178
-6.5829157829 38.2246894836 28.8938446045
-6.5864796638 38.2659797668 28.7031421661
-6.5885128975 38.2964210510 28.5100059509
-6.5892815590 38.3178977966 28.3148441315
-6.5892696381 38.3338356018 28.1184253693
-6.5889244080 38.3474121094 27.9214725494
-6.5886526108 38.3615112305 27.7246417999
-6.5888872147 38.3791961670 27.5286445618
-6.5899868011 38.4030151367 27.3340759277
-6.5919499397 38.4329452515 27.1409473419
-6.5942397118 38.4651908875 26.9483795166
-6.5959777832 38.4935264587 26.7549266815
-6.5963473320 38.5121650696 26.5592231750
-6.5948414803 38.5175132751 26.3604068756
-6.5912952423 38.5084075928 26.1581764221
-6.5859131813 38.4862937927 25.9528484344
-6.5793738365 38.4559898376 25.7455348969
-6.5728168488 38.4255638123 25.5381412506
-6.5675249100 38.4041023254 25.3328285217
-6.5644717216 38.3985023499 25.1312618256
-6.5640411377 38.4114761353 24.9341239929
-6.5660233498 38.4415397644 24.7410907745
-6.5698189735 38.4844436646 24.5511760712
-6.5747361183 38.5352859497 24.3632164001
-6.5802035332 38.5900230408 24.1762523651
-6.5857958794 38.6456375122 23.9895572662
-6.5911955833 38.6998825073 23.8025856018
-6.5961933136 38.7512779236 23.6149749756
-6.6006040573 38.7985153198 23.4263992310
-6.6041560173 38.8396720886 23.2363777161
-6.6066217422 38.8731269836 23.0445003510
-6.6081428528 38.8999023438 22.8510055542
-6.6093406677 38.9243812561 22.6569652557
-6.6110062599 38.9521751404 22.4637603760
-6.6136384010 38.9868011475 22.2722778320
-6.6171655655 39.0277633667 22.0824031830
-6.6210074425 39.0709495544 21.8931236267
-6.6243953705 39.1109237671 21.7030792236
-6.6267533302 39.1436004639 21.5112400055
-6.6279201508 39.1678466797 21.3173084259
-6.6281018257 39.1851272583 21.1216354370
-6.6276473999 39.1979026794 20.9248294830
-6.6268572807 39.2083053589 20.7274246216
-6.6259446144 39.2178421021 20.5297966003
-6.6250915527 39.2277984619 20.3322772980
-6.6245298386 39.2398147583 20.1352806091
-6.6245751381 39.2561264038 19.9393863678
-6.6255483627 39.2789955139 19.7451839447
-6.6275706291 39.3092880249 19.5529079437
-6.6304054260 39.3453216553 19.3621406555
-6.6335549355 39.3835792542 19.1719799042
-6.6365299225 39.4206008911 18.9815330505
-6.6390714645 39.4545555115 18.7903232574
-6.6412463188 39.4859161377 18.5984649658
-6.6433911324 39.5170593262 18.4065780640
-6.6457433701 39.5496673584 18.2150993347
-6.6480021477 39.5816116333 18.0234737396
-6.6494712830 39.6079750061 17.8304080963
-6.6497740746 39.6260910034 17.6351833344
-6.6492233276 39.6381721497 17.4383697510
-6.6484050751 39.6483612061 17.2410583496
-6.6476674080 39.6591224670 17.0438957214
-6.6472196579 39.6719284058 16.8472785950
-6.6475276947 39.6900787354 16.6520919800
-6.6492719650 39.7183799744 16.4596328735
-6.6527805328 39.7591438293 16.2705421448
-6.6576418877 39.8094635010 16.0840625763
-6.6630091667 39.8633499146 15.8985967636
-6.6681861877 39.9158935547 15.7128210068
-6.6727905273 39.9643821716 15.5260019302
-6.6765074730 40.0066032410 15.3375263214
-6.6789855957 40.0400657654 15.1467056274
-6.6800661087 40.0636520386 14.9532194138
-6.6800260544 40.0793266296 14.7575826645
-6.6795587540 40.0919837952 14.5611248016
-6.6795530319 40.1078948975 14.3655633926
-6.6808114052 40.1327400208 14.1724700928
-6.6837882996 40.1697158813 13.9827470779
-6.6884160042 40.2183456421 13.7962837219
-6.6940732002 40.2742424011 13.6118850708
-6.6996345520 40.3294563293 13.4273557663
-6.7036714554 40.3739013672 13.2398805618
-6.7050294876 40.3994331360 13.0471630096
-6.7035875320 40.4051933289 12.8489255905
-6.7004761696 40.3991737366 12.6473731995
-6.6974339485 40.3936424255 12.4459362030
-6.6957893372 40.3979759216 12.2472620010
-6.6958637238 40.4144439697 12.0520076752
-6.6971330643 40.4393463135 11.8591518402
-6.6988625526 40.4674911499 11.6672344208
-6.7006320953 40.4959220886 11.4754199982
-6.7024774551 40.5248832703 11.2837810516
-6.7047181129 40.5566329956 11.0929613113
-6.7076730728 40.5934219360 10.9036121368
-6.7114505768 40.6360092163 10.7159624100
-6.7159156799 40.6834411621 10.5297489166
-6.7207651138 40.7335853577 10.3443651199
-6.7256312370 40.7838439941 10.1590642929
-6.7302494049 40.8323478699 9.9733047485
-6.7345967293 40.8789367676 9.7870397568
-6.7387876511 40.9244194031 9.6004981995
-6.7428202629 40.9687843323 9.4136734009
-6.7465319633 41.0108795166 9.2262306213
-6.7497792244 41.0496940613 9.0378646851
-6.7524914742 41.0847396851 8.8484277725
-6.7545776367 41.1153602600 8.6577215195
-6.7559762001 41.1411361694 8.4656105042
-6.7568945885 41.1635246277 8.2725162506
-6.7578678131 41.1862945557 8.0795507431
-6.7594432831 41.2133140564 7.8878617287
-6.7617497444 41.2454795837 7.6977262497
-6.7643685341 41.2798500061 7.5082740784
-6.7666654587 41.3119430542 7.3181729317
-6.7683005333 41.3393745422 7.1267023087
-6.7694597244 41.3634490967 6.9342451096
-6.7706251144 41.3875617981 6.7418165207
-6.7721371651 41.4141197205 6.5501418114
-6.7739691734 41.4429321289 6.3591685295
-6.7758984566 41.4724273682 6.1684250832
-6.7778000832 41.5017242432 5.9776458740
-6.7796401978 41.5305862427 5.7867579460
-6.7812271118 41.5576629639 5.5953488350
-6.7822160721 41.5805244446 5.4026741982
-6.7825284004 41.5986213684 5.2085566521
-6.7826924324 41.6156692505 5.0141263008
-6.7836146355 41.6380538940 4.8213448524
-6.7859783173 41.6705970764 4.6317052841
-6.7898807526 41.7139739990 4.4454379082
-6.7949662209 41.7656822205 4.2617878914
-6.8007364273 41.8222045898 4.0796837807
-6.8066530228 41.8797569275 3.8979575634
-6.8120875359 41.9339065552 3.7152345181
-6.8163924217 41.9801025391 3.5300853252
-6.8191742897 42.0155639648 3.3416285515
-6.8205628395 42.0412139893 3.1501312256
-6.8212060928 42.0616188049 2.9570064545
-6.8218989372 42.0823669434 2.7640023232
-6.8230700493 42.1064872742 2.5720727444
-6.8245368004 42.1326789856 2.3808155060
-6.8257279396 42.1569366455 2.1889646053
-6.8261647224 42.1758804321 1.9954465628
-6.8257565498 42.1888771057 1.8000506163
-6.8247613907 42.1977386475 1.6033409834
-6.8235607147 42.2051582336 1.4061673880
-6.8224906921 42.2134933472 1.2092829943
-6.8218116760 42.2245864868 1.0132772923
-6.8218002319 42.2403717041 0.8187787533
-6.8228430748 42.2635765076 0.6266715527
-6.8253574371 42.2971343994 0.4379169643
-6.8295154572 42.3422508240 0.2529240549
-6.8350687027 42.3971824646 0.0711504966
4.5101146698 35.8512115479 80.6688690186
4.5097074509 35.8362426758 80.4698562622
4.5081195831 35.8146324158 80.2704010010
4.5068778992 35.7949676514 80.0710220337
4.5066542625 35.7810325623 79.8719711304
4.5070710182 35.7706947327 79.6731109619
4.5074691772 35.7602500916 79.4742202759
4.5077009201 35.7488670349 79.2752456665
4.5082292557 35.7391548157 79.0763549805
4.5097408295 35.7349739075 78.8777999878
4.5128040314 35.7395248413 78.6798019409
4.5176644325 35.7541961670 78.4824829102
4.5240478516 35.7774391174 78.2857513428
4.5311169624 35.8045463562 78.0893020630
4.5378036499 35.8294982910 77.8927230835
4.5433135033 35.8478240967 77.6957015991
4.5473704338 35.8579711914 77.4981079102
4.5500836372 35.8605537415 77.2999877930
4.5517067909 35.8569984436 77.1014099121
4.5525236130 35.8488998413 76.9024887085
4.5528635979 35.8381156921 76.7033462524
4.5531220436 35.8268699646 76.5041503906
4.5537018776 35.8174324036 76.3050537109
4.5549187660 35.8115806580 76.1062011719
4.5569453239 35.8102874756 75.9076766968
4.5598158836 35.8137474060 75.7094955444
4.5634546280 35.8215332031 75.5116348267
4.5676870346 35.8326644897 75.3140335083
4.5722441673 35.8456268311 75.1165771484
4.5767827034 35.8584823608 74.9191131592
4.5809488297 35.8692398071 74.7214889526
4.5844855309 35.8764533997 74.5235824585
4.5873231888 35.8797225952 74.3253555298
4.5895972252 35.8798217773 74.1268539429
4.5915880203 35.8783226013 73.9282150269
4.5936317444 35.8771171570 73.7295837402
4.5960602760 35.8780822754 73.5311203003
4.5991973877 35.8830413818 73.3329772949
4.6033406258 35.8936653137 73.1353073120
4.6086268425 35.9107360840 72.9381866455
4.6148071289 35.9328422546 72.7415008545
4.6211805344 35.9560394287 72.5449295044
4.6269044876 35.9755783081 72.3480529785
4.6314868927 35.9886817932 72.1506271362
4.6350116730 35.9958229065 71.9526748657
4.6379575729 35.9997024536 71.7544326782
4.6408667564 36.0033721924 71.5561676025
4.6441426277 36.0091094971 71.3580703735
4.6480560303 36.0184402466 71.1603012085
4.6528272629 36.0326118469 70.9629669189
4.6586136818 36.0525016785 70.7661666870
4.6653323174 36.0776557922 70.5698699951
4.6725277901 36.1054916382 70.3738403320
4.6795206070 36.1321907043 70.1777267456
4.6857638359 36.1546630859 69.9812316895
4.6910481453 36.1717300415 69.7842407227
4.6954278946 36.1836929321 69.5867614746
4.6990318298 36.1912841797 69.3888702393
4.7019281387 36.1948814392 69.1905899048
4.7040719986 36.1942329407 68.9918823242
4.7053160667 36.1885147095 68.7926635742
4.7055549622 36.1771202087 68.5928573608
4.7049927711 36.1612052917 68.3925781250
4.7043180466 36.1446533203 68.1921997070
4.7044897079 36.1328735352 67.9922714233
4.7061805725 36.1296653748 67.7931823730
4.7093076706 36.1345558167 67.5949020386
4.7130088806 36.1426887512 67.3969497681
4.7161064148 36.1474113464 67.1986465454
4.7177023888 36.1436653137 66.9994506836
4.7175550461 36.1300773621 66.7992095947
4.7161474228 36.1093750000 66.5981826782
4.7145266533 36.0874710083 66.3969955444
4.7139391899 36.0713920593 66.1963806152
4.7153677940 36.0666923523 65.9969558716
4.7192068100 36.0755958557 65.7989807129
4.7251882553 36.0965881348 65.6023178101
4.7325463295 36.1253547668 65.4065170288
4.7404174805 36.1570167542 65.2110595703
4.7482833862 36.1886520386 65.0156250000
4.7560701370 36.2198410034 64.8201675415
4.7637834549 36.2506217957 64.6246871948
4.7711238861 36.2792968750 64.4290008545
4.7775630951 36.3028831482 64.2327575684
4.7827672958 36.3194961548 64.0357437134
4.7868390083 36.3297195435 63.8380088806
4.7901501656 36.3356475830 63.6397781372
4.7930493355 36.3392448425 63.4412727356
4.7957496643 36.3417205811 63.2426261902
4.7984323502 36.3440971375 63.0439605713
4.8013763428 36.3479499817 62.8454589844
4.8049159050 36.3551635742 62.6473426819
4.8091683388 36.3664054871 62.4497032166
4.8138036728 36.3798103333 62.2523231506
4.8181924820 36.3918190002 62.0547790527
4.8218288422 36.3995819092 61.8567237854
4.8245525360 36.4021873474 61.6580429077
4.8263740540 36.3996925354 61.4587287903
4.8272147179 36.3916587830 61.2587165833
4.8269381523 36.3773117065 61.0579071045
4.8256683350 36.3573532104 60.8563690186
4.8240284920 36.3352966309 60.6545295715
4.8229703903 36.3165283203 60.4530639648
4.8233470917 36.3058662415 60.2525787354
4.8256592751 36.3061332703 60.0534477234
4.8300704956 36.3182640076 59.8558120728
4.8364043236 36.3412590027 59.6595649719
4.8440613747 36.3717346191 59.4642944336
4.8520331383 36.4039916992 59.2692832947
4.8590512276 36.4308586121 59.0735969543
4.8638963699 36.4454460144 58.8763351440
4.8660173416 36.4446334839 58.6770629883
4.8661618233 36.4326515198 58.4763031006
4.8662781715 36.4205055237 58.2754974365
4.8684191704 36.4198036194 58.0761833191
4.8733420372 36.4348297119 57.8789520264
4.8798608780 36.4588775635 57.6829376221
4.8856601715 36.4788589478 57.4863891602
4.8890604973 36.4852752686 57.2880210876
4.8901391029 36.4785652161 57.0878639221
4.8902707100 36.4664993286 56.8869514465
4.8908891678 36.4571838379 56.6863861084
4.8927168846 36.4547080994 56.4867401123
4.8956732750 36.4586105347 56.2879600525
4.8989734650 36.4644584656 56.0894470215
4.9013934135 36.4653282166 55.8902282715
4.9020009041 36.4559440613 55.6895599365
4.9010472298 36.4377288818 55.4876174927
4.9000906944 36.4194946289 55.2856369019
4.9010238647 36.4119491577 55.0851402283
4.9048547745 36.4207954407 54.8869667053
4.9112548828 36.4441719055 54.6908798218
4.9189577103 36.4749221802 54.4958724976
4.9263792038 36.5040779114 54.3006629944
4.9320464134 36.5233154297 54.1040306091
4.9350194931 36.5273056030 53.9051818848
4.9353370667 36.5162734985 53.7041168213
4.9341154099 36.4965286255 53.5017395020
4.9330778122 36.4778213501 53.2994804382
4.9338660240 36.4694480896 53.0987167358
4.9375238419 36.4773101807 52.9003601074
4.9441943169 36.5022201538 52.7045555115
4.9530792236 36.5396652222 52.5106582642
4.9628672600 36.5822257996 52.3175735474
4.9724640846 36.6237030029 52.1243629456
4.9814162254 36.6615371704 51.9306373596
4.9896922112 36.6955451965 51.7363624573
4.9971995354 36.7252006531 51.5414428711
5.0036549568 36.7489089966 51.3456344604
5.0088500977 36.7654800415 51.1487312317
5.0128526688 36.7753028870 50.9507865906
5.0158939362 36.7796783447 50.7519874573
5.0181007385 36.7793312073 50.5524406433
5.0193881989 36.7737770081 50.3520584106
5.0196542740 36.7624397278 50.1507377625
5.0191936493 36.7469863892 49.9487342834
5.0189590454 36.7328071594 49.7469062805
5.0202441216 36.7272338867 49.5464210510
5.0239038467 36.7351074219 49.3480834961
5.0298080444 36.7556953430 49.1517944336
5.0370655060 36.7839431763 48.9567642212
5.0447220802 36.8144569397 48.7621269226
5.0522089005 36.8440093994 48.5673561096
5.0592598915 36.8710937500 48.3722038269
5.0656647682 36.8945236206 48.1764717102
5.0712695122 36.9134178162 47.9800071716
5.0761275291 36.9280853271 47.7828521729
5.0804948807 36.9399681091 47.5852355957
5.0846290588 36.9505386353 47.3874015808
5.0886445045 36.9604301453 47.1894569397
5.0925626755 36.9697723389 46.9914169312
5.0964865685 36.9791450500 46.7933807373
5.1007008553 36.9901618958 46.5956268311
5.1055383682 37.0047149658 46.3984718323
5.1110310555 37.0229797363 46.2019615173
5.1166849136 37.0421600342 46.0056152344
5.1217751503 37.0581436157 45.8087310791
5.1259255409 37.0688018799 45.6109313965
5.1292691231 37.0748863220 45.4123382568
5.1319656372 37.0773048401 45.2130966187
5.1337656975 37.0746421814 45.0129585266
5.1342387199 37.0644531250 44.8114814758
5.1333847046 37.0467376709 44.6086502075
5.1319046021 37.0254745483 44.4051551819
5.1308498383 37.0066184998 44.2020454407
5.1310644150 36.9949569702 44.0001831055
5.1329588890 36.9928207397 43.7999954224
5.1366825104 37.0010490417 43.6016540527
5.1422338486 37.0196456909 43.4051780701
5.1492252350 37.0464096069 43.2101898193
5.1566162109 37.0754394531 43.0156364441
5.1630487442 37.0990333557 42.8201141357
5.1677556038 37.1128425598 42.6228218079
5.1711397171 37.1191520691 42.4241561890
5.1743259430 37.1243362427 42.2252807617
5.1781907082 37.1333732605 42.0271072388
5.1829171181 37.1472892761 41.8298416138
5.1883525848 37.1652374268 41.6333274841
5.1945166588 37.1873130798 41.4375915527
5.2016010284 37.2146110535 41.2428512573
5.2095661163 37.2469100952 41.0490722656
5.2178907394 37.2812461853 40.8557052612
5.2258496284 37.3135108948 40.6619796753
5.2330536842 37.3414955139 40.4674682617
5.2396101952 37.3658103943 40.2722778320
5.2456951141 37.3874435425 40.0765953064
5.2510581017 37.4049835205 39.8801422119
5.2550668716 37.4148445129 39.6822204590
5.2572631836 37.4144134521 39.4823112488
5.2578997612 37.4051322937 39.2806739807
5.2579746246 37.3926620483 39.0783920288
5.2587041855 37.3839035034 38.8768043518
5.2609000206 37.3834686279 38.6768188477
5.2648715973 37.3931083679 38.4787979126
5.2707977295 37.4138450623 38.2829627991
5.2787981033 37.4463577271 38.0894699097
5.2884488106 37.4882431030 37.8978576660
5.2985777855 37.5328445435 37.7068290710
5.3079919815 37.5733909607 37.5150375366
5.3164324760 37.6084098816 37.3221740723
5.3245749474 37.6417388916 37.1290092468
5.3330254555 37.6768226624 36.9362220764
5.3415198326 37.7121543884 36.7435188293
5.3492064476 37.7429008484 36.5499191284
5.3554921150 37.7656936646 36.3547286987
5.3604335785 37.7808570862 36.1579933167
5.3644733429 37.7908935547 35.9602203369
5.3680500984 37.7983055115 35.7619056702
5.3714599609 37.8047676086 35.5633926392
5.3748898506 37.8113403320 35.3648986816
5.3784618378 37.8187255859 35.1665649414
5.3822684288 37.8274421692 34.9685058594
5.3864083290 37.8380508423 34.7708396912
5.3909597397 37.8509941101 34.5736618042
5.3958244324 37.8657188416 34.3768615723
5.4006195068 37.8800506592 34.1799850464
5.4048628807 37.8912506104 33.9824485779
5.4083309174 37.8980407715 33.7839851379
5.4111967087 37.9014091492 33.5847854614
5.4138512611 37.9035758972 33.3853263855
5.4166760445 37.9067115784 33.1860580444
5.4199767113 37.9125518799 32.9873657227
5.4240398407 37.9227218628 32.7895927429
5.4291849136 37.9390411377 32.5931510925
5.4357242584 37.9632873535 32.3984260559
5.4437766075 37.9961318970 32.2055892944
5.4530196190 38.0357475281 32.0142478943
5.4626379013 38.0774993896 31.8234157562
5.4716653824 38.1158943176 31.6318893433
5.4795131683 38.1475868225 31.4389266968
5.4862346649 38.1728782654 31.2445812225
5.4922890663 38.1943740845 31.0494194031
5.4979991913 38.2139167786 30.8538398743
5.5031900406 38.2305068970 30.6576156616
5.5073676109 38.2413368225 30.4601173401
5.5103182793 38.2451934814 30.2610607147
5.5125780106 38.2451171875 30.0611171722
5.5152683258 38.2474899292 29.8617076874
5.5193347931 38.2576866150 29.6640529633
5.5248413086 38.2760734558 29.4682464600
5.5310192108 38.2982788086 29.2733173370
5.5369653702 38.3191680908 29.0781040192
5.5422191620 38.3361167908 28.8820075989
5.5468006134 38.3492469788 28.6850452423
5.5509810448 38.3600959778 28.4875640869
5.5551366806 38.3708000183 28.2900524139
5.5597400665 38.3840522766 28.0931262970
5.5653767586 38.4031867981 27.8975639343
5.5726671219 38.4317245483 27.7041931152
5.5819778442 38.4717636108 27.5135154724
5.5930738449 38.5219612122 27.3252468109
5.6051068306 38.5774955750 27.1382751465
5.6170616150 38.6325836182 26.9512577057
5.6281900406 38.6829757690 26.7631950378
5.6380515099 38.7261619568 26.5734863281
5.6464281082 38.7609024048 26.3818244934
5.6534271240 38.7877998352 26.1883354187
5.6595950127 38.8099708557 25.9937477112
5.6657629013 38.8321456909 25.7991733551
5.6726517677 38.8584251404 25.6055965424
5.6804895401 38.8901023865 25.4133319855
5.6888904572 38.9249877930 25.2218666077
5.6971459389 38.9590530396 25.0302333832
5.7046980858 38.9891090393 24.8376655579
5.7113237381 39.0138969421 24.6438484192
5.7168941498 39.0326766968 24.4485893250
5.7210969925 39.0436706543 24.2514476776
5.7235956192 39.0449638367 24.0519390106
5.7245502472 39.0374603271 23.8502674103
5.7249197960 39.0266265869 23.6477565765
5.7261404991 39.0206375122 23.4464092255
5.7293987274 39.0262489319 23.2479000092
5.7350029945 39.0452232361 23.0526905060
5.7422628403 39.0736274719 22.8598289490
5.7499971390 39.1047325134 22.6676635742
5.7572813034 39.1332778931 22.4748859406
5.7638101578 39.1575202942 22.2810573578
5.7697196007 39.1782341003 22.0863628387
5.7752785683 39.1969566345 21.8911819458
5.7808179855 39.2155647278 21.6959838867
5.7868251801 39.2368431091 21.5014686584
5.7939381599 39.2644195557 21.3085632324
5.8026647568 39.3011894226 21.1180114746
5.8130064011 39.3471641541 20.9298362732
5.8243417740 39.3988037109 20.7431526184
5.8357286453 39.4507408142 20.5565967560
5.8464035988 39.4986267090 20.3690586090
5.8560924530 39.5408935547 20.1801223755
5.8649187088 39.5782470703 19.9899654388
5.8731336594 39.6121215820 19.7989425659
5.8810176849 39.6441116333 19.6074638367
5.8889231682 39.6762237549 19.4160442352
5.8971247673 39.7100257874 19.2250919342
5.9055237770 39.7449531555 19.0344657898
5.9136371613 39.7782592773 18.8434448242
5.9209437370 39.8069686890 18.6512508392
5.9271793365 39.8295669556 18.4574756622
5.9323410988 39.8460502625 18.2621040344
5.9365739822 39.8572387695 18.0653419495
5.9401168823 39.8644905090 17.8675403595
5.9433016777 39.8697013855 17.6691913605
5.9465608597 39.8753395081 17.4709510803
5.9504466057 39.8845443726 17.2736549377
5.9556379318 39.9011955261 17.0783481598
5.9628028870 39.9291038513 16.8860664368
5.9722132683 39.9698181152 16.6972484589
5.9833493233 40.0203742981 16.5111179352
5.9949398041 40.0735321045 16.3257427216
6.0055842400 40.1212921143 16.1389617920
6.0144662857 40.1590042114 15.9495067596
6.0216369629 40.1869544983 15.7574329376
6.0277895927 40.2091026306 15.5637998581
6.0337595940 40.2302093506 15.3698978424
6.0399913788 40.2528114319 15.1764202118
6.0462832451 40.2757530212 14.9830513000
6.0520434380 40.2956657410 14.7888660431
6.0569009781 40.3104286194 14.5932731628
6.0611290932 40.3216018677 14.3966932297
6.0654959679 40.3335647583 14.2003335953
6.0707244873 40.3504447937 14.0053424835
6.0771517754 40.3741683960 13.8122634888
6.0849075317 40.4054718018 13.6213178635
6.0942106247 40.4456062317 13.4328680038
6.1052379608 40.4955863953 13.2472171783
6.1177091599 40.5538101196 13.0639333725
6.1307902336 40.6155166626 12.8816928864
6.1434888840 40.6750488281 12.6989049911
6.1550559998 40.7281227112 12.5143547058
6.1650319099 40.7721176147 12.3272867203
6.1731925011 40.8057518005 12.1373167038
6.1796426773 40.8296279907 11.9445981979
6.1848978996 40.8466796875 11.7499494553
6.1897401810 40.8613739014 11.5546350479
6.1949772835 40.8783226013 11.3599729538
6.2012724876 40.9013175964 11.1670570374
6.2089943886 40.9324569702 10.9765033722
6.2180352211 40.9711265564 10.7881526947
6.2277798653 41.0138206482 10.6010026932
6.2374439240 41.0560569763 10.4137620926
6.2465906143 41.0953445435 10.2257051468
6.2553334236 41.1323242188 10.0370149612
6.2640414238 41.1691055298 9.8483009338
6.2729544640 41.2070655823 9.6599664688
6.2821359634 41.2465591431 9.4721164703
6.2916049957 41.2876968384 9.2847900391
6.3012537956 41.3298606873 9.0978050232
6.3106150627 41.3703918457 8.9103794098
6.3189544678 41.4050827026 8.7212657928
6.3257255554 41.4308166504 8.5295276642
6.3309044838 41.4474563599 8.3351058960
6.3348922729 41.4572906494 8.1386671066
6.3382172585 41.4633369446 7.9410977364
6.3413691521 41.4683914185 7.7432260513
6.3448243141 41.4751815796 7.5458674431
6.3491058350 41.4866981506 7.3499236107
6.3547034264 41.5057258606 7.1562442780
6.3618445396 41.5335845947 6.9652395248
6.3703689575 41.5693473816 6.7766485214
6.3799247742 41.6110076904 6.5898771286
6.3902974129 41.6573371887 6.4045658112
6.4014201164 41.7079582214 6.2206063271
6.4130511284 41.7614898682 6.0375876427
6.4246115685 41.8146209717 5.8545026779
6.4354643822 41.8637123108 5.6702361107
6.4454092979 41.9076118469 5.4844274521
6.4549303055 41.9490928650 5.2979178429
6.4649090767 41.9931945801 5.1122570038
6.4758987427 42.0430793762 4.9284262657
6.4875030518 42.0964813232 4.7457365990
6.4984765053 42.1462783813 4.5619840622
6.5075349808 42.1851310730 4.3748817444
6.5141716003 42.2101364136 4.1835031509
6.5188236237 42.2237892151 3.9886009693
6.5224895477 42.2318038940 3.7919399738
6.5262737274 42.2404975891 3.5954883099
6.5311069489 42.2551879883 3.4009184837
6.5375418663 42.2790412903 3.2092385292
6.5455346107 42.3118057251 3.0203866959
6.5543899536 42.3495101929 2.8331246376
6.5631155968 42.3864746094 2.6456644535
6.5710215569 42.4187469482 2.4567515850
6.5780978203 42.4462776184 2.2663576603
6.5849304199 42.4724159241 2.0755438805
6.5923047066 42.5016555786 1.8857406378
6.6007618904 42.5370941162 1.6979451180
6.6103668213 42.5790977478 1.5122878551
6.6207704544 42.6256790161 1.3281422853
6.6314015388 42.6735610962 1.1444635391
6.6416263580 42.7191238403 0.9600850344
6.6510233879 42.7599525452 0.7742230892
6.6598134041 42.7973060608 0.5872761607
6.6690626144 42.8372955322 0.4012185335
6.6803145409 42.8887481689 0.2189276665
6.6948337555 42.9589042664 0.0427844450
15.3978719711 32.7588119507 80.6726303101
15.3992509842 32.7566833496 80.4744720459
15.4009351730 32.7551307678 80.2763290405
15.4045038223 32.7571105957 80.0784225464
15.4121637344 32.7667579651 79.8810424805
15.4247665405 32.7856712341 79.6843261719
15.4401950836 32.8098869324 79.4879913330
15.4541254044 32.8312911987 79.2914886475
15.4625072479 32.8422927856 79.0942382813
15.4636430740 32.8397102356 78.8959960938
15.4589424133 32.8261871338 78.6969223022
15.4524593353 32.8093185425 78.4975662231
15.4491405487 32.7983779907 78.2986221313
15.4522256851 32.7994499207 78.1005706787
15.4616260529 32.8123626709 77.9034194946
15.4746770859 32.8321189880 77.7068099976
15.4883346558 32.8530158997 77.5103073120
15.5007009506 32.8714866638 77.3136215210
15.5110692978 32.8862152100 77.1166610718
15.5192718506 32.8968811035 76.9193725586
15.5251483917 32.9031867981 76.7217407227
15.5284156799 32.9045982361 76.5236968994
15.5288915634 32.9007720947 76.3252182007
15.5268287659 32.8921890259 76.1263122559
15.5231094360 32.8804969788 75.9271316528
15.5191717148 32.8683929443 75.7278823853
15.5166816711 32.8590049744 75.5288391113
15.5171003342 32.8550720215 75.3302383423
15.5213422775 32.8583106995 75.1322479248
15.5296115875 32.8690986633 74.9349060059
15.5411777496 32.8860740662 74.7381210327
15.5541219711 32.9056320190 74.5415725708
15.5656833649 32.9225959778 74.3448104858
15.5736970901 32.9329071045 74.1474609375
15.5781202316 32.9364852905 73.9494934082
15.5808877945 32.9369583130 73.7512359619
15.5838985443 32.9378814697 73.5530090332
15.5870656967 32.9391021729 73.3547973633
15.5883712769 32.9368286133 73.1562423706
15.5858383179 32.9273567200 72.9569931030
15.5794458389 32.9106445313 72.7570343018
15.5710659027 32.8902015686 72.5566711426
15.5628166199 32.8700027466 72.3562927246
15.5557975769 32.8521118164 72.1560974121
15.5501718521 32.8368301392 71.9561233521
15.5458688736 32.8240356445 71.7563629150
15.5429544449 32.8138427734 71.5568313599
15.5415639877 32.8065071106 71.3575592041
15.5417366028 32.8021011353 71.1585617065
15.5434007645 32.8004989624 70.9598388672
15.5465364456 32.8016510010 70.7613754272
15.5514144897 32.8060760498 70.5632400513
15.5586595535 32.8149414063 70.3655624390
15.5688476563 32.8293266296 70.1684646606
15.5817193985 32.8487510681 69.9719085693
15.5957908630 32.8704223633 69.7756042480
15.6089992523 32.8904800415 69.5791397095
15.6199264526 32.9062538147 69.3822402954
15.6284151077 32.9174537659 69.1848526001
15.6351823807 32.9254226685 68.9871139526
15.6410951614 32.9317893982 68.7891998291
15.6467342377 32.9376411438 68.5912322998
15.6523075104 32.9433708191 68.3932418823
15.6576967239 32.9487533569 68.1952056885
15.6625404358 32.9531135559 67.9970550537
15.6663780212 32.9555816650 67.7986755371
15.6687936783 32.9553833008 67.5999908447
15.6694965363 32.9519729614 67.4009246826
15.6682910919 32.9449768066 67.2014312744
15.6650495529 32.9341621399 67.0014648438
15.6600589752 32.9200630188 66.8010940552
15.6548147202 32.9054870605 66.6006317139
15.6525430679 32.8964881897 66.4007949829
15.6572942734 32.9006690979 66.2024993896
15.6716384888 32.9228591919 66.0063552856
15.6945543289 32.9611358643 65.8121719360
15.7213134766 33.0066299438 65.6188964844
15.7455921173 33.0474662781 65.4251174927
15.7623815536 33.0742492676 65.2296524048
15.7698650360 33.0835609436 65.0320663452
15.7692441940 33.0776596069 64.8325881958
15.7631425858 33.0614738464 64.6318130493
15.7542667389 33.0400733948 64.4303512573
15.7450437546 33.0180244446 64.2287597656
15.7374858856 32.9990997314 64.0275268555
15.7328128815 32.9855918884 63.8269386292
15.7313528061 32.9781112671 63.6270942688
15.7329769135 32.9764213562 63.4279747009
15.7374534607 32.9800872803 63.2295341492
15.7442808151 32.9881668091 63.0316619873
15.7524471283 32.9987602234 62.8341217041
15.7610149384 33.0101051331 62.6366806030
15.7702951431 33.0227890015 62.4394226074
15.7818326950 33.0397109985 62.2427330017
15.7963562012 33.0622406006 62.0468063354
15.8119602203 33.0867996216 61.8511734009
15.8252639771 33.1070404053 61.6549797058
15.8344860077 33.1196136475 61.4577598572
15.8407173157 33.1265754700 61.2597770691
15.8462133408 33.1321525574 61.0616035461
15.8523035049 33.1388473511 60.8635787964
15.8592243195 33.1471023560 60.6657676697
15.8671283722 33.1572036743 60.4682121277
15.8763933182 33.1698608398 60.2710189819
15.8869028091 33.1848564148 60.0741615295
15.8974742889 33.1999664307 59.8773307800
15.9063167572 33.2118301392 59.6800460815
15.9120178223 33.2177963257 59.4819221497
15.9139509201 33.2166824341 59.2827758789
15.9120855331 33.2084388733 59.0825843811
15.9070158005 33.1941719055 58.8814964294
15.9002065659 33.1766395569 58.6798973083
15.8936491013 33.1595802307 58.4783287048
15.8888731003 33.1458663940 58.2772178650
15.8862466812 33.1361885071 58.0766754150
15.8850231171 33.1291427612 57.8764953613
15.8836030960 33.1217269897 57.6762390137
15.8798255920 33.1098861694 57.4752960205
15.8718929291 33.0902366638 57.2731437683
15.8601427078 33.0634155273 57.0698661804
15.8480873108 33.0360221863 56.8664474487
15.8408308029 33.0176391602 56.6643562317
15.8416147232 33.0143623352 56.4645538330
15.8498067856 33.0250015259 56.2668838501
15.8621215820 33.0433807373 56.0704193115
15.8751993179 33.0631980896 55.8741950989
15.8870525360 33.0807151794 55.6776237488
15.8973131180 33.0952377319 55.4805984497
15.9073915482 33.1094207764 55.2835235596
15.9200849533 33.1285171509 55.0872383118
15.9377107620 33.1568794250 54.8924446106
15.9599256516 33.1938629150 54.6990623474
15.9834890366 33.2333831787 54.5061302185
16.0043678284 33.2678604126 54.3124275208
16.0200729370 33.2926139832 54.1171798706
16.0303287506 33.3071365356 53.9202880859
16.0362243652 33.3134613037 53.7220611572
16.0391540527 33.3142166138 53.5229148865
16.0403308868 33.3116760254 53.3232116699
16.0406856537 33.3075866699 53.1232376099
16.0408363342 33.3031196594 52.9231834412
16.0410308838 33.2987327576 52.7231216431
16.0410938263 33.2940940857 52.5229988098
16.0404930115 33.2882156372 52.3226509094
16.0387020111 33.2800903320 52.1218986511
16.0357761383 33.2698364258 51.9207611084
16.0326786041 33.2592620850 51.7195396423
16.0308132172 33.2510032654 51.5186920166
16.0312175751 33.2470054626 51.3185539246
16.0343379974 33.2481117249 51.1192817688
16.0405597687 33.2550468445 50.9210090637
16.0505542755 33.2690734863 50.7239761353
16.0648345947 33.2911529541 50.5283584595
16.0829334259 33.3204116821 50.3340263367
16.1031398773 33.3536338806 50.1404228210
16.1231098175 33.3864135742 49.9467773438
16.1409397125 33.4151687622 49.7524490356
16.1559257507 33.4385757446 49.5571937561
16.1685714722 33.4575920105 49.3611717224
16.1800498962 33.4744071960 49.1647682190
16.1916656494 33.4914855957 48.9684219360
16.2045154572 33.5108795166 48.7725105286
16.2191429138 33.5336189270 48.5772247314
16.2354068756 33.5594367981 48.3825225830
16.2528152466 33.5874061584 48.1882400513
16.2708339691 33.6165199280 47.9941978455
16.2886981964 33.6453437805 47.8001289368
16.3052158356 33.6716384888 47.6056213379
16.3191242218 33.6930274963 47.4102210999
16.3295402527 33.7078552246 47.2136116028
16.3360500336 33.7153358459 47.0156288147
16.3386249542 33.7154197693 46.8162460327
16.3376808167 33.7088890076 46.6155967712
16.3340377808 33.6972808838 46.4139595032
16.3286113739 33.6823158264 46.2116546631
16.3221912384 33.6654891968 46.0089607239
16.3156757355 33.6484794617 45.8061904907
16.3103904724 33.6337814331 45.6038322449
16.3078594208 33.6242561340 45.4024467468
16.3091812134 33.6219825745 45.2024421692
16.3148078918 33.6277999878 45.0040054321
16.3246936798 33.6416282654 44.8071327209
16.3382282257 33.6623153687 44.6116180420
16.3540229797 33.6872520447 44.4169578552
16.3703804016 33.7132492065 44.2225303650
16.3863029480 33.7384338379 44.0279693604
16.4019718170 33.7631340027 43.8333358765
16.4179744720 33.7884674072 43.6388511658
16.4339580536 33.8137626648 43.4443817139
16.4478569031 33.8351364136 43.2491455078
16.4566421509 33.8468971252 43.0519828796
16.4581966400 33.8450584412 42.8520622253
16.4529190063 33.8303718567 42.6495056152
16.4438095093 33.8084754944 42.4454421997
16.4350395203 33.7872161865 42.2414627075
16.4301376343 33.7732315063 42.0389442444
16.4308376312 33.7697830200 41.8385696411
16.4367256165 33.7760925293 41.6402015686
16.4455337524 33.7878913879 41.4429740906
16.4540653229 33.7991752625 41.2456436157
16.4595108032 33.8046493530 41.0470962524
16.4603328705 33.8014297485 40.8467216492
16.4565505981 33.7895469666 40.6444969177
16.4498004913 33.7720832825 40.4410629272
16.4431972504 33.7548904419 40.2376518250
16.4405078888 33.7450637817 40.0357704163
16.4447994232 33.7483673096 39.8366737366
16.4573917389 33.7672843933 39.6409187317
16.4776592255 33.8006439209 39.4482879639
16.5034675598 33.8444252014 39.2579460144
16.5319271088 33.8931961060 39.0687370300
16.5603275299 33.9418563843 38.8795623779
16.5868129730 33.9869194031 38.6896591187
16.6103324890 34.0264015198 38.4985847473
16.6299877167 34.0586128235 38.3059577942
16.6447753906 34.0816650391 38.1113510132
16.6541252136 34.0944900513 37.9145011902
16.6585731506 34.0980911255 37.7156105042
16.6599197388 34.0958557129 37.5154151917
16.6608810425 34.0928955078 37.3150405884
16.6641597748 34.0942993164 37.1156311035
16.6710224152 34.1024398804 36.9177207947
16.6803398132 34.1152038574 36.7208557129
16.6890392303 34.1268043518 36.5237312317
16.6938171387 34.1310234070 36.3249359131
16.6931419373 34.1249847412 36.1238021851
16.6883296967 34.1111602783 35.9208679199
16.6828460693 34.0960655212 35.7176170349
16.6803054810 34.0865135193 35.5155982971
16.6829757690 34.0867691040 35.3158187866
16.6918792725 34.0987510681 35.1187324524
16.7075004578 34.1233749390 34.9245872498
16.7294979095 34.1600036621 34.7332534790
16.7556419373 34.2044334412 34.5437774658
16.7820606232 34.2493858337 34.3544807434
16.8054752350 34.2886772156 34.1639060974
16.8252773285 34.3211784363 33.9717750549
16.8432426453 34.3502235413 33.7788619995
16.8611907959 34.3792343140 33.5859718323
16.8788776398 34.4077529907 33.3929939270
16.8939037323 34.4312629700 33.1988525391
16.9034557343 34.4444732666 33.0022697449
16.9062042236 34.4448738098 32.8026199341
16.9027252197 34.4335517883 32.6001434326
16.8947467804 34.4137611389 32.3955955505
16.8846225739 34.3899345398 32.1900291443
16.8754901886 34.3679656982 31.9848690033
16.8709087372 34.3545684814 31.7817497253
16.8734264374 34.3545341492 31.5818595886
16.8831367493 34.3680343628 31.3852710724
16.8977756500 34.3908195496 31.1909694672
16.9145221710 34.4175720215 30.9976634979
16.9321002960 34.4458923340 30.8047714233
16.9515190125 34.4776763916 30.6127643585
16.9747104645 34.5165634155 30.4225559235
17.0020885468 34.5633354187 30.2343559265
17.0311737061 34.6133193970 30.0470123291
17.0577468872 34.6585807800 29.8585433960
17.0785465240 34.6929702759 29.6673984528
17.0929450989 34.7153053284 29.4732532501
17.1026535034 34.7288131714 29.2768974304
17.1104393005 34.7387008667 29.0796298981
17.1190128326 34.7500686646 28.8827419281
17.1301937103 34.7663497925 28.6871109009
17.1442050934 34.7879600525 28.4928512573
17.1595439911 34.8120689392 28.2992515564
17.1740417480 34.8345947266 28.1052684784
17.1864910126 34.8532676697 27.9103107452
17.1975402832 34.8693008423 27.7146854401
17.2092189789 34.8865203857 27.5193805695
17.2235984802 34.9088249207 27.3254070282
17.2414550781 34.9376831055 27.1331615448
17.2619171143 34.9714431763 26.9422264099
17.2834148407 35.0071563721 26.7518405914
17.3049335480 35.0429115295 26.5615043640
17.3261051178 35.0780143738 26.3710346222
17.3464355469 35.1115303040 26.1801853180
17.3650932312 35.1418991089 25.9885368347
17.3816509247 35.1683120728 25.7958698273
17.3966350555 35.1917610168 25.6024398804
17.4111328125 35.2142944336 25.4087867737
17.4257736206 35.2370986938 25.2152252197
17.4401912689 35.2594871521 25.0215740204
17.4536190033 35.2800064087 24.8274383545
17.4660129547 35.2985801697 24.6327953339
17.4783191681 35.3169898987 24.4381217957
17.4914188385 35.3368911743 24.2438678741
17.5050659180 35.3578262329 24.0499114990
17.5181369781 35.3776817322 23.8556785583
17.5298728943 35.3950157166 23.6607723236
17.5406322479 35.4105110168 23.4653739929
17.5515861511 35.4263763428 23.2700881958
17.5640068054 35.4450035095 23.0755748749
17.5787906647 35.4680824280 22.8823051453
17.5961093903 35.4959373474 22.6903800964
17.6149330139 35.5266304016 22.4992733002
17.6328353882 35.5555877686 22.3077144623
17.6466884613 35.5769119263 22.1140518188
17.6540851593 35.5860786438 21.9170036316
17.6545581818 35.5821990967 21.7162952423
17.6500358582 35.5689010620 21.5129165649
17.6443805695 35.5534744263 21.3089065552
17.6418113708 35.5438575745 21.1065044403
17.6447238922 35.5445709229 20.9070072174
17.6526947021 35.5548133850 20.7102088928
17.6636085510 35.5706024170 20.5149936676
17.6757411957 35.5886878967 20.3204460144
17.6889667511 35.6088371277 20.1265010834
17.7045650482 35.6334571838 19.9338588715
17.7242336273 35.6657447815 19.7434482574
17.7489051819 35.7074623108 19.5557937622
17.7779064178 35.7573432922 19.3705482483
17.8090591431 35.8112792969 19.1865406036
17.8397178650 35.8642845154 19.0023269653
17.8679485321 35.9127159119 18.8168430328
17.8928718567 35.9549179077 18.6295967102
17.9143009186 35.9905319214 18.4404697418
17.9325199127 36.0200958252 18.2496032715
17.9485416412 36.0455207825 18.0575504303
17.9640388489 36.0699615479 17.8652286530
17.9804553986 36.0961303711 17.6734447479
17.9979019165 36.1242446899 17.4822597504
18.0149116516 36.1515312195 17.2908592224
18.0294666290 36.1741943359 17.0981082916
18.0404872894 36.1901969910 16.9033870697
18.0484867096 36.2005043030 16.7069702148
18.0551242828 36.2082405090 16.5097846985
18.0625152588 36.2174034119 16.3130264282
18.0729198456 36.2322425842 16.1179847717
18.0885219574 36.2568817139 15.9259128571
18.1108512878 36.2942047119 15.7377080917
18.1400432587 36.3444633484 15.5534772873
18.1745071411 36.4046669006 15.3723344803
18.2112445831 36.4691543579 15.1925735474
18.2465820313 36.5310058594 15.0120887756
18.2771148682 36.5838012695 14.8289012909
18.3006381989 36.6233825684 14.6417160034
18.3167591095 36.6490097046 14.4502754211
18.3267612457 36.6630973816 14.2552957535
18.3328189850 36.6697502136 14.0580234528
18.3371505737 36.6731491089 13.8597364426
18.3415374756 36.6766510010 13.6614751816
18.3472785950 36.6827049255 13.4640026093
18.3553581238 36.6931686401 13.2679033279
18.3665809631 36.7095603943 13.0736656189
18.3814182281 36.7327690125 12.8815784454
18.3995399475 36.7621688843 12.6914606094
18.4196414948 36.7953033447 12.5025510788
18.4400844574 36.8290863037 12.3138818741
18.4597110748 36.8613281250 12.1247615814
18.4776840210 36.8904495239 11.9346847534
18.4927577972 36.9141082764 11.7428979874
18.5035724640 36.9297332764 11.5485715866
18.5101432800 36.9373550415 11.3516960144
18.5147056580 36.9411888123 11.1536064148
18.5204868317 36.9473228455 10.9562473297
18.5294151306 36.9593925476 10.7607955933
18.5411148071 36.9766845703 10.5670356750
18.5540733337 36.9963531494 10.3740558624
18.5676040649 37.0171051025 10.1814422607
18.5825481415 37.0405197144 9.9897117615
18.6003112793 37.0692558289 9.7997360229
18.6216831207 37.1047973633 9.6120090485
18.6466369629 37.1470947266 9.4265308380
18.6748409271 37.1955223083 9.2431097031
18.7058582306 37.2492637634 9.0614910126
18.7386569977 37.3063659668 8.8810443878
18.7708148956 37.3622589111 8.7002696991
18.7985763550 37.4098587036 8.5168218613
18.8186683655 37.4429969788 8.3286399841
18.8306617737 37.4608535767 8.1354188919
18.8372612000 37.4685363770 7.9388270378
18.8422851563 37.4732475281 7.7412428856
18.8487224579 37.4806213379 7.5445427895
18.8584537506 37.4942131042 7.3499245644
18.8728122711 37.5165328979 7.1582427025
18.8926277161 37.5491485596 6.9700436592
18.9177837372 37.5918464661 6.7852783203
18.9470119476 37.6422233582 6.6031570435
18.9781684875 37.6962394714 6.4223289490
19.0087318420 37.7491416931 6.2411880493
19.0363082886 37.7964096069 6.0581955910
19.0592956543 37.8350181580 5.8723096848
19.0775165558 37.8646316528 5.6833968163
19.0922794342 37.8877220154 5.4922819138
19.1057167053 37.9083137512 5.3003320694
19.1198043823 37.9301338196 5.1088209152
19.1354274750 37.9548492432 4.9183259010
19.1520195007 37.9813919067 4.7284860611
19.1682720184 38.0073013306 4.5384526253
19.1835365295 38.0313415527 4.3477964401
19.1986484528 38.0550918579 4.1570644379
19.2154312134 38.0820007324 3.9674513340
19.2353305817 38.1147918701 3.7799172401
19.2582874298 38.1533508301 3.5944335461
19.2826290131 38.1945266724 3.4099094868
19.3061008453 38.2340621948 3.2248568535
19.3273525238 38.2694053650 3.0383768082
19.3468437195 38.3014335632 2.8507657051
19.3663978577 38.3335762024 2.6632318497
19.3877506256 38.3691139221 2.4769320488
19.4114036560 38.4089965820 2.2922117710
19.4368076324 38.4521865845 2.1087110043
19.4632663727 38.4973678589 1.9259701967
19.4903297424 38.5436897278 1.7436902523
19.5175075531 38.5902328491 1.5615428686
19.5441360474 38.6357345581 1.3790792227
19.5695590973 38.6789627075 1.1958535910
19.5931911469 38.7188148499 1.0114635229
19.6144428253 38.7541732788 0.8254998922
19.6327476501 38.7839698792 0.6375678182
19.6477794647 38.8075904846 0.4474325478
19.6600570679 38.8260040283 0.2554330528
19.6719017029 38.8436088562 0.0631525591
25.0264472961 26.6438026428 80.4959716797
25.0293121338 26.6434879303 80.2982101440
25.0336608887 26.6445999146 80.1005554199
25.0382385254 26.6459350586 79.9029159546
25.0413112640 26.6458187103 79.7051391602
25.0420761108 26.6434803009 79.5071411133
25.0413913727 26.6397438049 79.3090057373
25.0406703949 26.6359729767 79.1108551025
25.0404205322 26.6326560974 78.9127197266
25.0403423309 26.6295051575 78.7145919800
25.0404586792 26.6265392303 78.5164566040
25.0414085388 26.6243762970 78.3183898926
25.0435810089 26.6233921051 78.1204223633
25.0465393066 26.6231651306 77.9225158691
25.0496597290 26.6230907440 77.7246093750
25.0528068542 26.6230449677 77.5266952515
25.0559997559 26.6230430603 77.3287811279
25.0588531494 26.6227130890 77.1308212280
25.0609207153 26.6216259003 76.9327697754
25.0625381470 26.6201057434 76.7346572876
25.0651931763 26.6195850372 76.5366439819
25.0708007813 26.6219062805 76.3389129639
25.0801544189 26.6278381348 76.1415634155
25.0918712616 26.6360473633 75.9444503784
25.1031990051 26.6438789368 75.7473068237
25.1120395660 26.6493167877 75.5499038696
25.1181354523 26.6521110535 75.3522109985
25.1226387024 26.6533679962 75.1543426514
25.1271114349 26.6545963287 74.9564590454
25.1329708099 26.6571617126 74.7587203979
25.1413803101 26.6621837616 74.5612564087
25.1532058716 26.6704978943 74.3641586304
25.1686134338 26.6822624207 74.1674728394
25.1861877441 26.6961135864 73.9710388184
25.2024650574 26.7087173462 73.7744674683
25.2130146027 26.7158012390 73.5772552490
25.2148075104 26.7144489288 73.3790512085
25.2081069946 26.7049102783 73.1798477173
25.1962909698 26.6904411316 72.9800262451
25.1837024689 26.6752281189 72.7800750732
25.1732406616 26.6620655060 72.5803375244
25.1655559540 26.6515769958 72.3808975220
25.1600170135 26.6431560516 72.1816787720
25.1560344696 26.6362342834 71.9826278687
25.1535129547 26.6307201385 71.7837295532
25.1524257660 26.6265888214 71.5849838257
25.1523361206 26.6234169006 71.3863449097
25.1526813507 26.6206665039 71.1877441406
25.1538219452 26.6186790466 70.9892272949
25.1573829651 26.6190261841 70.7910003662
25.1647987366 26.6230869293 70.5932464600
25.1753787994 26.6301975250 70.3958969116
25.1864738464 26.6378059387 70.1986160278
25.1957492828 26.6436595917 70.0010986328
25.2030639648 26.6476230621 69.8033294678
25.2103557587 26.6515655518 69.6055603027
25.2201004028 26.6578731537 69.4081039429
25.2335414886 26.6677417755 69.2111358643
