5.4073643684 37.7633094788 31.7548637390
5.4125790596 37.7800216675 31.5583896637
5.4189486504 37.8032951355 31.3633613586
5.4268951416 37.8355331421 31.1703262329
5.4369554520 37.8797950745 30.9799709320
5.4493546486 37.9373550415 30.7926063538
5.4633660316 38.0040817261 30.6073360443
5.4770951271 38.0692138672 30.4217853546
5.4882426262 38.1196670532 30.2330245972
5.4954833984 38.1479110718 30.0393428802
5.4992837906 38.1565895081 29.8412895203
5.5013852119 38.1556091309 29.6410560608
5.5035271645 38.1548576355 29.4408626556
5.5066061020 38.1594352722 29.2418594360
5.5107474327 38.1700515747 29.0442218781
5.5158400536 38.1860809326 28.8478202820
5.5219516754 38.2079048157 28.6527481079
5.5293688774 38.2371559143 28.4593925476
5.5383281708 38.2751846313 28.2680797577
5.5486545563 38.3209915161 28.0785942078
5.5596098900 38.3703765869 27.8899822235
5.5701065063 38.4171600342 27.7008171082
5.5791912079 38.4559097290 27.5098323822
5.5864872932 38.4844856262 27.3165149689
5.5923075676 38.5046653748 27.1212577820
5.5973820686 38.5206069946 26.9250202179
5.6024117470 38.5362854004 26.7287292480
5.6076564789 38.5531959534 26.5327339172
5.6127805710 38.5694160461 26.3365840912
5.6170678139 38.5808753967 26.1393165588
5.6198558807 38.5838050842 25.9400215149
5.6208906174 38.5767517090 25.7383403778
5.6204843521 38.5614967346 25.5346775055
5.6194705963 38.5427780151 25.3301525116
5.6188988686 38.5265769958 25.1261940002
5.6196084023 38.5176658630 24.9239578247
5.6220388412 38.5185508728 24.7240600586
5.6264271736 38.5305786133 24.5268497467
5.6330819130 38.5555114746 24.3327732086
5.6423058510 38.5950737000 24.1422748566
5.6539392471 38.6483573914 23.9551620483
5.6670579910 38.7101020813 23.7701778412
5.6802954674 38.7725257874 23.5854244232
5.6924991608 38.8290710449 23.3992919922
5.7030882835 38.8764190674 23.2109527588
5.7120270729 38.9143753052 23.0203399658
5.7197337151 38.9453201294 22.8280239105
5.7269639969 38.9735488892 22.6350593567
5.7345452309 39.0037803650 22.4426174164
5.7430310249 39.0391654968 22.2514877319
5.7524356842 39.0797843933 22.0617027283
5.7622194290 39.1225662231 21.8725013733
5.7715773582 39.1629257202 21.6827297211
5.7797622681 39.1966056824 21.4913120270
5.7861275673 39.2199211121 21.2973022461
5.7900724411 39.2294464111 21.0998096466
5.7913374901 39.2237052917 20.8984336853
5.7904381752 39.2056274414 20.6938915253
5.7885904312 39.1821479797 20.4879302979
5.7870669365 39.1605072021 20.2823982239
5.7866482735 39.1451644897 20.0784416199
5.7875733376 39.1374740601 19.8764228821
5.7898097038 39.1372566223 19.6763114929
5.7933444977 39.1444396973 19.4781036377
5.7983732224 39.1601371765 19.2820987701
5.8053245544 39.1867904663 19.0889530182
5.8146634102 39.2270545959 18.8993797302
5.8264851570 39.2814750671 18.7135448456
5.8401646614 39.3464889526 18.5305461884
5.8544511795 39.4149703979 18.3485279083
5.8679976463 39.4792327881 18.1654739380
5.8797965050 39.5335426331 17.9798622131
5.8892474174 39.5744667053 17.7907638550
5.8961739540 39.6009979248 17.5978870392
5.9010591507 39.6158943176 17.4019336700
5.9050998688 39.6259727478 17.2047023773
5.9096541405 39.6389808655 17.0082550049
5.9154038429 39.6588058472 16.8136386871
5.9220266342 39.6836128235 16.6203708649
5.9287161827 39.7088012695 16.4272251129
5.9349813461 39.7315711975 16.2334461212
5.9409332275 39.7525520325 16.0391998291
5.9469051361 39.7736473083 15.8449983597
5.9529986382 39.7954406738 15.6510000229
5.9591026306 39.8172950745 15.4570331573
5.9652452469 39.8393669128 15.2631416321
5.9716916084 39.8631744385 15.0697402954
5.9785881042 39.8895568848 14.8770618439
5.9856328964 39.9167823792 14.6846380234
5.9922337532 39.9414710999 14.4915361404
5.9979887009 39.9613418579 14.2971210480
6.0029625893 39.9767532349 14.1014833450
6.0075845718 39.9901580811 13.9052953720
6.0124454498 40.0049285889 13.7094907761
6.0181870461 40.0247192383 13.5150938034
6.0253787041 40.0527915955 13.3230237961
6.0342855453 40.0906524658 13.1337213516
6.0446891785 40.1370582581 12.9468555450
6.0559706688 40.1884765625 12.7614469528
6.0673599243 40.2405128479 12.5762672424
6.0781674385 40.2892341614 12.3902034760
6.0880227089 40.3325233459 12.2026491165
6.0970983505 40.3713645935 12.0138740540
6.1060333252 40.4094047546 11.8249082565
6.1155033112 40.4505004883 11.6368503571
6.1258583069 40.4966545105 11.4502801895
6.1371655464 40.5482444763 11.2653150558
6.1493897438 40.6050758362 11.0819101334
6.1623582840 40.6661605835 10.8997917175
6.1756248474 40.7289543152 10.7182321548
6.1885623932 40.7898712158 10.5361976624
6.2006692886 40.8460502625 10.3528547287
6.2117686272 40.8964729309 10.1679000854
6.2218933105 40.9413375854 9.9813766479
6.2310523987 40.9806938171 9.7932901382
6.2392115593 41.0143356323 9.6035699844
6.2464871407 41.0429344177 9.4124011993
6.2532663345 41.0686950684 9.2204217911
6.2601332664 41.0949668884 9.0286121368
6.2677288055 41.1253967285 8.8380527496
6.2765994072 41.1631126404 8.6496744156
6.2870678902 41.2099609375 8.4640388489
6.2991042137 41.2657699585 8.2811155319
6.3121132851 41.3271408081 8.0999069214
6.3248529434 41.3869743347 7.9183058739
6.3358950615 41.4371147156 7.7338700294
6.3444247246 41.4729003906 7.5451836586
6.3505902290 41.4951782227 7.3524718285
6.3551473618 41.5082664490 7.1570086479
6.3589186668 41.5168609619 6.9601941109
6.3625335693 41.5245628357 6.7631077766
6.3664298058 41.5338745117 6.5665044785
6.3709259033 41.5466156006 6.3709425926
6.3763046265 41.5643997192 6.1769185066
6.3828740120 41.5889892578 5.9849801064
6.3909201622 41.6220245361 5.7956409454
6.4004893303 41.6637649536 5.6089978218
6.4111456871 41.7117271423 5.4243049622
6.4219741821 41.7606773376 5.2399659157
6.4319067001 41.8045043945 5.0540981293
6.4401879311 41.8388938904 4.8653583527
6.4466753006 41.8630294800 4.6734766960
6.4517726898 41.8792190552 4.4791483879
6.4560856819 41.8909187317 4.2834324837
6.4601058960 41.9009475708 4.0871977806
6.4641289711 41.9109916687 3.8909680843
6.4683642387 41.9222526550 3.6951179504
6.4730896950 41.9363136292 3.5001473427
6.4787259102 41.9555854797 3.3068187237
6.4857487679 41.9827880859 3.1159973145
6.4944367409 42.0195198059 2.9282035828
6.5046477318 42.0649604797 2.7431974411
6.5158033371 42.1158142090 2.5599505901
6.5270633698 42.1672668457 2.3769469261
6.5375208855 42.2141342163 2.1925382614
6.5464229584 42.2521018982 2.0053422451
6.5534362793 42.2792663574 1.8147327900
6.5588021278 42.2970046997 1.6211297512
6.5632457733 42.3094673157 1.4258451462
6.5677089691 42.3220405579 1.2305996418
6.5730171204 42.3394508362 1.0369139910
6.5795660019 42.3639602661 0.8455274105
6.5872116089 42.3947486877 0.6561889648
6.5955286026 42.4293861389 0.4681228399
6.6042151451 42.4661369324 0.2807748914
6.6132426262 42.5048408508 0.0940970331
15.4628219604 32.8758583069 80.4825592041
15.4565248489 32.8593444824 80.2834854126
15.4447650909 32.8325881958 80.0836563110
15.4310312271 32.8021278381 79.8835220337
15.4182472229 32.7734527588 79.6834564209
15.4080247879 32.7495727539 79.4836883545
15.4007596970 32.7312393188 79.2842636108
15.3957309723 32.7170982361 79.0851135254
15.3910751343 32.7036552429 78.8859786987
15.3844165802 32.6864547729 78.6865386963
15.3744449615 32.6630439758 78.4865951538
15.3623447418 32.6356391907 78.2863006592
15.3517370224 32.6110305786 78.0861740112
15.3470249176 32.5974807739 77.8868484497
15.3512630463 32.6007080078 77.6887969971
15.3646364212 32.6210670471 77.4920883179
15.3842372894 32.6530990601 77.2963180542
15.4053802490 32.6880302429 77.1008148193
15.4237728119 32.7178001404 76.9049301147
15.4371147156 32.7381019592 76.7083053589
15.4452571869 32.7486534119 76.5109024048
15.4493265152 32.7515640259 76.3128662109
15.4507884979 32.7495880127 76.1144104004
15.4510059357 32.7452774048 75.9157485962
15.4512004852 32.7409210205 75.7170562744
15.4525165558 32.7386703491 75.5185317993
15.4559907913 32.7404632568 75.3203430176
15.4623928070 32.7477493286 75.1226196289
15.4718627930 32.7607917786 74.9253997803
15.4834442139 32.7777900696 74.7285385132
15.4949932098 32.7947311401 74.5316848755
15.5039319992 32.8067741394 74.3344039917
15.5084190369 32.8104705811 74.1363677979
15.5079593658 32.8048858643 73.9374771118
15.5032873154 32.7914009094 73.7378387451
15.4960794449 32.7731552124 73.5377349854
15.4886350632 32.7544670105 73.3375473022
15.4831695557 32.7394943237 73.1376724243
15.4809999466 32.7306976318 72.9383468628
15.4824171066 32.7286300659 72.7396392822
15.4873237610 32.7331085205 72.5415496826
15.4956932068 32.7440834045 72.3440856934
15.5073051453 32.7611427307 72.1472167969
15.5213756561 32.7828102112 71.9508132935
15.5369987488 32.8073921204 71.7547149658
15.5540590286 32.8346748352 71.5589141846
15.5732812881 32.8660087585 71.3635406494
15.5952157974 32.9024353027 71.1687240601
15.6194124222 32.9431076050 70.9743728638
15.6445264816 32.9855003357 70.7802429199
15.6684541702 33.0256690979 70.5859375000
15.6879358292 33.0574951172 70.3908004761
15.6990184784 33.0735664368 70.1940536499
15.6994552612 33.0696601868 69.9952087402
15.6908550262 33.0487976074 69.7945404053
15.6776695251 33.0193328857 69.5929183960
15.6637811661 32.9885444641 69.3910980225
15.6503877640 32.9586830139 69.1893157959
15.6368989944 32.9286460876 68.9874649048
15.6230964661 32.8980140686 68.7854919434
15.6101760864 32.8690376282 68.5836486816
15.5999946594 32.8451995850 68.3823242188
15.5936384201 32.8285408020 68.1817550659
15.5908355713 32.8185462952 67.9819030762
15.5905447006 32.8132705688 67.7825546265
15.5919227600 32.8111228943 67.5835494995
15.5949020386 32.8119773865 67.3848648071
15.6001796722 32.8171501160 67.1866760254
15.6086320877 32.8282775879 66.9891662598
15.6203603745 32.8455543518 66.7923889160
15.6341228485 32.8666496277 66.5960617065
15.6478366852 32.8876533508 66.3997497559
15.6597929001 32.9053611755 66.2030563354
15.6694116592 32.9186782837 66.0058593750
15.6769304276 32.9280586243 65.8081893921
15.6826009750 32.9339637756 65.6100997925
15.6862134933 32.9360084534 65.4115371704
15.6872291565 32.9331817627 65.2123641968
15.6852035522 32.9246406555 65.0124816895
15.6801662445 32.9104499817 64.8118667603
15.6729669571 32.8921966553 64.6107101440
15.6655054092 32.8734512329 64.4094619751
15.6602621078 32.8588714600 64.2086944580
15.6587610245 32.8513145447 64.0087814331
15.6602296829 32.8493309021 63.8095626831
15.6623268127 32.8485260010 63.6104774475
15.6636743546 32.8463134766 63.4112014771
15.6656179428 32.8452224731 63.2120513916
15.6713266373 32.8512001038 63.0138092041
15.6831264496 32.8686103821 62.8170623779
15.7005281448 32.8965415955 62.6217155457
15.7203130722 32.9289474487 62.4269866943
15.7382040024 32.9577941895 62.2318229675
15.7510175705 32.9771118164 62.0354080200
15.7585039139 32.9864273071 61.8376617432
15.7638149261 32.9916572571 61.6393623352
15.7716169357 33.0015678406 61.4416999817
15.7846317291 33.0212593079 61.2453727722
15.8015718460 33.0483283997 61.0500793457
15.8186397552 33.0756340027 60.8548431396
15.8329477310 33.0977592468 60.6589126587
15.8443050385 33.1143455505 60.4622306824
15.8542909622 33.1283569336 60.2651977539
15.8644266129 33.1426506042 60.0682106018
15.8749246597 33.1576194763 59.8713302612
15.8841152191 33.1701393127 59.6741065979
15.8888711929 33.1743278503 59.4757003784
15.8865480423 33.1652221680 59.2753715515
15.8774070740 33.1433105469 59.0731697083
15.8650884628 33.1154289246 58.8700523376
15.8545236588 33.0908432007 58.6673660278
15.8493270874 33.0763359070 58.4661140442
15.8506250381 33.0740280151 58.2666244507
15.8571701050 33.0815734863 58.0685806274
15.8660488129 33.0935020447 57.8711891174
15.8739948273 33.1036796570 57.6735420227
15.8789196014 33.1081809998 57.4750404358
15.8806095123 33.1066093445 57.2756156921
15.8801879883 33.1010704041 57.0755767822
15.8791236877 33.0943222046 56.8753318787
15.8786058426 33.0886001587 56.6752243042
15.8793182373 33.0851898193 56.4754524231
15.8813133240 33.0841865540 56.2760353088
15.8838186264 33.0841407776 56.0767517090
15.8852481842 33.0820770264 55.8771400452
15.8838615417 33.0747184753 55.6766853333
15.8790159225 33.0608634949 55.4751853943
15.8719873428 33.0429077148 55.2730026245
15.8653869629 33.0257568359 55.0709114075
15.8616991043 33.0140724182 54.8696594238
15.8624267578 33.0106849670 54.6697044373
15.8682193756 33.0168151855 54.4712638855
15.8791084290 33.0325164795 54.2743721008
15.8942384720 33.0561904907 54.0787811279
15.9116144180 33.0840835571 53.8838996887
15.9285926819 33.1112289429 53.6889266968
15.9429683685 33.1334838867 53.4931755066
15.9536991119 33.1488914490 53.2963104248
15.9607753754 33.1574325562 53.0983161926
15.9646673203 33.1599922180 52.8993225098
15.9659967422 33.1577339172 52.6995162964
15.9655723572 33.1521835327 52.4991378784
15.9645214081 33.1454505920 52.2985458374
15.9641990662 33.1400871277 52.0981597900
15.9658288956 33.1383934021 51.8983802795
15.9700727463 33.1416091919 51.6994247437
15.9767351151 33.1493721008 51.5012397766
15.9847640991 33.1597023010 51.3035011292
15.9925928116 33.1696586609 51.1056976318
15.9987678528 33.1765060425 50.9073562622
16.0026054382 33.1789588928 50.7082443237
16.0045776367 33.1779060364 50.5085105896
16.0062484741 33.1762886047 50.3086624146
16.0096111298 33.1778488159 50.1093635559
16.0160121918 33.1851158142 49.9110641479
16.0254497528 33.1980934143 49.7137832642
16.0369892120 33.2150230408 49.5172157288
16.0498371124 33.2344093323 49.3210983276
16.0638275146 33.2559471130 49.1253852844
16.0787773132 33.2792892456 48.9300193787
16.0934162140 33.3020439148 48.7345657349
16.1051464081 33.3193359375 48.5381355286
16.1112861633 33.3261146545 48.3397941589
16.1110172272 33.3208465576 48.1392326355
16.1062526703 33.3071289063 47.9370956421
16.1004753113 33.2915039063 47.7345733643
16.0966625214 33.2795753479 47.5326995850
16.0961608887 33.2738685608 47.3319625854
16.0989818573 33.2744102478 47.1323738098
16.1046314240 33.2802658081 46.9337768555
16.1126499176 33.2905731201 46.7360115051
16.1228237152 33.3049392700 46.5390205383
16.1352157593 33.3234710693 46.3428344727
16.1498737335 33.3462638855 46.1474723816
16.1663303375 33.3724403381 45.9527778625
16.1835632324 33.4000778198 45.7583923340
16.2009277344 33.4279632568 45.5640830994
16.2192325592 33.4576187134 45.3701400757
16.2403335571 33.4925270081 45.1772537231
16.2651042938 33.5343399048 44.9857521057
16.2918319702 33.5798339844 44.7950210571
16.3169612885 33.6223258972 44.6037483215
16.3374481201 33.6560859680 44.4108047485
16.3521575928 33.6789817810 44.2157402039
16.3614139557 33.6916236877 44.0186614990
16.3658809662 33.6952629089 43.8197898865
16.3659515381 33.6906318665 43.6192550659
16.3616657257 33.6778068542 43.4170532227
16.3530712128 33.6568832397 43.2131881714
16.3410587311 33.6295242310 43.0079765320
16.3278675079 33.5999488831 42.8022651672
16.3161334991 33.5731163025 42.5970573425
16.3070983887 33.5513534546 42.3928375244
16.3002414703 33.5336875916 42.1894149780
16.2948207855 33.5187263489 41.9865112305
16.2910728455 33.5069046021 41.7842216492
16.2896213531 33.4994049072 41.5828018188
16.2904682159 33.4962272644 41.3822555542
16.2929019928 33.4960327148 41.1823196411
16.2960681915 33.4972152710 40.9826583862
16.2994613647 33.4988250732 40.7830772400
16.3032341003 33.5011520386 40.5836334229
16.3085594177 33.5063934326 40.3848037720
16.3176860809 33.5187911987 40.1874847412
16.3329524994 33.5427360535 39.9926376343
16.3547706604 33.5790061951 39.8004455566
16.3804607391 33.6225624084 39.6098594666
16.4058017731 33.6654624939 39.4191818237
16.4279365540 33.7023315430 39.2272491455
16.4464225769 33.7323379517 39.0338668823
16.4619026184 33.7566871643 38.8392906189
16.4748306274 33.7762413025 38.6436882019
16.4856319427 33.7917861938 38.4472236633
16.4952201843 33.8050575256 38.2502670288
16.5049629211 33.8186149597 38.0533866882
16.5164356232 33.8354301453 37.8572273254
16.5314178467 33.8588447571 37.6625480652
16.5517082214 33.8922500610 37.4701118469
16.5782985687 33.9375114441 37.2803573608
16.6103725433 33.9930877686 37.0929641724
16.6452236176 34.0538978577 36.9068145752
16.6793460846 34.1133346558 36.7204322815
16.7098522186 34.1659698486 36.5325851440
16.7354125977 34.2092971802 36.3426895142
16.7562999725 34.2438354492 36.1508445740
16.7734012604 34.2712478638 35.9574089050
16.7869529724 34.2919807434 35.7624740601
16.7962760925 34.3047561646 35.5657272339
16.8005790710 34.3080863953 35.3668098450
16.7998733521 34.3019905090 35.1657066345
16.7953338623 34.2886734009 34.9629058838
16.7891311646 34.2722358704 34.7593536377
16.7836761475 34.2571983337 34.5560874939
16.7806110382 34.2466545105 34.3538398743
16.7804279327 34.2415390015 34.1528396606
16.7827987671 34.2412300110 33.9529533386
16.7866783142 34.2437553406 33.7537231445
16.7898864746 34.2450218201 33.5541839600
16.7894153595 34.2393608093 33.3529891968
16.7833557129 34.2231826782 33.1492652893
16.7729415894 34.1988029480 32.9435501099
16.7623100281 34.1740188599 32.7376899719
16.7561264038 34.1576042175 32.5337905884
16.7573280334 34.1550865173 32.3332099915
16.7663536072 34.1672973633 32.1361770630
16.7816295624 34.1912803650 31.9420051575
16.8006725311 34.2223510742 31.7495784760
16.8211193085 34.2560653687 31.5578308105
16.8412590027 34.2891998291 31.3659763336
16.8599414825 34.3195953369 31.1734848022
16.8762035370 34.3454322815 30.9799022675
16.8891696930 34.3650665283 30.7848129272
16.8984699249 34.3777999878 30.5880317688
16.9045772552 34.3845214844 30.3897628784
16.9087123871 34.3875274658 30.1905670166
16.9124965668 34.3898773193 29.9911975861
16.9173889160 34.3943099976 29.7923412323
16.9239120483 34.4018173218 29.5942516327
16.9315166473 34.4113540649 29.3966732025
16.9395465851 34.4216957092 29.1992988586
16.9483985901 34.4335861206 29.0023193359
16.9595012665 34.4497146606 28.8064212799
16.9741516113 34.4725189209 28.6122360229
16.9924774170 34.5022506714 28.4198398590
17.0133781433 34.5368270874 28.2287178040
17.0350475311 34.5728569031 28.0380058289
17.0555095673 34.6066093445 27.8467464447
17.0731639862 34.6350784302 27.6541576385
17.0874347687 34.6571731567 27.4599475861
17.0988693237 34.6739311218 27.2643680573
17.1085643768 34.6874122620 27.0679473877
17.1175498962 34.6995544434 26.8711833954
17.1266613007 34.7119369507 26.6744880676
17.1365108490 34.7257080078 26.4781627655
17.1471710205 34.7410049438 26.2822475433
17.1579113007 34.7564582825 26.0863838196
17.1676712036 34.7700576782 25.8900375366
17.1759471893 34.7808685303 25.6929588318
17.1831874847 34.7897262573 25.4953632355
17.1903057098 34.7983551025 25.2977066040
17.1980628967 34.8081855774 25.1003723145
17.2068500519 34.8199615479 24.9035625458
17.2168025970 34.8339233398 24.7073459625
17.2279338837 34.8501129150 24.5117378235
17.2402629852 34.8685569763 24.3167514801
17.2540245056 34.8897018433 24.1225109100
17.2700176239 34.9150466919 23.9294338226
17.2896823883 34.9473114014 23.7382678986
17.3145942688 34.9894599915 23.5498390198
17.3453636169 35.0426483154 23.3644847870
17.3807086945 35.1044578552 23.1815681458
17.4175052643 35.1689987183 22.9994812012
17.4519901276 35.2291908264 22.8162708282
17.4810905457 35.2792396545 22.6303253174
17.5028820038 35.3155174255 22.4406147003
17.5165061951 35.3364143372 22.2466564178
17.5224361420 35.3428077698 22.0486679077
17.5227966309 35.3387107849 21.8477363586
17.5207519531 35.3300819397 21.6455154419
17.5188655853 35.3217468262 21.4433536530
17.5179290771 35.3152046204 21.2416706085
17.5174331665 35.3094902039 21.0402030945
17.5168762207 35.3036651611 20.8386821747
17.5163345337 35.2978630066 20.6371459961
17.5161724091 35.2927780151 20.4357948303
17.5168380737 35.2892532349 20.2348709106
17.5189933777 35.2885322571 20.0347309113
17.5236263275 35.2924804688 19.8359203339
17.5319213867 35.3033332825 19.6390914917
17.5448093414 35.3228340149 19.4447612762
17.5623340607 35.3510818481 19.2529792786
17.5833511353 35.3859062195 19.0631332397
17.6059150696 35.4236526489 18.8741741180
17.6279907227 35.4604759216 18.6849880219
17.6478538513 35.4931297302 18.4946269989
17.6644210815 35.5195732117 18.3024787903
17.6776103973 35.5396537781 18.1084880829
17.6883125305 35.5550422668 17.9131317139
17.6977539063 35.5680541992 17.7170848846
17.7068481445 35.5804176331 17.5208511353
17.7160549164 35.5929908752 17.3246860504
17.7256240845 35.6062469482 17.1287307739
17.7359333038 35.6208953857 16.9331970215
17.7476367950 35.6381759644 16.7384567261
17.7613525391 35.6592483521 16.5448665619
17.7769775391 35.6839179993 16.3523750305
17.7932796478 35.7098693848 16.1602897644
17.8084278107 35.7336463928 15.9675760269
17.8210258484 35.7526130676 15.7734298706
17.8306236267 35.7659263611 15.5775842667
17.8374824524 35.7740707397 15.3801765442
17.8423004150 35.7783737183 15.1815967560
17.8464050293 35.7813262939 14.9825992584
17.8520450592 35.7871818542 14.7844820023
17.8621444702 35.8014373779 14.5889377594
17.8790664673 35.8285560608 14.3973560333
17.9029159546 35.8687438965 14.2098283768
17.9309272766 35.9167709351 14.0247688293
17.9592227936 35.9653434753 13.8399333954
17.9857997894 36.0106697083 13.6541500092
18.0116710663 36.0546684265 13.4680070877
18.0391407013 36.1016883850 13.2828559875
18.0693187714 36.1538085938 13.0993566513
18.1012668610 36.2092704773 12.9169654846
18.1328239441 36.2639999390 12.7344112396
18.1619091034 36.3140678406 12.5504589081
18.1876792908 36.3578834534 12.3645944595
18.2112102509 36.3974800110 12.1774463654
18.2348041534 36.4371948242 11.9903821945
18.2598838806 36.4797134399 11.8042516708
18.2852993011 36.5228652954 11.6183738708
18.3079757690 36.5608558655 11.4308986664
18.3252773285 36.5887069702 11.2402248383
18.3367023468 36.6054801941 11.0460281372
18.3438034058 36.6140975952 10.8492240906
18.3488864899 36.6189041138 10.6511945724
18.3536224365 36.6230621338 10.4529495239
18.3586349487 36.6277389526 10.2548666000
18.3643264771 36.6336975098 10.0571928024
18.3718929291 36.6431922913 9.8606643677
18.3831348419 36.6596145630 9.6663932800
18.3991870880 36.6851158142 9.4750947952
18.4196338654 36.7189064026 9.2865304947
18.4428596497 36.7579383850 9.0997209549
18.4669437408 36.7985916138 8.9134874344
18.4898605347 36.8370437622 8.7265768051
18.5091819763 36.8687171936 8.5374727249
18.5226192474 36.8892860413 8.3447332382
18.5296440125 36.8977622986 8.1480026245
18.5328426361 36.8990173340 7.9488759041
18.5374813080 36.9029922485 7.7506432533
18.5491485596 36.9202270508 7.5568256378
18.5709629059 36.9566040039 7.3694181442
18.6021366119 37.0106391907 7.1879644394
18.6384201050 37.0743179321 7.0098142624
18.6738491058 37.1363830566 6.8312015533
18.7030601501 37.1867218018 6.6487135887
18.7232456207 37.2200317383 6.4605331421
18.7346591949 37.2367897034 6.2667856216
18.7396850586 37.2415008545 6.0689620972
18.7414684296 37.2400894165 5.8690524101
18.7429389954 37.2380905151 5.6689276695
18.7464027405 37.2398490906 5.4700708389
18.7535305023 37.2485237122 5.2735705376
18.7655010223 37.2663307190 5.0802030563
18.7829380035 37.2944602966 4.8903951645
18.8057155609 37.3326683044 4.7040853500
18.8330936432 37.3795547485 4.5208144188
18.8642635345 37.4335975647 4.3400735855
18.8983821869 37.4932098389 4.1613287926
18.9337577820 37.5551986694 3.9834823608
18.9675045013 37.6141128540 3.8046438694
18.9966869354 37.6644134521 3.6228761673
19.0196781158 37.7030296326 3.4370861053
19.0360736847 37.7291984558 3.2469811440
19.0457725525 37.7427330017 3.0524694920
19.0490322113 37.7441139221 2.8536906242
19.0476188660 37.7366714478 2.6517951488
19.0453910828 37.7276916504 2.4493322372
19.0470581055 37.7260665894 2.2494466305
19.0560073853 37.7381820679 2.0544166565
19.0727691650 37.7650489807 1.8646311760
19.0949382782 37.8021202087 1.6785054207
19.1181392670 37.8411407471 1.4931164980
19.1375770569 37.8730583191 1.3052332401
19.1498489380 37.8914489746 1.1125403643
19.1545104980 37.8954734802 0.9147068858
19.1544265747 37.8905448914 0.7136464119
19.1545333862 37.8859710693 0.5126953721
19.1599655151 37.8914489746 0.3153537512
19.1749458313 37.9149551392 0.1245290563
24.8433361053 26.4674510956 80.4807434082
24.8269901276 26.4486293793 80.2812042236
24.7990512848 26.4186458588 80.0806350708
24.7683334351 26.3859806061 79.8797607422
24.7428379059 26.3583450317 79.6792678833
24.7270603180 26.3400688171 79.4795684814
24.7217082977 26.3318328857 79.2807464600
24.7246341705 26.3315715790 79.0826416016
24.7315959930 26.3351955414 78.8848876953
24.7374401093 26.3377437592 78.6870269775
24.7385463715 26.3357295990 78.4887237549
24.7352409363 26.3294639587 78.2899932861
24.7320537567 26.3233127594 78.0912551880
24.7352409363 26.3233013153 77.8931045532
24.7490234375 26.3334941864 77.6959457397
24.7732028961 26.3537044525 77.4997940063
24.8036079407 26.3799114227 77.3042755127
24.8347587585 26.4068374634 77.1088638306
24.8630809784 26.4310417175 76.9132156372
24.8890037537 26.4529304504 76.7173614502
24.9167137146 26.4765434265 76.5217132568
24.9514179230 26.5068969727 76.3268051147
24.9951953888 26.5459899902 76.1328659058
25.0434665680 26.5894126892 75.9394607544
25.0847663879 26.6261215210 75.7453918457
25.1056709290 26.6431808472 75.5492324829
25.0987052917 26.6333904266 75.3501510620
25.0673828125 26.6001319885 75.1484451294
25.0242271423 26.5554733276 74.9453964233
24.9836921692 26.5133342743 74.7425384521
24.9555683136 26.4831542969 74.5409545898
24.9430160522 26.4679775238 74.3410186768
24.9446830750 26.4664993286 74.1426162720
24.9576091766 26.4758701324 73.9454650879
24.9784126282 26.4928302765 73.7492065430
25.0030059814 26.5134449005 73.5533981323
25.0266170502 26.5331115723 73.3575057983
25.0450267792 26.5477676392 73.1610412598
25.0561428070 26.5553951263 72.9637374878
25.0603275299 26.5563430786 72.7656326294
25.0592308044 26.5522022247 72.5668869019
25.0542602539 26.5443267822 72.3676681519
25.0459060669 26.5331916809 72.1680221558
25.0341339111 26.5187606812 71.9679336548
25.0188655853 26.5009632111 71.7673797607
24.9997482300 26.4794521332 71.5663070679
24.9758968353 26.4533805847 71.3646087646
24.9472999573 26.4227333069 71.1622619629
24.9169635773 26.3904094696 70.9596328735
24.8906803131 26.3619899750 70.7574462891
24.8739223480 26.3427505493 70.5564041138
24.8689498901 26.3348674774 70.3568115234
24.8742122650 26.3368511200 70.1585159302
24.8854846954 26.3446254730 69.9609909058
24.8977565765 26.3533611298 69.7635955811
24.9071788788 26.3593521118 69.5658340454
24.9120807648 26.3609867096 69.3674774170
24.9129428864 26.3587265015 69.1685714722
24.9121322632 26.3548564911 68.9694290161
24.9131584167 26.3527526855 68.7705154419
24.9185924530 26.3549003601 68.5721893311
24.9279518127 26.3608303070 68.3743896484
24.9381179810 26.3675365448 68.1766967773
24.9464149475 26.3724441528 67.9787521362
24.9531154633 26.3758125305 67.7805786133
24.9608116150 26.3801383972 67.5825424194
24.9716815948 26.3875236511 67.3849487305
24.9858398438 26.3980789185 67.1878280640
25.0022430420 26.4108009338 66.9910278320
25.0205211639 26.4253292084 66.7945098877
25.0413265228 26.4422931671 66.5983734131
25.0651111603 26.4621315002 66.4026870728
25.0911178589 26.4841117859 66.2073516846
25.1179485321 26.5068855286 66.0121688843
25.1447677612 26.5296516418 65.8170166016
25.1713523865 26.5521888733 65.6218490601
25.1970062256 26.5738296509 65.4265823364
25.2199611664 26.5928688049 65.2309341431
25.2379722595 26.6071434021 65.0345687866
25.2494716644 26.6151390076 64.8372192383
25.2545127869 26.6169071198 64.6388931274
25.2548198700 26.6141109467 64.4398269653
25.2526836395 26.6089591980 64.2403717041
25.2497730255 26.6030616760 64.0407791138
25.2469158173 26.5972118378 63.8411674500
25.2445259094 26.5918159485 63.6416091919
25.2429351807 26.5871868134 63.4421577454
25.2424201965 26.5835971832 63.2428550720
25.2432041168 26.5812587738 63.0437469482
25.2454833984 26.5803623199 62.8448638916
25.2493629456 26.5810089111 62.6462249756
25.2547740936 26.5831317902 62.4478263855
25.2614727020 26.5864963531 62.2496299744
25.2692604065 26.5909137726 62.0516090393
25.2782802582 26.5965156555 61.8537864685
25.2888145447 26.6035804749 61.6562156677
25.3004608154 26.6117153168 61.4588356018
25.3115844727 26.6193485260 61.2613677979
25.3201389313 26.6245021820 61.0634727478
25.3252124786 26.6262989044 60.8649864197
25.3276081085 26.6255149841 60.6660346985
25.3289737701 26.6237354279 60.4668960571
25.3306217194 26.6222286224 60.2677879333
25.3330497742 26.6214752197 60.0688056946
25.3361091614 26.6213283539 59.8699188232
25.3393726349 26.6213779449 59.6710586548
25.3424110413 26.6212120056 59.4721488953
25.3449268341 26.6205406189 59.2731323242
25.3468151093 26.6192646027 59.0739936829
25.3481674194 26.6174697876 58.8747482300
25.3491802216 26.6153507233 58.6754264832
25.3500480652 26.6130886078 58.4760627747
25.3509120941 26.6108226776 58.2766876221
25.3518924713 26.6086692810 58.0773162842
25.3531074524 26.6067428589 57.8779716492
25.3546619415 26.6051445007 57.6786766052
25.3566513062 26.6039638519 57.4794464111
25.3591518402 26.6032733917 57.2803001404
25.3622093201 26.6031246185 57.0812454224
25.3658103943 26.6034984589 56.8822822571
25.3698196411 26.6042652130 56.6833839417
25.3740081787 26.6052055359 56.4845085144
25.3781623840 26.6061115265 56.2856178284
25.3822956085 26.6069984436 56.0867156982
25.3868198395 26.6082630157 55.8878784180
25.3925514221 26.6106910706 55.6892662048
25.4003772736 26.6151409149 55.4910507202
25.4104003906 26.6217098236 55.2932586670
25.4209690094 26.6288032532 55.0955772400
25.4288330078 26.6332893372 54.8973655701
25.4312114716 26.6324825287 54.6980705261
25.4281120300 26.6263885498 54.4976844788
25.4222278595 26.6176071167 54.2967224121
25.4164085388 26.6088905334 54.0957489014
25.4115161896 26.6010665894 53.8949317932
25.4064884186 26.5931110382 53.6940650940
25.4000587463 26.5838031769 53.4928894043
25.3927345276 26.5736312866 53.2915039063
25.3877449036 26.5657119751 53.0905647278
25.3899822235 26.5647659302 52.8910789490
25.4032802582 26.5744934082 52.6938514709
25.4279232025 26.5951671600 52.4989700317
25.4601383209 26.6231517792 52.3056831360
25.4937419891 26.6524734497 52.1127281189
25.5227775574 26.6773910522 51.9188613892
25.5436611176 26.6944408417 51.7233161926
25.5556354523 26.7028923035 51.5259170532
25.5594406128 26.7034587860 51.3267936707
25.5553855896 26.6964416504 51.1259918213
25.5430755615 26.6814556122 50.9234046936
25.5238533020 26.6597957611 50.7192993164
25.5035972595 26.6371402740 50.5149192810
25.4915485382 26.6224040985 50.3122596741
25.4948329926 26.6224670410 50.1128921509
25.5141716003 26.6380271912 49.9170036316
25.5456790924 26.6653289795 49.7237930298
25.5859470367 26.7010898590 49.5325431824
25.6328697205 26.7432746887 49.3428153992
25.6807823181 26.7864131927 49.1533699036
25.7180061340 26.8192367554 48.9616203308
25.7333221436 26.8309173584 48.7650375366
25.7255229950 26.8202819824 48.5632896423
25.7045631409 26.7969436646 48.3585548401
25.6830387115 26.7730598450 48.1536369324
25.6678657532 26.7553043365 47.9501037598
25.6593513489 26.7439785004 47.7480430603
25.6550960541 26.7367610931 47.5469207764
25.6532573700 26.7318763733 47.3463287354
25.6533718109 26.7288799286 47.1461677551
25.6560077667 26.7283153534 46.9465713501
25.6624240875 26.7313995361 46.7478408813
25.6744308472 26.7398815155 46.5504035950
25.6937599182 26.7554340363 46.3546829224
25.7205276489 26.7781658173 46.1607208252
25.7518177032 26.8052654266 45.9678535461
25.7823562622 26.8316421509 45.7748489380
25.8073844910 26.8526973724 45.5805740356
25.8251590729 26.8667488098 45.3846015930
25.8368911743 26.8749675751 45.1872024536
25.8448638916 26.8795547485 44.9889030457
25.8508567810 26.8822326660 44.7901268005
25.8557682037 26.8838653564 44.5910835266
25.8598823547 26.8847274780 44.3918418884
25.8631896973 26.8848133087 44.1923904419
25.8655853271 26.8840160370 43.9927101135
25.8670101166 26.8822803497 43.7927742004
25.8675460815 26.8796882629 43.5926094055
25.8673400879 26.8763771057 43.3922462463
25.8663616180 26.8723220825 43.1916732788
25.8643455505 26.8672637939 42.9908256531
25.8614864349 26.8613910675 42.7897491455
25.8597412109 26.8565940857 42.5889282227
25.8632526398 26.8568744659 42.3894081116
25.8766136169 26.8666648865 42.1923561096
25.9022750854 26.8883342743 41.9984283447
25.9394645691 26.9211368561 41.8074493408
25.9845924377 26.9616069794 41.6185417175
26.0319900513 27.0042705536 41.4302787781
26.0752277374 27.0429172516 41.2410163879
26.1092243195 27.0726413727 41.0494384766
26.1314754486 27.0910205841 40.8548660278
26.1415672302 27.0976562500 40.6571693420
26.1404933929 27.0935096741 40.4565696716
26.1309566498 27.0811862946 40.2537460327
26.1175518036 27.0651264191 40.0498771667
26.1054344177 27.0503120422 39.8463058472
26.0981540680 27.0401668549 39.6439704895
26.0967788696 27.0357265472 39.4431648254
26.1008834839 27.0365772247 39.2437973022
26.1097126007 27.0419940948 39.0456771851
26.1221103668 27.0508556366 38.8485069275
26.1359100342 27.0610713959 38.6517181396
26.1484241486 27.0700454712 38.4545936584
26.1581058502 27.0762863159 38.2567100525
26.1658573151 27.0806598663 38.0583038330
26.1747398376 27.0861263275 37.8602027893
26.1883201599 27.0961322784 37.6633758545
26.2086906433 27.1126976013 37.4684181213
26.2355918884 27.1355724335 37.2752647400
26.2673091888 27.1630973816 37.0834693909
26.3022594452 27.1937484741 36.8926048279
26.3395042419 27.2266178131 36.7024192810
26.3780651093 27.2607574463 36.5126495361
26.4165096283 27.2947883606 36.3228988647
26.4532375336 27.3271598816 36.1327171326
26.4868278503 27.3565006256 35.9417076111
26.5161647797 27.3817310333 35.7495460510
26.5403633118 27.4020004272 35.5559692383
26.5583362579 27.4162540436 35.3606567383
26.5686016083 27.4230594635 35.1631736755
26.5703105927 27.4216003418 34.9632530212
26.5649127960 27.4132709503 34.7612915039
26.5565395355 27.4020690918 34.5584526062
26.5499801636 27.3926181793 34.3561019897
26.5477104187 27.3873100281 34.1549606323
26.5485725403 27.3850288391 33.9547042847
26.5489807129 27.3823089600 33.7542991638
26.5455188751 27.3758506775 33.5527572632
26.5374622345 27.3649501801 33.3498458862
26.5278205872 27.3525180817 33.1464462280
26.5219211578 27.3437023163 32.9441070557
26.5241336823 27.3427257538 32.7441291809
26.5351238251 27.3502311707 32.5467338562
26.5516490936 27.3630828857 32.3509750366
26.5688953400 27.3766345978 32.1554489136
26.5834808350 27.3876152039 31.9591407776
26.5949058533 27.3955402374 31.7618980408
26.6050376892 27.4022159576 31.5642719269
26.6167984009 27.4104652405 31.3671379089
26.6327972412 27.4228115082 31.1712837219
26.6539649963 27.4401550293 30.9770050049
26.6786918640 27.4609375000 30.7838268280
26.7035026550 27.4818019867 30.5907020569
26.7251453400 27.4996032715 30.3966369629
26.7424736023 27.5132350922 30.2012748718
26.7569427490 27.5241050720 30.0050487518
26.7718544006 27.5354003906 29.8089675903
26.7909412384 27.5507335663 29.6141853333
26.8165683746 27.5723915100 29.4214458466
26.8481884003 27.5998382568 29.2305927277
26.8822364807 27.6296329498 29.0405349731
26.9138679504 27.6570949554 28.8497676849
26.9393157959 27.6785793304 28.6571044922
26.9572467804 27.6927967072 28.4621105194
26.9685249329 27.7005844116 28.2650375366
26.9751567841 27.7038803101 28.0664997101
26.9796638489 27.7051200867 27.8672847748
26.9850025177 27.7071666718 27.6683273315
26.9940624237 27.7128086090 27.4705448151
27.0081443787 27.7233047485 27.2743663788
27.0257015228 27.7371635437 27.0793075562
27.0431728363 27.7509365082 26.8842372894
27.0574169159 27.7615909576 26.6881408691
27.0673427582 27.7680702209 26.4906597137
27.0734958649 27.7709045410 26.2919597626
27.0767440796 27.7709274292 26.0923099518
27.0775089264 27.7685508728 25.8918437958
27.0760841370 27.7640552521 25.6906452179
27.0736446381 27.7585792542 25.4890956879
27.0729961395 27.7548332214 25.2881145477
27.0779857635 27.7565402985 25.0889682770
27.0916252136 27.7666110992 24.8926696777
27.1141872406 27.7853069305 24.6993274689
27.1426753998 27.8097362518 24.5079765320
27.1724052429 27.8353652954 24.3170719147
27.1998958588 27.8588314056 24.1254558563
27.2249336243 27.8799247742 23.9330520630
27.2500495911 27.9010944366 23.7407035828
27.2779865265 27.9249916077 23.5493316650
27.3091621399 27.9520225525 23.3590831757
27.3410797119 27.9797706604 23.1691246033
27.3700733185 28.0046939850 22.9782142639
27.3938999176 28.0246162415 22.7855854034
27.4129848480 28.0399570465 22.5913658142
27.4297218323 28.0530261993 22.3963642120
27.4467430115 28.0663719177 22.2014713287
27.4653606415 28.0812606812 22.0071411133
27.4849891663 28.0971260071 21.8131752014
27.5040054321 28.1124000549 21.6190147400
27.5212326050 28.1259460449 21.4242534637
27.5365829468 28.1376762390 21.2288570404
27.5504875183 28.1480064392 21.0329666138
27.5631732941 28.1571578979 20.8366603851
27.5746612549 28.1651535034 20.6399402618
27.5853729248 28.1723976135 20.4429550171
27.5965538025 28.1800937653 20.2461338043
27.6097583771 28.1897487640 20.0500297546
27.6254768372 28.2018356323 19.8548202515
27.6422176361 28.2149105072 19.6599845886
27.6573066711 28.2263889313 19.4645748138
27.6688461304 28.2344341278 19.2679119110
27.6768856049 28.2390918732 19.0700073242
27.6829853058 28.2418746948 18.8714046478
27.6890354156 28.2446098328 18.6727809906
27.6964912415 28.2487049103 18.4746551514
27.7062854767 28.2550601959 18.2773685455
27.7191486359 28.2643852234 18.0811901093
27.7357730865 28.2773494720 17.8863792419
27.7564353943 28.2942199707 17.6930446625
27.7802085876 28.3141021729 17.5008640289
27.8047218323 28.3346977234 17.3089771271
27.8271865845 28.3533134460 17.1163711548
27.8460350037 28.3684310913 16.9224624634
27.8616867065 28.3804569244 16.7273960114
27.8760337830 28.3912181854 16.5318603516
27.8914527893 28.4030170441 16.3367290497
27.9098110199 28.4176616669 16.1426982880
27.9314346313 28.4354648590 15.9498920441
27.9546356201 28.4547958374 15.7576942444
27.9767875671 28.4731101990 15.5651311874
27.9964103699 28.4889793396 15.3716459274
28.0144290924 28.5032958984 15.1775789261
28.0334625244 28.5185947418 14.9839076996
28.0559558868 28.5372428894 14.7915554047
28.0829200745 28.5602149963 14.6009120941
28.1142902374 28.5874538422 14.4119653702
28.1499290466 28.6188220978 14.2246761322
28.1894989014 28.6539955139 14.0389251709
28.2313060760 28.6913337708 13.8540802002
28.2719287872 28.7275295258 13.6688423157
28.3075008392 28.7588367462 13.4817276001
28.3355064392 28.7828216553 13.2917594910
28.3556709290 28.7992210388 13.0988130569
28.3694648743 28.8094539642 12.9034318924
28.3789291382 28.8154964447 12.7063884735
28.3858432770 28.8190708160 12.5083580017
28.3915748596 28.8215007782 12.3098659515
28.3973007202 28.8239250183 12.1113643646
28.4041862488 28.8274726868 11.9133081436
28.4134178162 28.8332901001 11.7161626816
28.4260196686 28.8423709869 11.5203380585
28.4423618317 28.8550701141 11.3259849548
28.4614162445 28.8703937531 11.1327104568
28.4806194305 28.8858642578 10.9395122528
28.4970684052 28.8986663818 10.7452440262
28.5093669891 28.9074535370 10.5493459702
28.5183830261 28.9130630493 10.3521509171
28.5262775421 28.9175872803 10.1545095444
28.5349712372 28.9228858948 9.9571838379
28.5453319550 28.9297962189 9.7605228424
28.5572929382 28.9382553101 9.5645046234
28.5705204010 28.9479427338 9.3689994812
28.5852298737 28.9590625763 9.1740961075
28.6027374268 28.9728927612 8.9803304672
28.6250591278 28.9913825989 8.7885236740
28.6534175873 29.0157165527 8.5991821289
28.6869049072 29.0450191498 8.4119567871
28.7227325439 29.0765857697 8.2257251740
28.7576274872 29.1072502136 8.0391616821
28.7890567780 29.1345596313 7.8512277603
28.8159618378 29.1574916840 7.6614837646
28.8391780853 29.1768512726 7.4702572823
28.8607788086 29.1946468353 7.2783918381
28.8822193146 29.2122879028 7.0864815712
28.9028797150 29.2291736603 6.8942723274
28.9207077026 29.2433166504 6.7009105682
28.9342727661 29.2533359528 6.5057978630
28.9440994263 29.2597312927 6.3091387749
28.9522171021 29.2644748688 6.1117691994
28.9608783722 29.2697429657 5.9146242142
28.9717235565 29.2771282196 5.7183918953
28.9857425690 29.2875843048 5.5234913826
29.0033206940 29.3014888763 5.3300952911
29.0239276886 29.3183250427 5.1379876137
29.0460205078 29.3365993500 4.9465265274
29.0680713654 29.3548355103 4.7550721169
29.0901393890 29.3730869293 4.5636458397
29.1142501831 29.3933181763 4.3731107712
29.1430530548 29.4180927277 4.1845974922
29.1777591705 29.4485855103 3.9986352921
29.2168560028 29.4833316803 3.8145940304
29.2563343048 29.5184459686 3.6307692528
29.2912578583 29.5491523743 3.4450452328
29.3178081512 29.5717506409 3.2557682991
29.3346881866 29.5849800110 3.0623567104
29.3432064056 29.5901145935 2.8653502464
29.3462963104 29.5899906158 2.6659948826
29.3473186493 29.5878639221 2.4657313824
29.3492641449 29.5866317749 2.2658548355
29.3544731140 29.5885581970 2.0673847198
29.3647327423 29.5953788757 1.8711102009
29.3817024231 29.6086978912 1.6777694225
29.4073791504 29.6304512024 1.4882551432
29.4439105988 29.6627178192 1.3035322428
29.4921302795 29.7063083649 1.1239982843
29.5495719910 29.7588310242 0.9485963583
29.6100921631 29.8143386841 0.7746401429
29.6664981842 29.8658599854 0.5989557505
29.7144412994 29.9091873169 0.4196049273
29.7542915344 29.9446773529 0.2367292047
29.7896957397 29.9758586884 0.0519290864
32.0995941162 17.6351242065 80.3023834229
32.0866622925 17.6263751984 80.1035919189
32.0679206848 17.6148014069 79.9043655396
32.0521888733 17.6046924591 79.7053070068
32.0442237854 17.5983581543 79.5067596436
32.0437049866 17.5956420898 79.3087081909
32.0471153259 17.5948352814 79.1109237671
32.0499649048 17.5937576294 78.9130935669
32.0485801697 17.5906200409 78.7149429321
32.0410194397 17.5844802856 78.5163192749
32.0270233154 17.5752105713 78.3171920776
32.0076599121 17.5633335114 78.1176223755
31.9855804443 17.5501346588 77.9178161621
31.9652042389 17.5377616882 77.7180862427
31.9514064789 17.5285873413 77.5188217163
31.9468879700 17.5239238739 77.3202438354
31.9508953094 17.5234069824 77.1223144531
31.9611911774 17.5259456635 76.9248809814
31.9773235321 17.5313243866 76.7279052734
32.0015792847 17.5406513214 76.5315933228
32.0364685059 17.5551490784 76.3361587524
32.0812835693 17.5744743347 76.1415786743
32.1309776306 17.5961742401 75.9474411011
32.1782150269 17.6166782379 75.7531585693
32.2168655396 17.6330070496 75.5582046509
32.2443313599 17.6438980103 75.3623428345
32.2613105774 17.6496906281 75.1656036377
32.2702445984 17.6515693665 74.9681854248
32.2740974426 17.6509761810 74.7703247070
32.2753295898 17.6491107941 74.5722274780
32.2744102478 17.6461963654 74.3739166260
32.2694854736 17.6413345337 74.1752471924
32.2588462830 17.6336956024 73.9760360718
32.2437171936 17.6238689423 73.7763900757
32.2278175354 17.6136684418 73.5766372681
32.2144508362 17.6047019958 73.3770828247
32.2045745850 17.5974292755 73.1778182983
32.1972198486 17.5913829803 72.9787521362
32.1906967163 17.5857429504 72.7797470093
32.1831207275 17.5795898438 72.5806121826
32.1725158691 17.5719623566 72.3811721802
32.1575546265 17.5622158051 72.1812744141
32.1389503479 17.5506954193 71.9809951782
32.1202621460 17.5391368866 71.7806701660
32.1067390442 17.5300865173 71.5808029175
32.1030883789 17.5258426666 71.3818817139
32.1123428345 17.5278739929 71.1842193604
32.1354255676 17.5366325378 70.9879379272
32.1698875427 17.5509262085 70.7928161621
32.2090492249 17.5675086975 70.5982055664
32.2446174622 17.5823440552 70.4032745361
32.2715454102 17.5929737091 70.2074813843
32.2902908325 17.5996227264 70.0108718872
32.3047828674 17.6042041779 69.8138275146
32.3193054199 17.6087989807 69.6167907715
32.3369636536 17.6149215698 69.4200897217
32.3592300415 17.6232852936 69.2238845825
32.3851470947 17.6334266663 69.0280914307
32.4107284546 17.6434020996 68.8322830200
32.4300613403 17.6503391266 68.6358184814
32.4380912781 17.6517772675 68.4381332397
32.4330902100 17.6468734741 68.2390136719
32.4174232483 17.6367778778 68.0386886597
32.3964042664 17.6240787506 67.8377380371
32.3758697510 17.6116142273 67.6367874146
32.3596153259 17.6012325287 67.4362869263
32.3484725952 17.5933380127 67.2363204956
32.3412361145 17.5873451233 67.0367736816
32.3363075256 17.5824718475 66.8374633789
32.3326301575 17.5782108307 66.6382751465
32.3298454285 17.5743827820 66.4391708374
32.3280105591 17.5710163116 66.2401580811
32.3273353577 17.5682144165 66.0412673950
32.3280220032 17.5660743713 65.8425140381
32.3302688599 17.5646953583 65.6439437866
32.3344116211 17.5642375946 65.4455795288
32.3411026001 17.5650196075 65.2475128174
32.3512802124 17.5674991608 65.0498657227
32.3654594421 17.5719261169 64.8527069092
32.3823471069 17.5776729584 64.6558761597
32.3979492188 17.5827941895 64.4589004517
32.4067916870 17.5846214294 64.2611007690
32.4050521851 17.5813007355 64.0619735718
32.3933029175 17.5731067657 63.8615760803
32.3764839172 17.5624446869 63.6605148315
32.3612480164 17.5525512695 63.4596099854
32.3528556824 17.5459918976 63.2595405579
32.3538856506 17.5440158844 63.0606536865
32.3644332886 17.5466766357 62.8629760742
32.3823776245 17.5529346466 62.6662521362
32.4036598206 17.5608215332 62.4699745178
32.4237213135 17.5681114197 62.2735519409
32.4396667480 17.5733985901 62.0766029358
32.4511604309 17.5765171051 61.8790702820
32.4594039917 17.5780563354 61.6811103821
32.4654541016 17.5785255432 61.4828491211
32.4692535400 17.5778999329 61.2842826843
32.4695053101 17.5755443573 61.0852279663
32.4640808105 17.5704250336 60.8853874207
32.4510421753 17.5615997314 60.6844863892
32.4302368164 17.5489902496 60.4824867249
32.4046592712 17.5340576172 60.2797851563
32.3803176880 17.5197257996 60.0772056580
32.3638191223 17.5092144012 59.8756675720
32.3586959839 17.5042381287 59.6756820679
32.3632469177 17.5039768219 59.4770355225
32.3721656799 17.5058403015 59.2789955139
32.3806304932 17.5074825287 59.0808906555
32.3872375488 17.5082206726 58.8825149536
32.3939361572 17.5090026855 58.6841468811
32.4041252136 17.5114879608 58.4862785339
32.4205513000 17.5170059204 58.2893104553
32.4435157776 17.5257110596 58.0933036804
32.4703369141 17.5362949371 57.8978729248
32.4968681335 17.5467376709 57.7024269104
32.5200119019 17.5555286407 57.5065002441
32.5388793945 17.5622406006 57.3099594116
32.5539207458 17.5670852661 57.1128578186
32.5656318665 17.5703105927 56.9152641296
32.5742454529 17.5720272064 56.7172088623
32.5802536011 17.5724735260 56.5187530518
32.5851249695 17.5723667145 56.3201217651
32.5916786194 17.5730781555 56.1217346191
32.6036720276 17.5764408112 55.9241790771
32.6245613098 17.5841350555 55.7279891968
32.6564369202 17.5971832275 55.5335159302
32.6997680664 17.6158123016 55.3408508301
32.7526741028 17.6391067505 55.1497230530
32.8092117310 17.6641712189 54.9592247009
32.8593368530 17.6861114502 54.7677803040
32.8929748535 17.7000217438 54.5737876892
32.9051895142 17.7034931183 54.3764228821
32.8975067139 17.6972694397 54.1758880615
32.8750419617 17.6838455200 53.9729576111
32.8435783386 17.6660346985 53.7685356140
32.8088340759 17.6466255188 53.5635223389
32.7763099670 17.6282958984 53.3588066101
32.7497138977 17.6128540039 53.1549949646
32.7295036316 17.6005249023 52.9521751404
32.7136459351 17.5903148651 52.7500305176
32.7000999451 17.5812320709 52.5482292175
32.6886978149 17.5731906891 52.3467483521
32.6810722351 17.5669937134 52.1458663940
32.6794509888 17.5637187958 51.9459609985
32.6854286194 17.5641479492 51.7473144531
32.6989288330 17.5682449341 51.5499305725
32.7178268433 17.5749702454 51.3534660339
32.7392158508 17.5829086304 51.1574363708
32.7615699768 17.5913200378 50.9615821838
32.7851562500 17.6003303528 50.7659606934
32.8098487854 17.6098823547 50.5705451965
32.8329620361 17.6186637878 50.3748779297
32.8498420715 17.6244068146 50.1781425476
32.8572845459 17.6255512238 49.9797744751
32.8576354980 17.6232376099 49.7801589966
32.8605384827 17.6221675873 49.5809822083
32.8788185120 17.6285934448 49.3845024109
32.9187088013 17.6455535889 49.1918601990
32.9728851318 17.6694774628 49.0017967224
33.0244140625 17.6921119690 48.8113212585
33.0574226379 17.7057189941 48.6175880432
33.0637702942 17.7063293457 48.4190902710
