19.3033542633 -49.6195869446 17.6520404816
19.2790451050 -49.5530281067 17.4414443970
19.2626323700 -49.5067367554 17.2361354828
19.2535533905 -49.4792747498 17.0357723236
19.2508029938 -49.4680557251 16.8397006989
19.2541255951 -49.4724311829 16.6477794647
19.2638492584 -49.4932365417 16.4602603912
19.2795791626 -49.5294685364 16.2769088745
19.2994098663 -49.5762329102 16.0964336395
19.3208580017 -49.6271438599 15.9171314240
19.3426265717 -49.6788825989 15.7381114960
19.3649730682 -49.7321052551 15.5595531464
19.3881130219 -49.7873687744 15.3816118240
19.4106979370 -49.8412055969 15.2033433914
19.4302177429 -49.8871765137 15.0229864120
19.4447631836 -49.9203758240 14.8391799927
19.4540672302 -49.9401130676 14.6517095566
19.4590187073 -49.9486770630 14.4611797333
19.4606513977 -49.9487113953 14.2682971954
19.4595146179 -49.9416427612 14.0734405518
19.4555644989 -49.9273490906 13.8765621185
19.4481906891 -49.9042549133 13.6772098541
19.4363670349 -49.8697395325 13.4746360779
19.4192562103 -49.8216438293 13.2682151794
19.3971652985 -49.7607574463 13.0581417084
19.3721675873 -49.6924018860 12.8458852768
19.3478069305 -49.6256790161 12.6339883804
19.3283596039 -49.5715713501 12.4255533218
19.3180618286 -49.5409660339 12.2236795425
19.3198451996 -49.5413856506 12.0305461884
19.3339538574 -49.5734634399 11.8463907242
19.3579006195 -49.6308059692 11.6694574356
19.3878307343 -49.7035140991 11.4969749451
19.4199771881 -49.7819252014 11.3262071609
19.4516868591 -49.8592109680 11.1552104950
19.4818382263 -49.9324989319 10.9831590652
19.5100955963 -50.0009193420 10.8097934723
19.5354557037 -50.0619049072 10.6343641281
19.5560150146 -50.1105575562 10.4554395676
19.5701923370 -50.1428222656 10.2718219757
19.5777568817 -50.1580963135 10.0833024979
19.5795269012 -50.1584892273 9.8904638290
19.5764942169 -50.1465415955 9.6940155029
19.5691509247 -50.1235237122 9.4943065643
19.5573062897 -50.0889396667 9.2911701202
19.5404720306 -50.0415344238 9.0842142105
19.5187339783 -49.9815368652 8.8734798431
19.4932899475 -49.9120140076 8.6598501205
19.4657611847 -49.8371353149 8.4445362091
19.4371376038 -49.7594337463 8.2282810211
19.4079265594 -49.6802253723 8.0114660263
19.3794040680 -49.6027832031 7.7950658798
19.3542537689 -49.5340042114 7.5811390877
19.3358345032 -49.4825172424 7.3722825050
19.3267345428 -49.4549674988 7.1705222130
19.3275623322 -49.4529266357 6.9763741493
19.3368186951 -49.4725379944 6.7887306213
19.3519763947 -49.5073204041 6.6056780815
19.3706016541 -49.5510063171 6.4253535271
19.3905239105 -49.5980224609 6.2460865974
19.4096336365 -49.6429595947 6.0662403107
19.4261646271 -49.6812629700 5.8844275475
19.4393348694 -49.7109413147 5.7000265121
19.4496803284 -49.7333564758 5.5134372711
19.4585285187 -49.7519226074 5.3256907463
19.4668159485 -49.7690544128 5.1375198364
19.4740352631 -49.7834396362 4.9485168457
19.4782638550 -49.7901382446 4.7571568489
19.4774990082 -49.7840042114 4.5618352890
19.4711265564 -49.7634620667 4.3620395660
19.4601631165 -49.7311210632 4.1585497856
19.4463024139 -49.6913337708 3.9526948929
19.4310131073 -49.6478729248 3.7456357479
19.4153003693 -49.6033248901 3.5381717682
19.3997192383 -49.5591049194 3.3307447433
19.3844795227 -49.5157737732 3.1235277653
19.3700027466 -49.4743957520 2.9168593884
19.3575725555 -49.4382743835 2.7117824554
19.3493156433 -49.4128761292 2.5100305080
19.3474559784 -49.4039230347 2.3134310246
19.3535957336 -49.4155273438 2.1233203411
19.3683929443 -49.4493865967 1.9402755499
19.3913803101 -49.5042953491 1.7639585733
19.4207801819 -49.5756835938 1.5929552317
19.4535121918 -49.6556396484 1.4247707129
19.4856224060 -49.7340011597 1.2561728954
19.5131359100 -49.8005485535 1.0838816166
19.5329952240 -49.8474273682 0.9053515792
19.5438327789 -49.8711090088 0.7194094658
19.5464839935 -49.8737564087 0.5267059803
19.5441112518 -49.8634872437 0.3298236430
19.5411720276 -49.8517608643 0.1324474663
-40.7066154480 -32.6289443970 87.4889907837
-40.7376251221 -32.6523513794 87.3018341064
-40.7891349792 -32.6909713745 87.1157379150
-40.8505859375 -32.7369651794 86.9302291870
-40.9125213623 -32.7833175659 86.7448272705
-40.9696846008 -32.8261299133 86.5592651367
-41.0205879211 -32.8642959595 86.3734512329
-41.0651702881 -32.8977737427 86.1873703003
-41.1027450562 -32.9260520935 86.0009613037
-41.1311607361 -32.9475326538 85.8141021729
-41.1477470398 -32.9602394104 85.6266098022
-41.1517372131 -32.9636001587 85.4384155273
-41.1457138062 -32.9595298767 85.2496414185
-41.1340255737 -32.9512557983 85.0605239868
-41.1196517944 -32.9409866333 84.8712158203
-41.1025199890 -32.9286766052 84.6817169189
-41.0804748535 -32.9127197266 84.4918746948
-41.0513801575 -32.8915328979 84.3015670776
-41.0141906738 -32.8643379211 84.1106948853
-40.9681472778 -32.8305778503 83.9191970825
-40.9118652344 -32.7892189026 83.7269668579
-40.8443641663 -32.7395362854 83.5339202881
-40.7674522400 -32.6828765869 83.3401412964
-40.6868591309 -32.6234817505 83.1459884644
-40.6112060547 -32.5677490234 82.9520339966
-40.5502204895 -32.5229034424 82.7589492798
-40.5131759644 -32.4958190918 82.5674133301
-40.5066375732 -32.4913673401 82.3779296875
-40.5317611694 -32.5104103088 82.1906509399
-40.5833587646 -32.5490913391 82.0052795410
-40.6521453857 -32.6005249023 81.8212203979
-40.7288970947 -32.6578674316 81.6378326416
-40.8074226379 -32.7165260315 81.4546890259
-40.8840904236 -32.7738075256 81.2715301514
-40.9555320740 -32.8272094727 81.0880813599
-41.0175094604 -32.8735923767 80.9040222168
-41.0657768250 -32.9098014832 80.7190093994
-41.0974121094 -32.9336700439 80.5327682495
-41.1114006042 -32.9444465637 80.3451995850
-41.1084556580 -32.9426612854 80.1563110352
-41.0905532837 -32.9297790527 79.9662246704
-41.0605926514 -32.9079513550 79.7751312256
-41.0216865540 -32.8794860840 79.5832595825
-40.9758834839 -32.8459053040 79.3907546997
-40.9236259460 -32.8075370789 79.1976318359
-40.8652648926 -32.7646369934 79.0039215088
-40.8035850525 -32.7192802429 78.8098220825
-40.7442703247 -32.6756744385 78.6158294678
-40.6931266785 -32.6381301880 78.4224395752
-40.6531066895 -32.6088409424 78.2299194336
-40.6245155334 -32.5880279541 78.0383300781
-40.6075820923 -32.5758666992 77.8477096558
-40.6038017273 -32.5734634399 77.6582336426
-40.6143074036 -32.5816574097 77.4700164795
-40.6376724243 -32.5993919373 77.2829742432
-40.6697769165 -32.6236076355 77.0967636108
-40.7054519653 -32.6504745483 76.9109191895
-40.7403945923 -32.6767997742 76.7250518799
-40.7723312378 -32.7008934021 76.5389480591
-40.8009719849 -32.7225418091 76.3525848389
-40.8268852234 -32.7421646118 76.1659927368
-40.8502998352 -32.7599372864 75.9791946411
-40.8707504272 -32.7755088806 75.7921371460
-40.8874588013 -32.7883033752 75.6047439575
-40.8998756409 -32.7979125977 75.4169464111
-40.9079246521 -32.8042869568 75.2287292480
-40.9117279053 -32.8075065613 75.0400924683
-40.9110450745 -32.8074035645 74.8510055542
-40.9047851563 -32.8031578064 74.6613388062
-40.8906250000 -32.7930526733 74.4708557129
-40.8650817871 -32.7745018005 74.2791671753
-40.8246421814 -32.7449035645 74.0858917236
-40.7680664063 -32.7033309937 73.8908615112
-40.6979598999 -32.6517257690 73.6943130493
-40.6199989319 -32.5942916870 73.4968185425
-40.5409011841 -32.5360145569 73.2990646362
-40.4670982361 -32.4816627502 73.1017608643
-40.4034233093 -32.4348297119 72.9054260254
-40.3516273499 -32.3968048096 72.7102813721
-40.3106575012 -32.3668136597 72.5162353516
-40.2789993286 -32.3437309265 72.3231506348
-40.2561416626 -32.3271751404 72.1309890747
-40.2418251038 -32.3169555664 71.9397354126
-40.2348365784 -32.3121719360 71.7492904663
-40.2330741882 -32.3112678528 71.5594177246
-40.2342872620 -32.3125686646 71.3698730469
-40.2365760803 -32.3146667480 71.1804504395
-40.2385101318 -32.3165054321 70.9909744263
-40.2390556335 -32.3173103333 70.8013381958
-40.2373313904 -32.3164329529 70.6114273071
-40.2322387695 -32.3130569458 70.4211120605
-40.2221755981 -32.3059959412 70.2301864624
-40.2052459717 -32.2938385010 70.0384140015
-40.1800537109 -32.2755508423 69.8456039429
-40.1461639404 -32.2508125305 69.6516952515
-40.1037788391 -32.2197723389 69.4566879272
-40.0537681580 -32.1830787659 69.2606735229
-39.9982490540 -32.1422958374 69.0638885498
-39.9398574829 -32.0993804932 68.8666534424
-39.8797721863 -32.0552101135 68.6690979004
-39.8175544739 -32.0094604492 68.4711837769
-39.7533721924 -31.9622535706 68.2729110718
-39.6889038086 -31.9148330688 68.0744934082
-39.6260185242 -31.8685874939 67.8761749268
-39.5671043396 -31.8252906799 67.6782608032
-39.5186767578 -31.7897682190 67.4816131592
-39.4926109314 -31.7708358765 67.2878112793
-39.4999122620 -31.7766551971 67.0983505249
-39.5406951904 -31.8073120117 66.9133224487
-39.6004791260 -31.8520603180 66.7308807373
-39.6576004028 -31.8948364258 66.5481719971
-39.6947593689 -31.9228038788 66.3628540039
-39.7041168213 -31.9301471710 66.1738128662
-39.6851921082 -31.9165096283 65.9809341431
-39.6426506042 -31.8853588104 65.7847747803
-39.5864830017 -31.8440971375 65.5866699219
-39.5300598145 -31.8026447296 65.3884277344
-39.4840507507 -31.7689228058 65.1915512085
-39.4504547119 -31.7444057465 64.9963302612
-39.4217491150 -31.7235126495 64.8017349243
-39.3859252930 -31.6973457336 64.6060867310
-39.3338279724 -31.6591033936 64.4080505371
-39.2638130188 -31.6075744629 64.2073593140
-39.1817665100 -31.5471172333 64.0048141479
-39.0980415344 -31.4854183197 63.8018989563
-39.0238456726 -31.4307861328 63.6002311707
-38.9677886963 -31.3896083832 63.4010925293
-38.9333992004 -31.3645057678 63.2050514221
-38.9191284180 -31.3543243408 63.0119247437
-38.9206886292 -31.3558864594 62.8211212158
-38.9334678650 -31.3657703400 62.6319885254
-38.9533462524 -31.3809185028 62.4439353943
-38.9764595032 -31.3984680176 62.2563972473
-38.9989776611 -31.4155750275 62.0687942505
-39.0172386169 -31.4295234680 61.8805694580
-39.0280990601 -31.4379844666 61.6912307739
-39.0294036865 -31.4393558502 61.5004272461
-39.0202636719 -31.4329795837 61.3080024719
-39.0008316040 -31.4189701080 61.1139526367
-38.9711952209 -31.3973922729 60.9182662964
-38.9299507141 -31.3672046661 60.7207031250
-38.8738479614 -31.3259963989 60.5207176208
-38.8000831604 -31.2716884613 60.3178291321
-38.7106590271 -31.2057628632 60.1123237610
-38.6149597168 -31.1351852417 59.9056625366
-38.5259475708 -31.0695667267 59.6999206543
-38.4507484436 -31.0141963959 59.4962730408
-38.3841400146 -30.9651966095 59.2938957214
-38.3131637573 -30.9129581451 59.0906944275
-38.2313652039 -30.8526897430 58.8855972290
-38.1505279541 -30.7931385040 58.6805229187
-38.0966529846 -30.7535858154 58.4797859192
-38.0896186829 -30.7487735748 58.2867660522
-38.1252021790 -30.7755718231 58.1008605957
-38.1788749695 -30.8157882690 57.9180412292
-38.2261352539 -30.8512477875 57.7342185974
-38.2568550110 -30.8744392395 57.5476531982
-38.2734680176 -30.8871669769 57.3587226868
-38.2821311951 -30.8939990997 57.1684494019
-38.2872924805 -30.8982315063 56.9775810242
-38.2909927368 -30.9013843536 56.7864570618
-38.2936401367 -30.9037532806 56.5951499939
-38.2941055298 -30.9045028687 56.4034576416
-38.2890014648 -30.9011249542 56.2107849121
-38.2724151611 -30.8892269135 56.0160751343
-38.2381439209 -30.8642158508 55.8182029724
-38.1845855713 -30.8248958588 55.6168479919
-38.1175041199 -30.7755508423 55.4129905701
-38.0457572937 -30.7227420807 55.2081871033
-37.9724464417 -30.6687736511 55.0029792786
-37.8914871216 -30.6091346741 54.7962684631
-37.7952499390 -30.5381660461 54.5866546631
-37.6866302490 -30.4580097198 54.3746223450
-37.5820426941 -30.3808460236 54.1631546021
-37.5002708435 -30.3206043243 53.9557075500
-37.4487991333 -30.2828369141 53.7537155151
-37.4217491150 -30.2631835938 53.5561637878
-37.4080276489 -30.2534122467 53.3610458374
-37.3981628418 -30.2465038300 53.1666145325
-37.3851776123 -30.2372817993 52.9715805054
-37.3636665344 -30.2217330933 52.7749061584
-37.3305816650 -30.1976051331 52.5760040283
-37.2859001160 -30.1648750305 52.3748359680
-37.2302398682 -30.1240005493 52.1714973450
-37.1620559692 -30.0738391876 51.9656639099
-37.0797080994 -30.0131721497 51.7569961548
-36.9873695374 -29.9450988770 51.5462570190
-36.8965797424 -29.8781719208 51.3356704712
-36.8194999695 -29.8214130402 51.1276016235
-36.7605171204 -29.7780780792 50.9229431152
-36.7148170471 -29.7445926666 50.7207908630
-36.6750373840 -29.7154998779 50.5197296143
-36.6400756836 -29.6899795532 50.3195457458
-36.6180267334 -29.6740360260 50.1218681335
-36.6193389893 -29.6754169464 49.9288063049
-36.6465530396 -29.6960105896 49.7409248352
-36.6922912598 -29.7303409576 49.5568008423
-36.7464981079 -29.7709522247 49.3744468689
-36.8022079468 -29.8126773834 49.1924743652
-36.8544158936 -29.8518047333 49.0098686218
-36.8978652954 -29.8844375610 48.8255500793
-36.9281883240 -29.9073371887 48.6386032104
-36.9433670044 -29.9190025330 48.4485816956
-36.9428443909 -29.9190235138 48.2553367615
-36.9267234802 -29.9074764252 48.0588493347
-36.8970794678 -29.8859004974 47.8595161438
-36.8589935303 -29.8580646515 47.6583709717
-36.8178749084 -29.8279800415 47.4565200806
-36.7752952576 -29.7968082428 47.2542877197
-36.7299537659 -29.7635936737 47.0513992310
-36.6854438782 -29.7309913635 46.8486099243
-36.6559906006 -29.7095584869 46.6489448547
-36.6597404480 -29.7127475739 46.4563140869
-36.7028045654 -29.7450962067 46.2721023560
-36.7715530396 -29.7964897156 46.0934753418
-36.8433647156 -29.8501567841 45.9156074524
-36.9036598206 -29.8952789307 45.7353477478
-36.9507102966 -29.9305839539 45.5522994995
-36.9880523682 -29.9586849213 45.3671951294
-37.0175018311 -29.9809360504 45.1804161072
-37.0386428833 -29.9970226288 44.9918518066
-37.0502700806 -30.0060520172 44.8012123108
-37.0504112244 -30.0065670013 44.6080436707
-37.0358581543 -29.9961853027 44.4116058350
-37.0032653809 -29.9724216461 44.2111167908
-36.9516563416 -29.9345569611 44.0063133240
-36.8841705322 -29.8849201202 43.7978630066
-36.8076934814 -29.8286132813 43.5872764587
-36.7314872742 -29.7725105286 43.3766212463
-36.6655044556 -29.7239875793 43.1681594849
-36.6170616150 -29.6884727478 42.9635734558
-36.5875663757 -29.6670093536 42.7632331848
-36.5732383728 -29.6567935944 42.5663108826
-36.5693855286 -29.6543464661 42.3717689514
-36.5738449097 -29.6580638885 42.1791305542
-36.5874748230 -29.6685810089 41.9886131287
-36.6129493713 -29.6878814697 41.8008575439
-36.6526947021 -29.7177677155 41.6164588928
-36.7061843872 -29.7578449249 41.4353294373
-36.7680358887 -29.8041210175 41.2562370300
-36.8290634155 -29.8497848511 41.0770416260
-36.8798751831 -29.8878765106 40.8955192566
-36.9144630432 -29.9139366150 40.7102279663
-36.9316596985 -29.9270992279 40.5208473206
-36.9341926575 -29.9293861389 40.3279876709
-36.9261512756 -29.9238319397 40.1325988770
-36.9105148315 -29.9126472473 39.9353637695
-36.8881225586 -29.8964500427 39.7364692688
-36.8581085205 -29.8746032715 39.5356903076
-36.8193473816 -29.8462715149 39.3327407837
-36.7728958130 -29.8122329712 39.1278495789
-36.7238197327 -29.7762508392 38.9222373962
-36.6795730591 -29.7438507080 38.7177238464
-36.6457252502 -29.7191581726 38.5156860352
-36.6234512329 -29.7030525208 38.3164405823
-36.6108283997 -29.6941013336 38.1195335388
-36.6053962708 -29.6904850006 37.9243850708
-36.6054420471 -29.6909275055 37.7305793762
-36.6098899841 -29.6946372986 37.5378646851
-36.6179618835 -29.7010345459 37.3460540771
-36.6290168762 -29.7096424103 37.1549987793
-36.6425323486 -29.7200737000 36.9645729065
-36.6579742432 -29.7319355011 36.7746467590
-36.6745643616 -29.7446479797 36.5850257874
-36.6910896301 -29.7573127747 36.3954086304
-36.7059783936 -29.7687606812 36.2053947449
-36.7175331116 -29.7777404785 36.0145416260
-36.7243003845 -29.7831687927 35.8224716187
-36.7254219055 -29.7844104767 35.6289520264
-36.7208557129 -29.7814350128 35.4339599609
-36.7110214233 -29.7745532990 35.2375869751
-36.6957893372 -29.7636680603 35.0397911072
-36.6730079651 -29.7471866608 34.8400001526
-36.6375083923 -29.7212715149 34.6368408203
-36.5827064514 -29.6810474396 34.4285659790
-36.5071258545 -29.6254138947 34.2147331238
-36.4227409363 -29.5632514954 33.9984588623
-36.3553543091 -29.5136947632 33.7865371704
-36.3304748535 -29.4956569672 33.5857658386
-36.3544807434 -29.5138702393 33.3979492188
-36.4100646973 -29.5554962158 33.2185783386
-36.4708671570 -29.6009922028 33.0406837463
-36.5196495056 -29.6375770569 32.8596534729
-36.5534210205 -29.6630306244 32.6746559143
-36.5762710571 -29.6803836823 32.4867553711
-36.5918006897 -29.6923084259 32.2969017029
-36.6020126343 -29.7002925873 32.1056213379
-36.6094055176 -29.7061843872 31.9135818481
-36.6164283752 -29.7118015289 31.7214469910
-36.6228981018 -29.7170104980 31.5291633606
-36.6260833740 -29.7197837830 31.3359813690
-36.6236915588 -29.7184200287 31.1412601471
-36.6150474548 -29.7124214172 30.9448032379
-36.5991058350 -29.7010116577 30.7463035583
-36.5727920532 -29.6819114685 30.5448932648
-36.5324935913 -29.6524429321 30.3395404816
-36.4776268005 -29.6121711731 30.1300487518
-36.4131774902 -29.5647926331 29.9177818298
-36.3488006592 -29.5174713135 29.7054252625
-36.2945480347 -29.4776554108 29.4958114624
-36.2562370300 -29.4496612549 29.2906055450
-36.2342071533 -29.4337368011 29.0899391174
-36.2257080078 -29.4278469086 28.8930721283
-36.2281570435 -29.4300765991 28.6993026733
-36.2408866882 -29.4399242401 28.5084609985
-36.2654914856 -29.4585800171 28.3210315704
-36.3051795959 -29.4884204865 28.1379623413
-36.3621215820 -29.5310516357 27.9599132538
-36.4329681396 -29.5839939117 27.7859592438
-36.5067520142 -29.6391105652 27.6129570007
-36.5691871643 -29.6858158112 27.4367694855
-36.6102104187 -29.7166461945 27.2544460297
-36.6269569397 -29.7294731140 27.0650939941
-36.6206817627 -29.7252311707 26.8690280914
-36.5933265686 -29.7053604126 26.6667613983
-36.5474739075 -29.6717739105 26.4590053558
-36.4876594543 -29.6278362274 26.2470531464
-36.4198074341 -29.5779380798 26.0326213837
-36.3488922119 -29.5257701874 25.8171691895
-36.2775993347 -29.4733238220 25.6014862061
-36.2069091797 -29.4213237762 25.3858604431
-36.1367568970 -29.3697223663 25.1702804565
-36.0667381287 -29.3182201385 24.9546203613
-35.9991607666 -29.2685279846 24.7395763397
-35.9427070618 -29.2270812988 24.5277671814
-35.9101829529 -29.2033824921 24.3230876923
-35.9096031189 -29.2033653259 24.1280193329
-35.9371604919 -29.2242088318 23.9414806366
-35.9795532227 -29.2560539246 23.7594928741
-36.0228347778 -29.2885551453 23.5778331757
-36.0594596863 -29.3161220551 23.3941993713
-36.0892257690 -29.3386039734 23.2085094452
-36.1158447266 -29.3587512970 23.0218925476
-36.1429405212 -29.3792533875 22.8354587555
-36.1714057922 -29.4007701874 22.6494808197
-36.1986541748 -29.4213848114 22.4631633759
-36.2199554443 -29.4375915527 22.2750339508
-36.2305603027 -29.4458637238 22.0835990906
-36.2265472412 -29.4433021545 21.8876113892
-36.2042503357 -29.4271812439 21.6858901978
-36.1601600647 -29.3949069977 21.4772891998
-36.0926094055 -29.3452377319 21.2612323761
-36.0045242310 -29.2803440094 21.0385894775
-35.9050407410 -29.2069988251 20.8121967316
-35.8070678711 -29.1347732544 20.5861186981
-35.7207183838 -29.0711688995 20.3635711670
-35.6483573914 -29.0179328918 20.1453342438
-35.5877532959 -28.9734134674 19.9307289124
-35.5411033630 -28.9392433167 19.7204856873
-35.5182189941 -28.9226894379 19.5177841187
-35.5270767212 -28.9296703339 19.3252449036
-35.5619277954 -28.9559211731 19.1410903931
-35.6050224304 -28.9882850647 18.9596462250
-35.6410675049 -29.0154228210 18.7759799957
-35.6672439575 -29.0352420807 18.5891551971
-35.6891593933 -29.0519046783 18.4009799957
-35.7110862732 -29.0685729980 18.2128353119
-35.7319755554 -29.0844726563 18.0243759155
-35.7483482361 -29.0970268250 17.8344631195
-35.7577400208 -29.1044025421 17.6422729492
-35.7588806152 -29.1056613922 17.4473724365
-35.7500610352 -29.0995368958 17.2491760254
-35.7283935547 -29.0838851929 17.0467071533
-35.6910324097 -29.0566024780 16.8389892578
-35.6376342773 -29.0174274445 16.6258716583
-35.5720863342 -28.9692459106 16.4086132050
-35.5017204285 -28.9174938202 16.1896343231
-35.4340248108 -28.8677215576 15.9714317322
-35.3734970093 -28.8232612610 15.7555198669
-35.3213920593 -28.7850475311 15.5423393250
-35.2778129578 -28.7531547546 15.3319454193
-35.2434730530 -28.7281093597 15.1245975494
-35.2201271057 -28.7112178802 14.9209136963
-35.2098579407 -28.7040176392 14.7216253281
-35.2130622864 -28.7068080902 14.5269002914
-35.2265052795 -28.7171878815 14.3356647491
-35.2440567017 -28.7306137085 14.1458492279
-35.2600250244 -28.7428665161 13.9555101395
-35.2716217041 -28.7518787384 13.7636861801
-35.2786598206 -28.7575130463 13.5703039169
-35.2818946838 -28.7603244781 13.3756113052
-35.2816734314 -28.7605743408 13.1797208786
-35.2771034241 -28.7576007843 12.9823150635
-35.2654457092 -28.7493724823 12.7824306488
-35.2421951294 -28.7325496674 12.5784826279
-35.2025566101 -28.7035827637 12.3687725067
-35.1439208984 -28.6605281830 12.1523437500
-35.0679817200 -28.6046466827 11.9297485352
-34.9814147949 -28.5408878326 11.7032918930
-34.8946800232 -28.4770050049 11.4766311646
-34.8189773560 -28.4212989807 11.2537202835
-34.7623062134 -28.3797035217 11.0374164581
-34.7267913818 -28.3537902832 10.8285150528
-34.7093658447 -28.3412895203 10.6259803772
-34.7053451538 -28.3387241364 10.4281835556
-34.7120437622 -28.3441047668 10.2341976166
-34.7301826477 -28.3579673767 10.0443058014
-34.7624511719 -28.3823051453 9.8595027924
-34.8103828430 -28.4182510376 9.6803674698
-34.8722457886 -28.4645252228 9.5063171387
-34.9439392090 -28.5180892944 9.3359041214
-35.0211372375 -28.5757331848 9.1675872803
-35.0997276306 -28.6344051361 8.9998865128
-35.1748771667 -28.6905307770 8.8310537338
-35.2411384583 -28.7400627136 8.6590957642
-35.2937355042 -28.7794704437 8.4822502136
-35.3297538757 -28.8065853119 8.2994184494
-35.3483619690 -28.8207931519 8.1102571487
-35.3502845764 -28.8226356506 7.9149918556
-35.3371009827 -28.8132762909 7.7141618729
-35.3105850220 -28.7940349579 7.5083885193
-35.2721977234 -28.7659931183 7.2981796265
-35.2233848572 -28.7302227020 7.0840406418
-35.1669616699 -28.6888122559 6.8669939041
-35.1076354980 -28.6452522278 6.6487708092
-35.0495834351 -28.6026363373 6.4309220314
-34.9927597046 -28.5609264374 6.2134308815
-34.9317359924 -28.5161094666 5.9942727089
-34.8591194153 -28.4626941681 5.7706608772
-34.7718391418 -28.3984107971 5.5414171219
-34.6759490967 -28.3277454376 5.3087854385
-34.5851364136 -28.2608451843 5.0779113770
-34.5131530762 -28.2079029083 4.8540067673
-34.4666137695 -28.1738224030 4.6396236420
-34.4441184998 -28.1575641632 4.4342904091
-34.4406127930 -28.1553821564 4.2361397743
-34.4516525269 -28.1639823914 4.0435218811
-34.4748611450 -28.1816024780 3.8555638790
-34.5092277527 -28.2074947357 3.6719079018
-34.5533103943 -28.2405872345 3.4920246601
-34.6030769348 -28.2778949738 3.3143894672
-34.6512336731 -28.3140048981 3.1362032890
-34.6894950867 -28.3427829742 2.9542663097
-34.7121429443 -28.3599891663 2.7663421631
-34.7174720764 -28.3643550873 2.5717318058
-34.7069931030 -28.3570041656 2.3709819317
-34.6848335266 -28.3409957886 2.1656618118
-34.6574592590 -28.3211193085 1.9582649469
-34.6316375732 -28.3023948669 1.7514233589
-34.6111907959 -28.2876567841 1.5466386080
-34.5957794189 -28.2766513824 1.3437900543
-34.5826873779 -28.2673625946 1.1418201923
-34.5691261292 -28.2577266693 0.9396377206
-34.5532073975 -28.2463436127 0.7364946008
-34.5341567993 -28.2326393127 0.5320806503
-34.5128593445 -28.2172718048 0.3267385066
-34.4920616150 -28.2022724152 0.1215529442
5.1574344635 -47.7243156433 90.0779800415
5.1641387939 -47.7666740417 89.8860321045
5.1747174263 -47.8406600952 89.6947326660
5.1866326332 -47.9255638123 89.5037231445
5.1978540421 -48.0048103333 89.3126907349
5.2071852684 -48.0686302185 89.1214294434
5.2141537666 -48.1131629944 88.9298171997
5.2189049721 -48.1395950317 88.7378463745
5.2220344543 -48.1527824402 88.5455932617
5.2242450714 -48.1584701538 88.3531723022
5.2260131836 -48.1605415344 88.1606674194
5.2274374962 -48.1598052979 87.9680862427
5.2282605171 -48.1541633606 87.7753677368
5.2280039787 -48.1396942139 87.5824050903
5.2261734009 -48.1123733521 87.3890762329
5.2225236893 -48.0701904297 87.1953125000
5.2172660828 -48.0148696899 87.0011215210
5.2111926079 -47.9528770447 86.8066635132
5.2057280540 -47.8958587646 86.6122665405
5.2027187347 -47.8588905334 86.4183807373
5.2037653923 -47.8550529480 86.2254409790
5.2095565796 -47.8899726868 86.0336685181
5.2199201584 -47.9622535706 85.8430938721
5.2344312668 -48.0684318542 85.6536788940
5.2527065277 -48.2053642273 85.4653854370
5.2740969658 -48.3677635193 85.2780838013
5.2973265648 -48.5452079773 85.0914764404
5.3205852509 -48.7228965759 84.9050750732
5.3420476913 -48.8859252930 84.7183761597
5.3604097366 -49.0236244202 84.5309600830
5.3751149178 -49.1314468384 84.3426284790
5.3862595558 -49.2101821899 84.1533584595
5.3943357468 -49.2638397217 83.9632339478
5.3999896049 -49.2977027893 83.7724151611
5.4039111137 -49.3174133301 83.5810852051
5.4067797661 -49.3285140991 83.3894348145
5.4091529846 -49.3355636597 83.1976242065
5.4113321304 -49.3410263062 83.0057525635
5.4133162498 -49.3449020386 82.8138122559
5.4148826599 -49.3453559875 82.6217269897
5.4157519341 -49.3401107788 82.4293975830
5.4158306122 -49.3283996582 82.2367706299
5.4154925346 -49.3132820129 82.0439758301
5.4157066345 -49.3026733398 81.8513488770
5.4177412987 -49.3069572449 81.6593627930
5.4225301743 -49.3337554932 81.4683914185
5.4302630424 -49.3846359253 81.2785415649
5.4406065941 -49.4568634033 81.0897369385
5.4531793594 -49.5473327637 80.9018554688
5.4677357674 -49.6540298462 80.7148513794
5.4840483665 -49.7751007080 80.5286560059
5.5017414093 -49.9074668884 80.3431472778
5.5200757980 -50.0450897217 80.1580505371
5.5377769470 -50.1775436401 79.9728546143
5.5532760620 -50.2919921875 79.7868957520
5.5654263496 -50.3790588379 79.5996704102
5.5740909576 -50.4376106262 79.4110641479
5.5800275803 -50.4738540649 79.2213516235
5.5842580795 -50.4961395264 79.0309371948
5.5875377655 -50.5106430054 78.8401260376
5.5901899338 -50.5200157166 78.6490402222
5.5921516418 -50.5237388611 78.4576492310
5.5931186676 -50.5193252563 78.2658081055
5.5928435326 -50.5047416687 78.0733795166
5.5913910866 -50.4805221558 77.8803787231
5.5890445709 -50.4489860535 77.6869277954
5.5860519409 -50.4121551514 77.4931182861
5.5826926231 -50.3723258972 77.2990798950
5.5795226097 -50.3340377808 77.1050796509
5.5772862434 -50.3033905029 76.9114761353
5.5766172409 -50.2855682373 76.7185974121
5.5780148506 -50.2846603394 76.5267181396
5.5820717812 -50.3055191040 76.3361587524
5.5895013809 -50.3539886475 76.1473388672
5.6007637978 -50.4338417053 75.9605178833
5.6156487465 -50.5433578491 75.7756729126
5.6332621574 -50.6752166748 75.5923690796
5.6524014473 -50.8195762634 75.4100189209
5.6719269753 -50.9671134949 75.2280426025
5.6908612251 -51.1098175049 75.0459136963
5.7083368301 -51.2405891418 74.8631668091
5.7236213684 -51.3534317017 74.6793670654
5.7362828255 -51.4447975159 74.4942474365
5.7462930679 -51.5144577026 74.3077468872
5.7539210320 -51.5646171570 74.1199874878
5.7595438957 -51.5983543396 73.9311447144
5.7635407448 -51.6187744141 73.7414093018
5.7661609650 -51.6279220581 73.5508880615
5.7673039436 -51.6249694824 73.3595123291
5.7665476799 -51.6064605713 73.1670074463
5.7636651993 -51.5705337524 72.9732131958
5.7591810226 -51.5214805603 72.7784118652
5.7542605400 -51.4688491821 72.5832748413
5.7500314713 -51.4218750000 72.3884887695
5.7470788956 -51.3853569031 72.1944198608
5.7455105782 -51.3601760864 72.0011444092
5.7452960014 -51.3460884094 71.8086776733
5.7465257645 -51.3438262939 71.6170883179
5.7495145798 -51.3559837341 71.4265975952
5.7547802925 -51.3867988586 71.2375564575
5.7628059387 -51.4402313232 71.0503234863
5.7736401558 -51.5166816711 70.8649520874
5.7866721153 -51.6111488342 70.6811065674
5.8008604050 -51.7151069641 70.4981231689
5.8151526451 -51.8199195862 70.3153228760
5.8286681175 -51.9183692932 70.1321182251
5.8407077789 -52.0047340393 69.9480438232
5.8508081436 -52.0752105713 69.7627487183
5.8587808609 -52.1282424927 69.5760803223
5.8646473885 -52.1640205383 69.3880233765
5.8685665131 -52.1838340759 69.1986541748
5.8707647324 -52.1895370483 69.0081024170
5.8714528084 -52.1828613281 68.8164901733
5.8708338737 -52.1654663086 68.6239318848
5.8692131042 -52.1398582458 68.4306335449
5.8669805527 -52.1092300415 68.2368621826
5.8643751144 -52.0755386353 68.0427703857
5.8614158630 -52.0389480591 67.8483734131
5.8582606316 -52.0007438660 67.6537780762
5.8555240631 -51.9659690857 67.4594345093
5.8540973663 -51.9419326782 67.2660140991
5.8547630310 -51.9350585938 67.0741119385
5.8580999374 -51.9500885010 66.8842010498
5.8644938469 -51.9901924133 66.6966094971
5.8739538193 -52.0554504395 66.5113983154
5.8859143257 -52.1412239075 66.3281707764
5.8993654251 -52.2392272949 66.1461868286
5.9131665230 -52.3401145935 65.9645843506
5.9262518883 -52.4351348877 65.7825317383
5.9378175735 -52.5176925659 65.5994033813
5.9475760460 -52.5854339600 65.4149246216
5.9557557106 -52.6402244568 65.2292709351
5.9627161026 -52.6850128174 65.0426940918
5.9685778618 -52.7207870483 64.8552780151
5.9732608795 -52.7468948364 64.6669387817
5.9767599106 -52.7632904053 64.4776611328
5.9792041779 -52.7710266113 64.2875213623
5.9806013107 -52.7701721191 64.0965194702
5.9806609154 -52.7583389282 63.9043960571
5.9790105820 -52.7324714661 63.7108192444
5.9756641388 -52.6926765442 63.5157737732
5.9712767601 -52.6443405151 63.3197937012
5.9669075012 -52.5961418152 63.1237564087
5.9634747505 -52.5556297302 62.9284553528
5.9614372253 -52.5265655518 62.7342987061
5.9609398842 -52.5101470947 62.5414314270
5.9622015953 -52.5081634521 62.3500633240
5.9657406807 -52.5248756409 62.1606864929
5.9722290039 -52.5658035278 61.9739151001
5.9820051193 -52.6337280273 61.7901000977
5.9946064949 -52.7248573303 61.6088752747
6.0087537766 -52.8286819458 61.4291381836
6.0228977203 -52.9324913025 61.2495193481
6.0359406471 -53.0272636414 61.0690193176
6.0475711823 -53.1104431152 60.8873367310
6.0579490662 -53.1833419800 60.7045974731
6.0670990944 -53.2461662292 60.5208091736
6.0747380257 -53.2965812683 60.3356895447
6.0806641579 -53.3329315186 60.1490249634
6.0849175453 -53.3555450439 59.9608306885
6.0872664452 -53.3625183105 59.7708625793
6.0869426727 -53.3475341797 59.5783653259
6.0834703445 -53.3066864014 59.3828430176
6.0775966644 -53.2461051941 59.1849632263
6.0709571838 -53.1792297363 58.9862670898
6.0649223328 -53.1173133850 58.7880630493
6.0599870682 -53.0644264221 58.5908432007
6.0560584068 -53.0198059082 58.3945350647
6.0530138016 -52.9824447632 58.1990280151
6.0510377884 -52.9538650513 58.0045204163
6.0506801605 -52.9385719299 57.8115768433
6.0526933670 -52.9427680969 57.6209640503
6.0576648712 -52.9712715149 57.4333114624
6.0655550957 -53.0237617493 57.2486267090
6.0755658150 -53.0936851501 57.0661392212
6.0866270065 -53.1722450256 56.8847961426
6.0980262756 -53.2535896301 56.7038841248
6.1094207764 -53.3349037170 56.5230598450
6.1203417778 -53.4123268127 56.3418388367
6.1300282478 -53.4796142578 56.1594238281
6.1378169060 -53.5312995911 55.9751014709
6.1434903145 -53.5656013489 55.7886199951
6.1471891403 -53.5836715698 55.6000938416
6.1491184235 -53.5871963501 55.4097099304
6.1493339539 -53.5766258240 55.2175025940
6.1476292610 -53.5502700806 55.0232238770
6.1435036659 -53.5040054321 54.8263092041
6.1363801956 -53.4330863953 54.6260986328
6.1262140274 -53.3371429443 54.4225006104
6.1141028404 -53.2251930237 54.2166633606
6.1021499634 -53.1145362854 54.0108489990
6.0924205780 -53.0221557617 53.8073310852
6.0858955383 -52.9561195374 53.6072235107
6.0823564529 -52.9146423340 53.4103317261
6.0810546875 -52.8915596008 53.2158699036
6.0813779831 -52.8818359375 53.0231857300
6.0831289291 -52.8838615417 52.8320808411
6.0865626335 -52.8997268677 52.6428718567
6.0923309326 -52.9347953796 52.4563140869
6.1011776924 -52.9951934814 52.2732925415
6.1132488251 -53.0821228027 52.0940170288
6.1274242401 -53.1863670349 51.9172554016
6.1414890289 -53.2897148132 51.7404899597
6.1532802582 -53.3743591309 51.5612030029
6.1618008614 -53.4320983887 51.3782119751
6.1673350334 -53.4652709961 51.1917953491
6.1707339287 -53.4808731079 51.0029029846
6.1727104187 -53.4847679138 50.8123474121
6.1735725403 -53.4794960022 50.6204681396
6.1732625961 -53.4645729065 50.4271812439
6.1714491844 -53.4372749329 50.2320747375
6.1676278114 -53.3934516907 50.0345191956
6.1613297462 -53.3292388916 49.8339195251
6.1524991989 -53.2441711426 49.6301727295
6.1418366432 -53.1440200806 49.4240913391
6.1307854652 -53.0406608582 49.2174034119
6.1210393906 -52.9480323792 49.0121765137
6.1138472557 -52.8764266968 48.8099632263
6.1095895767 -52.8289718628 48.6112709045
6.1079130173 -52.8027610779 48.4157104492
6.1082973480 -52.7935142517 48.2226715088
6.1106066704 -52.8001213074 48.0320167542
6.1152906418 -52.8262786865 47.8443336487
6.1230773926 -52.8779830933 47.6605834961
6.1342301369 -52.9574127197 47.4811401367
6.1478452682 -53.0571289063 47.3049087524
6.1619319916 -53.1607322693 47.1293907166
6.1743993759 -53.2510070801 46.9519233704
6.1840691566 -53.3182449341 46.7709617615
6.1908588409 -53.3617706299 46.5863647461
6.1952571869 -53.3856010437 46.3987159729
6.1977858543 -53.3940315247 46.2086563110
6.1987786293 -53.3898124695 46.0165977478
6.1983470917 -53.3738594055 45.8226585388
6.1963715553 -53.3451805115 45.6266593933
6.1925692558 -53.3014526367 45.4282073975
6.1867666245 -53.2412452698 45.2270431519
6.1793184280 -53.1674690247 45.0236053467
6.1712737083 -53.0887718201 44.8192749023
6.1639332771 -53.0158729553 44.6157798767
6.1580533981 -52.9550056458 44.4141540527
6.1534500122 -52.9046440125 44.2141609192
6.1494183540 -52.8589935303 44.0148773193
6.1456232071 -52.8152847290 43.8158454895
6.1426734924 -52.7785453796 43.6179084778
6.1418786049 -52.7595596313 43.4228668213
6.1443886757 -52.7678070068 43.2323417664
6.1504669189 -52.8054656982 43.0467376709
6.1594142914 -52.8667755127 42.8651466370
6.1700134277 -52.9417037964 42.6859207153
6.1809358597 -53.0193061829 42.5072288513
6.1908817291 -53.0888595581 42.3272552490
6.1987428665 -53.1412353516 42.1444282532
6.2039556503 -53.1717796326 41.9579162598
6.2066426277 -53.1815032959 41.7678604126
6.2072706223 -53.1742439270 41.5748825073
6.2060780525 -53.1519813538 41.3792877197
6.2027940750 -53.1124687195 41.1806678772
6.1969380379 -53.0517425537 40.9782905579
6.1885228157 -52.9699134827 40.7721443176
6.1784744263 -52.8746032715 40.5635261536
6.1682848930 -52.7781219482 40.3545761108
6.1593155861 -52.6916961670 40.1472778320
6.1524219513 -52.6223869324 39.9428939819
6.1479759216 -52.5732536316 39.7420082092
6.1460337639 -52.5447692871 39.5447349548
6.1465649605 -52.5366821289 39.3510704041
6.1495971680 -52.5492248535 39.1610946655
6.1550559998 -52.5817832947 38.9747314453
6.1623511314 -52.6294937134 38.7911376953
6.1702513695 -52.6821975708 38.6085014343
6.1775331497 -52.7298049927 38.4249916077
6.1839456558 -52.7702445984 38.2402229309
6.1903872490 -52.8109207153 38.0555381775
6.1979255676 -52.8606529236 37.8725547791
6.2066779137 -52.9204063416 37.6914749146
6.2156534195 -52.9820060730 37.5108032227
6.2235016823 -53.0343055725 37.3284683228
6.2292804718 -53.0695304871 37.1430053711
6.2326431274 -53.0848236084 36.9538497925
6.2335476875 -53.0798225403 36.7608985901
6.2319345474 -53.0540466309 36.5640220642
6.2277250290 -53.0068397522 36.3630561829
6.2210903168 -52.9396057129 36.1582336426
6.2126350403 -52.8573455811 35.9504661560
6.2032504082 -52.7674026489 35.7411231995
6.1938772202 -52.6775474548 35.5316772461
6.1854672432 -52.5956344604 35.3236389160
6.1789336205 -52.5292091370 35.1184692383
6.1748929024 -52.4833526611 34.9171829224
6.1734991074 -52.4593505859 34.7200622559
6.1746435165 -52.4562988281 34.5269737244
6.1782684326 -52.4737319946 34.3378639221
6.1844053268 -52.5119018555 34.1528205872
6.1929044724 -52.5695838928 33.9716415405
6.2032332420 -52.6423797607 33.7934989929
6.2146015167 -52.7237625122 33.6171302795
6.2261905670 -52.8069763184 33.4412117004
6.2372021675 -52.8854255676 33.2644424438
6.2468724251 -52.9528045654 33.0855522156
6.2546615601 -53.0046463013 32.9036331177
6.2604084015 -53.0396270752 32.7183914185
6.2642273903 -53.0586853027 32.5299797058
6.2662606239 -53.0629959106 32.3386077881
6.2665205002 -53.0526504517 32.1442718506
6.2648572922 -53.0264167786 31.9466915131
6.2610235214 -52.9822578430 31.7454223633
6.2548732758 -52.9189491272 31.5401840210
6.2466478348 -52.8384895325 31.3313484192
6.2371077538 -52.7471618652 31.1201744080
6.2273206711 -52.6537857056 30.9084587097
6.2183251381 -52.5669441223 30.6979694366
6.2110128403 -52.4940032959 30.4902420044
6.2061138153 -52.4409980774 30.2865581512
6.2041039467 -52.4118614197 30.0877742767
6.2051353455 -52.4078598022 29.8941955566
6.2090635300 -52.4277954102 29.7056179047
6.2153749466 -52.4674339294 29.5211963654
6.2231359482 -52.5190505981 29.3393402100
6.2313117981 -52.5741043091 29.1582641602
6.2393217087 -52.6277885437 28.9769554138
6.2471647263 -52.6800956726 28.7954101563
6.2549057007 -52.7315673828 28.6137409210
6.2621464729 -52.7789039612 28.4312438965
6.2680807114 -52.8154449463 28.2464771271
6.2719488144 -52.8348999023 28.0580749512
6.2732982635 -52.8335380554 27.8651962280
6.2719182968 -52.8096046448 27.6674270630
6.2677659988 -52.7627449036 27.4646472931
6.2609944344 -52.6942253113 27.2570896149
6.2518453598 -52.6060333252 27.0451488495
6.2404265404 -52.4990692139 26.8289871216
6.2268147469 -52.3739585876 26.6087036133
6.2115697861 -52.2353286743 26.3852863312
6.1960577965 -52.0944824219 26.1612014771
6.1821331978 -51.9667549133 25.9398345947
6.1715097427 -51.8663177490 25.7243556976
6.1653804779 -51.8030433655 25.5170097351
6.1643977165 -51.7823410034 25.3190689087
6.1687259674 -51.8055648804 25.1309165955
6.1778616905 -51.8685607910 24.9517002106
6.1903619766 -51.9594001770 24.7788105011
6.2041068077 -52.0605430603 24.6083450317
6.2172760963 -52.1569290161 24.4369201660
6.2291684151 -52.2427558899 24.2632102966
6.2399835587 -52.3196754456 24.0875720978
6.2499074936 -52.3892250061 23.9103412628
6.2585711479 -52.4483528137 23.7308025360
6.2653217316 -52.4916572571 23.5477027893
6.2697978020 -52.5161399841 23.3603229523
6.2721500397 -52.5230445862 23.1689167023
6.2728295326 -52.5161056519 22.9743118286
6.2722706795 -52.4989166260 22.7773151398
6.2706923485 -52.4732894897 22.5783309937
6.2679944038 -52.4383926392 22.3771476746
6.2637209892 -52.3904495239 22.1728687286
6.2572255135 -52.3241081238 21.9642162323
6.2481341362 -52.2362747192 21.7504291534
6.2368540764 -52.1303062439 21.5322628021
6.2247080803 -52.0171699524 21.3122653961
6.2136073112 -51.9126739502 21.0941658020
6.2054729462 -51.8327293396 20.8817462921
6.2016105652 -51.7881469727 20.6776256561
6.2022881508 -51.7811546326 20.4823970795
6.2068543434 -51.8063583374 20.2948436737
6.2142729759 -51.8551864624 20.1129684448
6.2234506607 -51.9185829163 19.9346427917
6.2331871986 -51.9866104126 19.7575016022
6.2422537804 -52.0490989685 19.5790958405
6.2497987747 -52.0989875793 19.3977088928
6.2556004524 -52.1344375610 19.2128734589
6.2598986626 -52.1574401855 19.0250434875
6.2630872726 -52.1712570190 18.8349933624
6.2655930519 -52.1794128418 18.6435680389
6.2678766251 -52.1857299805 18.4516925812
6.2702965736 -52.1931724548 18.2600936890
6.2727408409 -52.2008209229 18.0685443878
6.2743697166 -52.2017135620 17.8753280640
6.2739124298 -52.1853179932 17.6778259277
6.2704153061 -52.1437416077 17.4740447998
6.2638115883 -52.0764160156 17.2638034821
6.2548933029 -51.9899024963 17.0486850739
6.2448625565 -51.8941688538 16.8311481476
6.2348532677 -51.7986030579 16.6135272980
6.2256736755 -51.7099037170 16.3975028992
6.2178797722 -51.6326789856 16.1842517853
6.2120399475 -51.5716438293 15.9749813080
6.2088141441 -51.5322723389 15.7711076736
6.2087492943 -51.5190925598 15.5738182068
6.2120995522 -51.5342178345 15.3836975098
6.2187848091 -51.5769920349 15.2006320953
6.2282495499 -51.6428031921 15.0234947205
6.2392683029 -51.7215042114 14.8497295380
6.2501454353 -51.7990379333 14.6757507324
6.2594203949 -51.8632965088 14.4984426498
6.2665061951 -51.9094009399 14.3165245056
6.2716999054 -51.9398269653 14.1305990219
6.2756638527 -51.9600601196 13.9420614243
6.2788305283 -51.9736824036 13.7518234253
6.2810301781 -51.9792861938 13.5595035553
6.2814784050 -51.9703636169 13.3633928299
6.2792210579 -51.9390106201 13.1613931656
6.2738323212 -51.8816757202 12.9525356293
6.2658963203 -51.8032188416 12.7380475998
6.2569832802 -51.7166481018 12.5213165283
6.2491149902 -51.6387329102 12.3067560196
6.2439117432 -51.5829200745 12.0979394913
6.2418646812 -51.5532798767 11.8959865570
6.2423510551 -51.5446510315 11.6995744705
6.2444524765 -51.5494194031 11.5067119598
6.2478079796 -51.5645904541 11.3166255951
6.2527785301 -51.5931587219 11.1301345825
6.2599611282 -51.6400794983 10.9485931396
6.2695779800 -51.7072067261 10.7725343704
6.2812080383 -51.7910385132 10.6010503769
6.2939877510 -51.8844146729 10.4322385788
6.3069734573 -51.9795074463 10.2639970779
6.3193645477 -52.0696754456 10.0945272446
6.3306155205 -52.1503868103 9.9225864410
6.3404679298 -52.2194976807 9.7475738525
6.3487410545 -52.2755050659 9.5690565109
6.3550567627 -52.3152770996 9.3861522675
6.3589639664 -52.3350524902 9.1978006363
6.3603425026 -52.3338470459 9.0036935806
6.3594551086 -52.3138351440 8.8043909073
6.3565278053 -52.2768859863 8.6003742218
6.3514857292 -52.2223739624 8.3914413452
6.3442139626 -52.1493492126 8.1772947311
6.3349528313 -52.0598068237 7.9584541321
6.3243007660 -51.9587097168 7.7362742424
6.3129038811 -51.8514137268 7.5122303963
6.3013076782 -51.7424621582 7.2875804901
6.2901206017 -51.6368904114 7.0637369156
6.2801151276 -51.5411224365 6.8425111771
6.2719802856 -51.4608840942 6.6255335808
6.2659940720 -51.3984756470 6.4134855270
6.2620949745 -51.3533973694 6.2062563896
6.2602782249 -51.3256072998 6.0038661957
6.2607173920 -51.3165473938 5.8067569733
6.2634053230 -51.3261680603 5.6149487495
6.2678914070 -51.3507194519 5.4274063110
6.2735762596 -51.3852310181 5.2427334785
6.2801666260 -51.4272651672 5.0602526665
6.2876510620 -51.4767303467 4.8799481392
6.2958235741 -51.5319137573 4.7013421059
6.3039712906 -51.5868949890 4.5227365494
6.3111138344 -51.6335296631 4.3417754173
6.3165378571 -51.6658859253 4.1567249298
6.3200449944 -51.6823272705 3.9670820236
6.3217749596 -51.6839981079 3.7731523514
6.3219227791 -51.6725196838 3.5753808022
6.3206624985 -51.6493415833 3.3741667271
6.3182225227 -51.6163558960 3.1700427532
6.3148808479 -51.5758781433 2.9636693001
6.3107891083 -51.5291595459 2.7554028034
6.3057770729 -51.4747924805 2.5448148251
6.2993621826 -51.4087600708 2.3307054043
6.2909932137 -51.3264808655 2.1116971970
6.2803583145 -51.2253570557 1.8869907856
6.2674999237 -51.1057434082 1.6566563845
6.2525348663 -50.9686088562 1.4209474325
6.2351374626 -50.8112449646 1.1790246964
6.2142577171 -50.6249198914 0.9282386899
6.1884517670 -50.3976249695 0.6649379730
6.1569223404 -50.1227264404 0.3870562613
6.1208720207 -49.8102188110 0.0975118428
-37.7128868103 -17.4701061249 89.4182281494
-37.7196006775 -17.4732017517 89.2232589722
-39.7620124817 -18.3067169189 88.7126083374
-39.8002395630 -18.3226528168 88.5201797485
-39.8670730591 -18.3502483368 88.3288879395
-39.9537582397 -18.3859348297 88.1384429932
-40.0506248474 -18.4257698059 87.9485092163
-40.1493682861 -18.4663715363 87.7587738037
-40.2446861267 -18.5055751801 87.5690231323
-40.3342018127 -18.5424137115 87.3791503906
-40.4161262512 -18.5761585236 87.1890716553
-40.4865531921 -18.6052169800 86.9986038208
-40.5397415161 -18.6272506714 86.8074722290
-40.5719947815 -18.6407508850 86.6154861450
-40.5852775574 -18.6465187073 86.4226837158
-40.5863990784 -18.6473312378 86.2293319702
-40.5828132629 -18.6462249756 86.0357666016
-40.5793647766 -18.6451740265 85.8421936035
-40.5781555176 -18.6450366974 85.6487121582
-40.5800933838 -18.6461830139 85.4553680420
-40.5861625671 -18.6490097046 85.2622299194
-40.5981864929 -18.6542663574 85.0693817139
-40.6194000244 -18.6632671356 84.8769989014
-40.6547088623 -18.6780109406 84.6853637695
-40.7101821899 -18.7009754181 84.4947967529
-40.7916755676 -18.7345428467 84.3056564331
-40.9029197693 -18.7802352905 84.1181945801
-41.0438575745 -18.8380298615 83.9324569702
-41.2095489502 -18.9059104919 83.7482452393
-41.3899688721 -18.9797935486 83.5650634766
-41.5715179443 -19.0541362762 83.3821716309
-41.7411117554 -19.1236076355 83.1988449097
-41.8912086487 -19.1851310730 83.0146255493
-42.0214385986 -19.2385578156 82.8294677734
-42.1349105835 -19.2851562500 82.6434936523
-42.2328453064 -19.3254222870 82.4567489624
-42.3128662109 -19.3583850861 82.2690658569
-42.3718757629 -19.3827877045 82.0802154541
-42.4095191956 -19.3984813690 81.8901290894
-42.4286460876 -19.4066295624 81.6989517212
-42.4333381653 -19.4088954926 81.5068969727
-42.4269409180 -19.4066410065 81.3141403198
-42.4114494324 -19.4006805420 81.1207809448
-42.3885040283 -19.3916835785 80.9269256592
-42.3613586426 -19.3809738159 80.7327499390
-42.3362464905 -19.3710937500 80.5386734009
-42.3215713501 -19.3654651642 80.3452377319
-42.3255348206 -19.3674354553 80.1530227661
-42.3543357849 -19.3795261383 79.9624938965
-42.4113998413 -19.4031333923 79.7739181519
-42.4970245361 -19.4383811951 79.5873870850
-42.6084136963 -19.4841270447 79.4027557373
-42.7401084900 -19.5381488800 79.2196960449
-42.8841285706 -19.5971908569 79.0376739502
-43.0300140381 -19.6569938660 78.8559799194
-43.1664009094 -19.7129249573 78.6737823486
-43.2843093872 -19.7613258362 78.4904174805
-43.3801460266 -19.8007335663 78.3055725098
-43.4560928345 -19.8320350647 78.1193695068
-43.5174522400 -19.8573913574 77.9321670532
-43.5692977905 -19.8788719177 77.7443237305
-43.6149902344 -19.8978424072 77.5560684204
-43.6562843323 -19.9150218964 77.3675231934
-43.6929588318 -19.9303188324 77.1786727905
-43.7219009399 -19.9424648285 76.9892578125
-43.7379684448 -19.9493637085 76.7988586426
-43.7371177673 -19.9493694305 76.6071166992
-43.7194099426 -19.9425048828 76.4140167236
-43.6892585754 -19.9305706024 76.2198715210
-43.6528091431 -19.9160690308 76.0251617432
-43.6151046753 -19.9010581970 75.8302993774
-43.5802154541 -19.8871917725 75.6356048584
-43.5535354614 -19.8766727448 75.4415435791
-43.5421257019 -19.8723754883 75.2487335205
-43.5515098572 -19.8765506744 75.0576705933
-43.5827827454 -19.8896465302 74.8684844971
-43.6334152222 -19.9106311798 74.6810150146
-43.6998634338 -19.9380607605 74.4949798584
-43.7783508301 -19.9703941345 74.3100814819
-43.8642883301 -20.0057640076 74.1259460449
-43.9533920288 -20.0424251556 73.9421997070
-44.0437622070 -20.0795993805 73.7586822510
-44.1349868774 -20.1171245575 73.5753479004
-44.2245559692 -20.1539726257 73.3919830322
-44.3063430786 -20.1876506805 73.2080154419
-44.3734092712 -20.2153301239 73.0227890015
-44.4219589233 -20.2354640961 72.8359222412
-44.4527473450 -20.2483615875 72.6474380493
-44.4693069458 -20.2554588318 72.4576492310
-44.4747772217 -20.2580394745 72.2668151855
-44.4693374634 -20.2561740875 72.0749359131
-44.4492797852 -20.2483539581 71.8816223145
-44.4088020325 -20.2322120667 71.6862945557
-44.3452339172 -20.2066612244 71.4886474609
-44.2648582458 -20.1742630005 71.2892379761
-44.1827087402 -20.1411418915 71.0895462036
-44.1141204834 -20.1135463715 70.8910903931
-44.0660820007 -20.0943241119 70.6945953369
-44.0369377136 -20.0827999115 70.4999465942
-44.0224609375 -20.0772533417 70.3067474365
-44.0204887390 -20.0768013000 70.1148071289
-44.0313224792 -20.0815677643 69.9241714478
-44.0564155579 -20.0921459198 69.7350311279
-44.0973777771 -20.1091880798 69.5475845337
-44.1546401978 -20.1328716278 69.3618927002
-44.2253723145 -20.1620426178 69.1777038574
-44.3026847839 -20.1938953400 68.9943008423
-44.3780632019 -20.2249603271 68.8107910156
-44.4450149536 -20.2525901794 68.6264648438
-44.5004844666 -20.2755432129 68.4409713745
-44.5439605713 -20.2936077118 68.2542266846
-44.5764198303 -20.3071842194 68.0663299561
