-6.7813224792 41.4788551331 6.5696578026
-6.7842726707 41.5155410767 6.3811058998
-6.7858600616 41.5426254272 6.1896791458
-6.7857451439 41.5577125549 5.9946331978
-6.7842769623 41.5632591248 5.7966923714
-6.7825508118 41.5669898987 5.5981917381
-6.7820057869 41.5790443420 5.4022221565
-6.7837290764 41.6070785522 5.2111444473
-6.7878603935 41.6520729065 5.0252900124
-6.7935128212 41.7077827454 4.8427729607
-6.7993683815 41.7649154663 4.6607518196
-6.8044891357 41.8168716431 4.4771914482
-6.8086233139 41.8618698120 4.2915344238
-6.8118433952 41.9004325867 4.1039261818
-6.8141002655 41.9322052002 3.9142456055
-6.8152017593 41.9558372498 3.7220592499
-6.8150844574 41.9708900452 3.5272128582
-6.8139200211 41.9785652161 3.3300669193
-6.8119258881 41.9804000854 3.1310877800
-6.8091578484 41.9767875671 2.9303874969
-6.8055620193 41.9673538208 2.7278370857
-6.8012709618 41.9530220032 2.5237174034
-6.7968158722 41.9375381470 2.3192012310
-6.7929968834 41.9265365601 2.1160690784
-6.7905321121 41.9250679016 1.9159305096
-6.7898097038 41.9358634949 1.7196726799
-6.7908215523 41.9588661194 1.5273000002
-6.7931308746 41.9909973145 1.3378543854
-6.7959160805 42.0264778137 1.1495065689
-6.7982439995 42.0587387085 0.9601601958
-6.7994570732 42.0831489563 0.7683216333
-6.7993659973 42.0983810425 0.5735494494
-6.7981891632 42.1059799194 0.3763222396
-6.7964506149 42.1096229553 0.1778138429
4.5890932083 36.2829513550 80.4970397949
4.5914177895 36.2833747864 80.2992248535
4.5938014984 36.2841300964 80.1014099121
4.5960092545 36.2838935852 79.9035263062
4.5980544090 36.2827415466 79.7055740356
4.6003117561 36.2827835083 79.5076828003
4.6033425331 36.2871780396 79.3100585938
4.6074318886 36.2975273132 79.1128158569
4.6121244431 36.3112754822 78.9157943726
4.6162023544 36.3215637207 78.7185516357
4.6183090210 36.3207550049 78.5205612183
4.6178388596 36.3054389954 78.3215713501
4.6153750420 36.2788963318 78.1217803955
4.6123714447 36.2493133545 77.9217300415
4.6104540825 36.2258415222 77.7220611572
4.6108350754 36.2153053284 77.5232620239
4.6140127182 36.2205200195 77.3255462646
4.6197919846 36.2403793335 77.1288757324
4.6275057793 36.2711334229 76.9330062866
4.6361489296 36.3071250916 76.7375488281
4.6443047523 36.3403739929 76.5419158936
4.6502757072 36.3613204956 76.3454055786
4.6528210640 36.3629684448 76.1474609375
4.6521382332 36.3464393616 75.9481353760
4.6500978470 36.3222618103 75.7481918335
4.6492600441 36.3048553467 75.5487213135
4.6514639854 36.3045806885 75.3505477905
4.6571073532 36.3236770630 75.1538696289
4.6653304100 36.3573074341 74.9583435059
4.6746058464 36.3968734741 74.7633209229
4.6833534241 36.4334602356 74.5680923462
4.6904659271 36.4608421326 74.3721618652
4.6956205368 36.4771919250 74.1753540039
4.6991815567 36.4845619202 73.9778137207
4.7017860413 36.4865455627 73.7798309326
4.7039585114 36.4860916138 73.5816421509
4.7059721947 36.4847412109 73.3833541870
4.7079195976 36.4830207825 73.1850280762
4.7098236084 36.4810523987 72.9866561890
4.7116942406 36.4788932800 72.7882614136
4.7135300636 36.4765396118 72.5898284912
4.7152810097 36.4737052917 72.3913421631
4.7168030739 36.4695777893 72.1927261353
4.7178478241 36.4627609253 71.9938507080
4.7181859016 36.4519577026 71.7946014404
4.7178463936 36.4373321533 71.5949783325
4.7172327042 36.4211616516 71.3951873779
4.7168817520 36.4064674377 71.1955032349
4.7170448303 36.3946723938 70.9960479736
4.7175493240 36.3847961426 70.7967376709
4.7180504799 36.3749046326 70.5974044800
4.7183680534 36.3639717102 70.3979492188
4.7185993195 36.3525543213 70.1984176636
4.7190227509 36.3422164917 69.9989624023
4.7199530602 36.3347358704 69.7997512817
4.7216653824 36.3316650391 69.6009445190
4.7243981361 36.3343467712 69.4026718140
4.7283601761 36.3439636230 69.2050628662
4.7336473465 36.3610496521 69.0081787109
4.7401142120 36.3847923279 68.8119659424
4.7473540306 36.4128990173 68.6161956787
4.7548375130 36.4423789978 68.4205932617
4.7620382309 36.4702682495 68.2248458862
4.7684803009 36.4938774109 68.0286941528
4.7738347054 36.5113525391 67.8319396973
4.7780394554 36.5223388672 67.6345291138
4.7812881470 36.5279312134 67.4365615845
4.7838878632 36.5298614502 67.2382125854
4.7861237526 36.5297431946 67.0396423340
4.7882080078 36.5287628174 66.8409652710
4.7902765274 36.5276947021 66.6422576904
4.7924056053 36.5269660950 66.4435806274
4.7946381569 36.5268211365 66.2449493408
4.7970037460 36.5274276733 66.0463867188
4.7995553017 36.5290832520 65.8479232788
4.8024287224 36.5325546265 65.6496429443
4.8058981895 36.5393867493 65.4517288208
4.8103470802 36.5517463684 65.2544097900
4.8160514832 36.5711975098 65.0578842163
4.8228392601 36.5967636108 64.8620452881
4.8299136162 36.6239509583 64.6664047241
4.8361239433 36.6462631226 64.4702377319
4.8405413628 36.6584472656 64.2729415894
4.8428392410 36.6586685181 64.0742950439
4.8432078362 36.6479949951 63.8743858337
4.8420314789 36.6285934448 63.6734466553
4.8397407532 36.6029014587 63.4717407227
4.8369307518 36.5742721558 63.2696495056
4.8344531059 36.5475196838 63.0677299500
4.8332147598 36.5277557373 62.8665809631
4.8337993622 36.5182914734 62.6666107178
4.8362956047 36.5196189880 62.4678993225
4.8404603004 36.5303688049 62.2702980042
4.8460102081 36.5489463806 62.0736389160
4.8527574539 36.5742835999 61.8778076172
4.8605408669 36.6054801941 61.6827049255
4.8691368103 36.6412658691 61.4881896973
4.8782896996 36.6802024841 61.2940902710
4.8877358437 36.7207946777 61.1002311707
4.8970952034 36.7608985901 60.9063529968
4.9058251381 36.7974510193 60.7120704651
4.9134125710 36.8275489807 60.5170135498
4.9196295738 36.8499069214 60.3210067749
4.9245948792 36.8651924133 60.1241226196
4.9286317825 36.8752288818 59.9265785217
4.9320745468 36.8819084167 59.7286071777
4.9351511002 36.8865203857 59.5303611755
4.9379739761 36.8896980286 59.3319244385
4.9406137466 36.8918418884 59.1333465576
4.9431533813 36.8934135437 58.9346847534
4.9456467628 36.8947257996 58.7359733582
4.9480695724 36.8956413269 58.5372009277
4.9505052567 36.8966255188 58.3384246826
4.9535150528 36.9008560181 58.1400718689
4.9580893517 36.9139289856 57.9428863525
4.9647631645 36.9388732910 57.7472991943
4.9726190567 36.9705009460 57.5526275635
4.9794096947 36.9961090088 57.3571701050
4.9829750061 37.0034790039 57.1592521667
4.9826669693 36.9889488220 56.9583396912
4.9795093536 36.9583053589 56.7551803589
4.9752173424 36.9212417603 56.5510864258
4.9711518288 36.8854522705 56.3471069336
4.9679169655 36.8543586731 56.1437225342
4.9655203819 36.8280029297 55.9409446716
4.9636583328 36.8046684265 55.7385482788
4.9619331360 36.7821044922 55.5362167358
4.9601330757 36.7591133118 55.3337821960
4.9586396217 36.7378540039 55.1315498352
4.9585595131 36.7245903015 54.9304237366
4.9612536430 36.7270164490 54.7315177917
4.9675898552 36.7500419617 54.5355796814
4.9773497581 36.7924423218 54.3424644470
4.9888434410 36.8446540833 54.1508178711
4.9991745949 36.8902931213 53.9582633972
5.0057749748 36.9148216248 53.7626571655
5.0082235336 36.9158592224 53.5635986328
5.0083293915 36.9036445618 53.3625679016
5.0083971024 36.8912048340 53.1614761353
5.0097193718 36.8858718872 52.9614143372
5.0124912262 36.8887329102 52.7625617981
5.0163779259 36.8979072571 52.5646553040
5.0208725929 36.9105224609 52.3672637939
5.0254621506 36.9236755371 52.1699600220
5.0297789574 36.9352836609 51.9724235535
5.0335011482 36.9435234070 51.7743721008
5.0361423492 36.9456481934 51.5753746033
5.0373106003 36.9394340515 51.3750801086
5.0373563766 36.9268608093 51.1737785339
5.0375547409 36.9151496887 50.9725799561
5.0395240784 36.9134635925 50.7729225159
5.0444664955 36.9286117554 50.5758972168
5.0526938438 36.9623603821 50.3818092346
5.0634770393 37.0105781555 50.1900444031
5.0753583908 37.0650253296 49.9993209839
5.0869112015 37.1176109314 49.8083534241
5.0973224640 37.1637344360 49.6164054871
5.1062731743 37.2015876770 49.4231719971
5.1134977341 37.2296752930 49.2283973694
5.1187601089 37.2466430664 49.0318374634
5.1221027374 37.2527389526 48.8335189819
5.1237449646 37.2492065430 48.6336174011
5.1237311363 37.2362937927 48.4321632385
5.1220541000 37.2139511108 48.2291183472
5.1192455292 37.1851997375 48.0249748230
5.1165642738 37.1571655273 47.8208999634
5.1153755188 37.1375846863 47.6181869507
5.1163673401 37.1303558350 47.4175033569
5.1194019318 37.1346969604 47.2187385559
5.1240243912 37.1480369568 47.0214843750
5.1299586296 37.1688079834 46.8254928589
5.1370797157 37.1963081360 46.6306571960
5.1450223923 37.2284622192 46.4366416931
5.1529774666 37.2606925964 46.2426643372
5.1600098610 37.2876930237 46.0478172302
5.1656451225 37.3067779541 45.8516235352
5.1701498032 37.3194541931 45.6543312073
5.1743073463 37.3301620483 45.4567031860
5.1789579391 37.3436698914 45.2595634460
5.1845822334 37.3626899719 45.0633926392
5.1910262108 37.3863639832 44.8680496216
5.1974716187 37.4100418091 44.6727256775
5.2027916908 37.4273414612 44.4762878418
5.2061896324 37.4337463379 44.2779273987
5.2077035904 37.4294738770 44.0776557922
5.2081899643 37.4193687439 43.8763198853
5.2087054253 37.4094276428 43.6749916077
5.2097067833 37.4022407532 43.4741287231
5.2107868195 37.3954963684 43.2733268738
5.2112665176 37.3853492737 43.0718841553
5.2110404968 37.3711967468 42.8696861267
5.2107801437 37.3568458557 42.6674232483
5.2114419937 37.3477249146 42.4660835266
5.2137799263 37.3481101990 42.2664718628
5.2182869911 37.3607940674 42.0691184998
5.2253384590 37.3879165649 41.8744430542
5.2351303101 37.4305801392 41.6826820374
5.2473559380 37.4870529175 41.4935379028
5.2609772682 37.5514488220 41.3059387207
5.2744503021 37.6150054932 41.1182479858
5.2863206863 37.6694755554 40.9289169312
5.2956733704 37.7096672058 40.7369384766
5.3020658493 37.7330589294 40.5418090820
5.3051757813 37.7378349304 40.3431510925
5.3047652245 37.7226257324 40.1406631470
5.3011417389 37.6891899109 39.9346504211
5.2955684662 37.6446800232 39.7264480591
5.2900390625 37.6004180908 39.5182228088
5.2865767479 37.5678825378 39.3122024536
5.2865266800 37.5547065735 39.1098861694
5.2901530266 37.5624008179 38.9116096497
5.2966680527 37.5864868164 38.7165374756
5.3047370911 37.6193923950 38.5232162476
5.3131933212 37.6545028687 38.3303565979
5.3214597702 37.6885375977 38.1373176575
5.3293738365 37.7205696106 37.9439086914
5.3367528915 37.7495689392 37.7499275208
5.3432698250 37.7736740112 37.5549926758
5.3487186432 37.7917175293 37.3588638306
5.3532180786 37.8043708801 37.1616630554
5.3570938110 37.8134841919 36.9637527466
5.3606362343 37.8207015991 36.7654533386
5.3639736176 37.8267555237 36.5669174194
5.3671159744 37.8317031860 36.3681526184
5.3700819016 37.8356475830 36.1691741943
5.3730349541 37.8395195007 35.9701728821
5.3763384819 37.8453788757 35.7715682983
5.3804316521 37.8557243347 35.5738868713
5.3855366707 37.8718185425 35.3773918152
5.3914375305 37.8924293518 35.1818389893
5.3976149559 37.9146156311 34.9866256714
5.4036564827 37.9360313416 34.7912712097
5.4095473289 37.9565887451 34.5957489014
5.4156298637 37.9782371521 34.4004669189
5.4223098755 38.0032844543 34.2059173584
5.4296998978 38.0323638916 34.0122375488
5.4374365807 38.0634117126 33.8190002441
5.4448347092 38.0925407410 33.6253814697
5.4512162209 38.1158981323 33.4305572510
5.4560966492 38.1307220459 33.2339248657
5.4592285156 38.1356086731 33.0351715088
5.4607338905 38.1312561035 32.8344192505
5.4612631798 38.1213531494 32.6324577332
5.4618782997 38.1119308472 32.4305725098
5.4636201859 38.1089172363 32.2300491333
5.4670634270 38.1155738831 32.0316162109
5.4720997810 38.1312828064 31.8351516724
5.4780311584 38.1520805359 31.6398067474
5.4839782715 38.1729660034 31.4444961548
5.4893865585 38.1907920837 31.2485256195
5.4943027496 38.2058219910 31.0519466400
5.4993138313 38.2213935852 30.8554954529
5.5052690506 38.2423286438 30.6602401733
5.5128831863 38.2727012634 30.4671020508
5.5223746300 38.3137435913 30.2763710022
5.5333452225 38.3632087708 30.0875682831
5.5449533463 38.4162979126 29.8996276855
5.5561828613 38.4672355652 29.7112598419
5.5660939217 38.5106773376 29.5212516785
5.5740537643 38.5430297852 29.3287715912
5.5798578262 38.5631217957 29.1335353851
5.5836358070 38.5716896057 28.9356842041
5.5857071877 38.5705490112 28.7356147766
5.5866470337 38.5629730225 28.5340538025
5.5874371529 38.5545425415 28.3322753906
5.5892848969 38.5521278381 28.1318588257
5.5930643082 38.5606994629 27.9339637756
5.5988130569 38.5804748535 27.7386627197
5.6057395935 38.6069564819 27.5449333191
5.6127376556 38.6338424683 27.3513183594
5.6189928055 38.6565055847 27.1567382813
5.6242537498 38.6735115051 26.9608478546
5.6287016869 38.6858863831 26.7638797760
5.6327071190 38.6957511902 26.5663204193
5.6367201805 38.7056541443 26.3687725067
5.6412596703 38.7185554504 26.1719322205
5.6468324661 38.7373352051 25.9764919281
5.6537041664 38.7635116577 25.7828254700
5.6617684364 38.7964782715 25.5908012390
5.6707582474 38.8347129822 25.4000663757
5.6805605888 38.8775749207 25.2104797363
5.6911182404 38.9247398376 25.0219726563
5.7019696236 38.9735794067 24.8339157104
5.7121205330 39.0184326172 24.6449451447
5.7205734253 39.0536231995 24.4536743164
5.7269387245 39.0769309998 24.2595424652
5.7314534187 39.0897026062 24.0628566742
5.7345066071 39.0941543579 23.8641376495
5.7362461090 39.0911216736 23.6635761261
5.7366261482 39.0803489685 23.4610939026
5.7357897758 39.0626449585 23.2568759918
5.7343430519 39.0414657593 23.0517616272
5.7331819534 39.0219078064 22.8470096588
5.7330245972 39.0080680847 22.6436386108
5.7341475487 39.0015144348 22.4420528412
5.7365207672 39.0020828247 22.2422237396
5.7400922775 39.0094757080 22.0440921783
5.7449216843 39.0240325928 21.8477554321
5.7510638237 39.0460700989 21.6533088684
5.7583189011 39.0744476318 21.4604778290
5.7661046982 39.1058464050 21.2684345245
5.7736573219 39.1359252930 21.0760822296
5.7804365158 39.1615943909 20.8826351166
5.7863578796 39.1823806763 20.6879634857
5.7917370796 39.2000732422 20.4925136566
5.7970857620 39.2175979614 20.2970294952
5.8028850555 39.2376899719 20.1022148132
5.8093276024 39.2614479065 19.9083595276
5.8161821365 39.2875556946 19.7151260376
5.8229594231 39.3132209778 19.5217990875
5.8293170929 39.3365020752 19.3278732300
5.8353471756 39.3579101563 19.1334762573
5.8415670395 39.3804054260 18.9393787384
5.8487033844 39.4081268311 18.7466621399
5.8573179245 39.4442710876 18.5561771393
5.8673324585 39.4884033203 18.3678245544
5.8778343201 39.5353126526 18.1802482605
5.8875622749 39.5778160095 17.9915542603
5.8958125114 39.6118965149 17.8006725311
5.9028992653 39.6393432617 17.6080608368
5.9097714424 39.6655693054 17.4151477814
5.9172286987 39.6951332092 17.2231464386
5.9254612923 39.7291183472 17.0323505402
5.9342060089 39.7660293579 16.8423690796
5.9432053566 39.8043937683 16.6528129578
5.9523882866 39.8438034058 16.4635753632
5.9616279602 39.8835411072 16.2744636536
5.9705042839 39.9212112427 16.0848312378
5.9784617424 39.9536399841 15.8938121796
5.9851808548 39.9790115356 15.7009029388
5.9907441139 39.9977836609 15.5062160492
5.9954643250 40.0117530823 15.3102273941
5.9996423721 40.0226287842 15.1133975983
6.0034399033 40.0313339233 14.9159717560
6.0068817139 40.0380096436 14.7179861069
6.0099148750 40.0423507690 14.5193529129
6.0124797821 40.0440216064 14.3199739456
6.0145692825 40.0429801941 14.1198310852
6.0162558556 40.0396347046 13.9190349579
6.0176916122 40.0348625183 13.7178230286
6.0191087723 40.0299797058 13.5165615082
6.0208258629 40.0268058777 13.3157587051
6.0232992172 40.0279502869 13.1161479950
6.0271615982 40.0370216370 12.9187517166
6.0331363678 40.0581474304 12.7247486115
6.0417523384 40.0943489075 12.5350151062
6.0529627800 40.1453666687 12.3495054245
6.0659189224 40.2063484192 12.1668748856
6.0790872574 40.2685470581 11.9846553802
6.0907602310 40.3222160339 11.8000745773
6.0997991562 40.3608436584 11.6112565994
6.1062030792 40.3844337463 11.4181718826
6.1110897064 40.3993644714 11.2226200104
6.1160912514 40.4149513245 11.0272645950
6.1226000786 40.4391403198 10.8343935013
6.1312165260 40.4753684998 10.6450176239
6.1415905952 40.5216369629 10.4585790634
6.1527576447 40.5724372864 10.2735023499
6.1637668610 40.6223373413 10.0882167816
6.1740360260 40.6680145264 9.9017524719
6.1832208633 40.7075042725 9.7135276794
6.1910185814 40.7390708923 9.5230216980
6.1972041130 40.7614326477 9.3298454285
6.2016782761 40.7740173340 9.1338100433
6.2043642998 40.7763900757 8.9347696304
6.2052297592 40.7683601379 8.7326488495
6.2045779228 40.7516593933 8.5279388428
6.2032341957 40.7310066223 8.3220214844
6.2022395134 40.7123413086 8.1166553497
6.2022829056 40.6996078491 7.9130163193
6.2034010887 40.6930122375 7.7111806870
6.2050995827 40.6897315979 7.5103149414
6.2066407204 40.6855545044 7.3091616631
6.2073259354 40.6764793396 7.1065201759
6.2068109512 40.6605453491 6.9017868042
6.2054405212 40.6397209167 6.6955447197
6.2043256760 40.6203536987 6.4897022247
6.2048568726 40.6103935242 6.2866721153
6.2078890800 40.6147270203 6.0879564285
6.2133107185 40.6327171326 5.8933887482
6.2204079628 40.6602821350 5.7017521858
6.2285575867 40.6938705444 5.5119771957
6.2374644279 40.7317886353 5.3235597610
6.2468204498 40.7722740173 5.1359667778
6.2559895515 40.8116989136 4.9480853081
6.2642097473 40.8456954956 4.7585706711
6.2710914612 40.8720436096 4.5667233467
6.2768721581 40.8920974731 4.3729486465
6.2822442055 40.9098129272 4.1784625053
6.2880191803 40.9298362732 3.9847016335
6.2948474884 40.9558830261 3.7928307056
6.3030014038 40.9895133972 3.6033470631
6.3122258186 41.0292663574 3.4158093929
6.3218121529 41.0710906982 3.2289597988
6.3309564590 41.1103897095 3.0413572788
6.3392210007 41.1446609497 2.8522107601
6.3468251228 41.1751556396 2.6619040966
6.3545336723 41.2062492371 2.4718132019
6.3631930351 41.2427864075 2.2834730148
6.3731932640 41.2869949341 2.0976016521
6.3841800690 41.3368492126 1.9135701656
6.3951911926 41.3868446350 1.7296360731
6.4051623344 41.4308967590 1.5438547134
6.4135303497 41.4657783508 1.3551843166
6.4205684662 41.4930496216 1.1641057730
6.4272427559 41.5182418823 0.9723815322
6.4347701073 41.5483207703 0.7822495103
6.4441242218 41.5888519287 0.5955146551
6.4555835724 41.6414337158 0.4127146602
6.4685163498 41.7024536133 0.2327022552
6.4817943573 41.7654533386 0.0533990562
15.5075016022 32.9596138000 80.4882507324
15.5157756805 32.9704170227 80.2911071777
15.5284309387 32.9894371033 80.0945281982
15.5428152084 33.0116958618 79.8982009888
15.5577335358 33.0349540710 79.7019577026
15.5733432770 33.0595130920 79.5058288574
15.5897293091 33.0855255127 79.3098297119
15.6058549881 33.1110534668 79.1138229370
15.6196088791 33.1321296692 78.9175109863
15.6286020279 33.1442832947 78.7205505371
15.6312093735 33.1444664001 78.5226974487
15.6273832321 33.1325836182 78.3239212036
15.6189374924 33.1120376587 78.1244506836
15.6090831757 33.0888519287 77.9247436523
15.6011667252 33.0692977905 77.7252655029
15.5972394943 33.0572242737 77.5263442993
15.5975074768 33.0530128479 77.3280105591
15.6009235382 33.0547065735 77.1301269531
15.6062126160 33.0599136353 76.9325256348
15.6126031876 33.0671844482 76.7350845337
15.6200599670 33.0764541626 76.5378036499
15.6290855408 33.0886688232 76.3407669067
15.6401596069 33.1047210693 76.1440582275
15.6529970169 33.1240844727 75.9476394653
15.6662473679 33.1442184448 75.7513046265
15.6781263351 33.1617851257 75.5547637939
15.6875524521 33.1747512817 75.3578338623
15.6946458817 33.1833381653 75.1605377197
15.7002801895 33.1891937256 74.9629898071
15.7054128647 33.1941070557 74.7653656006
15.7108430862 33.1995773315 74.5677795410
15.7172870636 33.2069473267 74.3703689575
15.7252407074 33.2171516418 74.1732025146
15.7344799042 33.2297668457 73.9762649536
15.7437276840 33.2423973083 73.7793350220
15.7511196136 33.2515487671 73.5820846558
15.7551345825 33.2543640137 73.3842468262
15.7552003860 33.2497711182 73.1856994629
15.7520351410 33.2391166687 72.9865646362
15.7480068207 33.2268447876 72.7872390747
15.7465400696 33.2193717957 72.5883560181
15.7498855591 33.2209320068 72.3903198242
15.7571811676 33.2299003601 72.1930007935
15.7652759552 33.2403678894 71.9958267212
15.7714748383 33.2472763062 71.7983016968
15.7751932144 33.2495346069 71.6003189087
15.7775030136 33.2491493225 71.4020538330
15.7798881531 33.2489051819 71.2037887573
15.7834615707 33.2508888245 71.0057449341
15.7887125015 33.2560195923 70.8080139160
15.7954769135 33.2639923096 70.6105651855
15.8030014038 33.2733879089 70.4132690430
15.8101634979 33.2821044922 70.2159042358
15.8158569336 33.2880668640 70.0182418823
15.8194198608 33.2900276184 69.8201599121
15.8208866119 33.2880592346 69.6216430664
15.8209333420 33.2834281921 69.4228286743
15.8205556870 33.2779960632 69.2239074707
15.8206367493 33.2734222412 69.0250549316
15.8215456009 33.2704048157 68.8263626099
15.8229150772 33.2682495117 68.6277465820
15.8237705231 33.2651329041 68.4290084839
15.8230943680 33.2591362000 68.2299270630
15.8207225800 33.2499618530 68.0304718018
15.8180904388 33.2402954102 67.8309326172
15.8179044724 33.2352218628 67.6318969727
15.8223695755 33.2388725281 67.4338378906
15.8313055038 33.2509155273 67.2367401123
15.8421831131 33.2666053772 67.0400772095
15.8520374298 33.2803726196 66.8431930542
15.8591938019 33.2890777588 66.6457214355
15.8634958267 33.2924232483 66.4476165771
15.8655891418 33.2916259766 66.2490158081
15.8662443161 33.2881240845 66.0500793457
15.8660583496 33.2830467224 65.8509292603
15.8654489517 33.2771759033 65.6516647339
15.8647632599 33.2711563110 65.4523620605
15.8643751144 33.2656974792 65.2531127930
15.8647394180 33.2616500854 65.0540161133
15.8663644791 33.2599678040 64.8551864624
15.8696718216 33.2614479065 64.6567459106
15.8748044968 33.2663497925 64.4587173462
15.8815250397 33.2742347717 64.2610626221
15.8893260956 33.2841453552 64.0636672974
15.8977556229 33.2952384949 63.8664207458
15.9067659378 33.3074188232 63.6693191528
15.9166707993 33.3212814331 63.4724388123
15.9275684357 33.3370094299 63.2758102417
15.9388017654 33.3533668518 63.0792694092
15.9492197037 33.3681907654 62.8825416565
15.9580421448 33.3800239563 62.6854286194
15.9653425217 33.3889923096 62.4879417419
15.9716882706 33.3961753845 62.2902145386
15.9775342941 33.4024162292 62.0923614502
15.9829645157 33.4078788757 61.8944015503
15.9878320694 33.4122848511 61.6962928772
15.9919958115 33.4153671265 61.4979972839
15.9954748154 33.4171638489 61.2995185852
15.9984912872 33.4180946350 61.1009101868
16.0014438629 33.4189033508 60.9022750854
16.0049018860 33.4206581116 60.7037620544
16.0095844269 33.4247131348 60.5055618286
16.0161056519 33.4322242737 60.3078346252
16.0243911743 33.4430465698 60.1105766296
16.0333309174 33.4550971985 59.9134979248
16.0413532257 33.4654273987 59.7161750793
16.0475425720 33.4723091125 59.5183639526
16.0522060394 33.4763298035 59.3201370239
16.0564689636 33.4795989990 59.1217956543
16.0614986420 33.4843063354 58.9236564636
16.0679836273 33.4917488098 58.7259101868
16.0759925842 33.5020523071 58.5285797119
16.0850372314 33.5142974854 58.3315429688
16.0942459106 33.5268554688 58.1345558167
16.1026191711 33.5378417969 57.9373397827
16.1092643738 33.5455818176 57.7396430969
16.1135749817 33.5489425659 57.5412864685
16.1153144836 33.5474662781 57.3421897888
16.1146144867 33.5414123535 57.1423873901
16.1119194031 33.5316123962 56.9419937134
16.1078414917 33.5192070007 56.7411727905
16.1030769348 33.5055160522 56.5401229858
16.0985279083 33.4922256470 56.3391075134
16.0952739716 33.4813728333 56.1384353638
16.0939922333 33.4742202759 55.9383163452
16.0942039490 33.4698715210 55.7386093140
16.0946578979 33.4659767151 55.5389595032
16.0948505402 33.4615936279 55.3392143250
16.0959091187 33.4588394165 55.1397094727
16.0998058319 33.4614105225 54.9410400391
16.1078090668 33.4717025757 54.7435951233
16.1195468903 33.4890060425 54.5472869873
16.1331157684 33.5097579956 54.3515434265
16.1461791992 33.5295524597 54.1556663513
16.1573047638 33.5457077026 53.9592094421
16.1666584015 33.5585403442 53.7622184753
16.1758022308 33.5709724426 53.5651664734
16.1869907379 33.5872459412 53.3687591553
16.2020893097 33.6108703613 53.1735801697
16.2211475372 33.6419334412 52.9796638489
16.2416992188 33.6758041382 52.7862472534
16.2599945068 33.7054367065 52.5921592712
16.2733249664 33.7257385254 52.3965225220
16.2812156677 33.7358207703 52.1991691589
16.2846984863 33.7376213074 52.0004081726
16.2849121094 33.7332725525 51.8005905151
16.2823295593 33.7236709595 51.5998497009
16.2768898010 33.7086982727 51.3981552124
16.2688999176 33.6889343262 51.1955986023
16.2601814270 33.6677970886 50.9927635193
16.2541027069 33.6516227722 50.7907524109
16.2537479401 33.6462059021 50.5905914307
16.2596492767 33.6525459290 50.3924789429
16.2695140839 33.6663322449 50.1956787109
16.2802143097 33.6816940308 49.9991645813
16.2899112701 33.6951713562 49.8023262024
16.2985801697 33.7067108154 49.6051483154
16.3071098328 33.7179908752 49.4079284668
16.3162498474 33.7304191589 49.2109184265
16.3261928558 33.7443542480 49.0141868591
16.3368015289 33.7595443726 48.8176918030
16.3481254578 33.7760772705 48.6214523315
16.3607120514 33.7949829102 48.4256591797
16.3753070831 33.8176651001 48.2305717468
16.3919334412 33.8441696167 48.0362129211
16.4091567993 33.8717918396 47.8420829773
16.4244537354 33.8957977295 47.6473121643
16.4354553223 33.9117279053 47.4510536194
16.4410057068 33.9174079895 47.2528839111
16.4415683746 33.9137115479 47.0529479980
16.4390335083 33.9041938782 46.8518943787
16.4358215332 33.8933982849 46.6505737305
16.4334983826 33.8842773438 46.4495429993
16.4321727753 33.8770294189 46.2488441467
16.4314117432 33.8708419800 46.0483283997
16.4315509796 33.8663482666 45.8481140137
16.4337940216 33.8658065796 45.6486473083
16.4391498566 33.8711204529 45.4503021240
16.4477672577 33.8825645447 45.2531433105
16.4593772888 33.8996391296 45.0570907593
16.4737987518 33.9219970703 44.8620834351
16.4905128479 33.9486694336 44.6679458618
16.5080909729 33.9769668579 44.4741554260
16.5246448517 34.0033416748 44.2800140381
16.5390453339 34.0256652832 44.0850906372
16.5516414642 34.0445938110 43.8895072937
16.5638713837 34.0628356934 43.6938056946
16.5771312714 34.0830116272 43.4985046387
16.5916061401 34.1054763794 43.3036804199
16.6059322357 34.1276626587 43.1088218689
16.6185112000 34.1465606689 42.9133148193
16.6297035217 34.1628532410 42.7172889709
16.6423492432 34.1818771362 42.5218353271
16.6592388153 34.2088890076 42.3280372620
16.6801795959 34.2435150146 42.1358337402
16.7022209167 34.2802162170 41.9440956116
16.7224006653 34.3134117126 41.7516708374
16.7391643524 34.3401832581 41.5579452515
16.7513809204 34.3584098816 41.3624610901
16.7576007843 34.3653526306 41.1646232605
16.7570343018 34.3595275879 40.9640998840
16.7507114410 34.3428764343 40.7612724304
16.7412567139 34.3203353882 40.5571594238
16.7318878174 34.2979469299 40.3530349731
16.7255268097 34.2812232971 40.1500740051
16.7238788605 34.2733650208 39.9489707947
16.7265930176 34.2737083435 39.7496070862
16.7316207886 34.2784042358 39.5511703491
16.7367858887 34.2833595276 39.3527832031
16.7409934998 34.2865142822 39.1539993286
16.7441959381 34.2877769470 38.9547958374
16.7468166351 34.2879447937 38.7553443909
16.7494201660 34.2880821228 38.5558738708
16.7526950836 34.2894783020 38.3566665649
16.7574768066 34.2937088013 38.1580734253
16.7647533417 34.3026351929 37.9605140686
16.7755870819 34.3182601929 37.7644424438
16.7907829285 34.3420829773 37.5702018738
16.8102493286 34.3739471436 37.3777809143
16.8326530457 34.4113388062 37.1866264343
16.8559455872 34.4504051208 36.9958953857
16.8783187866 34.4877395630 36.8048133850
16.8984127045 34.5207862854 36.6128082275
16.9147758484 34.5468177795 36.4192428589
16.9257392883 34.5626831055 36.2233924866
16.9301376343 34.5661964417 36.0247306824
16.9280910492 34.5575828552 35.8232841492
16.9212093353 34.5398674011 35.6197280884
16.9122104645 34.5181694031 35.4152107239
16.9039878845 34.4979286194 35.2109909058
16.8984851837 34.4828033447 35.0079116821
16.8962192535 34.4737739563 34.8062210083
16.8968238831 34.4701461792 34.6057624817
16.9000740051 34.4714927673 34.4064521790
16.9065742493 34.4789581299 34.2085647583
16.9177513123 34.4952278137 34.0127487183
16.9352550507 34.5234069824 33.8197593689
16.9600276947 34.5652656555 33.6300354004
16.9911727905 34.6191139221 33.4432106018
17.0251541138 34.6783103943 33.2577209473
17.0566101074 34.7327537537 33.0711708069
17.0808925629 34.7736968994 32.8814506531
17.0961437225 34.7976379395 32.6876869202
17.1030387878 34.8058509827 32.4901542664
17.1032676697 34.8015136719 32.2895851135
17.0987873077 34.7883186340 32.0868492126
17.0919418335 34.7706604004 31.8829956055
17.0851879120 34.7531776428 31.6791458130
17.0802307129 34.7390785217 31.4760875702
17.0775432587 34.7292518616 31.2740459442
17.0767288208 34.7229461670 31.0728454590
17.0771808624 34.7190284729 30.8722114563
17.0784740448 34.7166900635 30.6719532013
17.0805606842 34.7158508301 30.4720497131
17.0840663910 34.7176780701 30.2727985382
17.0902786255 34.7246017456 30.0748081207
17.1002120972 34.7385330200 29.8785724640
17.1133174896 34.7584342957 29.6838455200
17.1275291443 34.7804222107 29.4896583557
17.1410350800 34.8010826111 29.2951564789
17.1537570953 34.8202667236 29.1002979279
17.1670989990 34.8406181335 28.9057502747
17.1826820374 34.8651847839 28.7122955322
17.2012329102 34.8953475952 28.5202941895
17.2219753265 34.9296340942 28.3293800354
17.2426528931 34.9637985229 28.1384696960
17.2605419159 34.9927177429 27.9462471008
17.2740497589 35.0133819580 27.7519187927
17.2836322784 35.0266571045 27.5556945801
17.2914791107 35.0366592407 27.3586254120
17.3004016876 35.0486946106 27.1620883942
17.3126792908 35.0670433044 26.9672069550
17.3292026520 35.0933876038 26.7744350433
17.3492794037 35.1264305115 26.5834484100
17.3712177277 35.1629791260 26.3934192657
17.3930931091 35.1994094849 26.2033996582
17.4131011963 35.2323188782 26.0124893188
17.4297828674 35.2589683533 25.8199501038
17.4424743652 35.2781028748 25.6254348755
17.4515438080 35.2904129028 25.4291152954
17.4580554962 35.2979087830 25.2315082550
17.4631786346 35.3027877808 25.0331993103
17.4677925110 35.3067054749 24.8346252441
17.4724121094 35.3106346130 24.6360492706
17.4774074554 35.3152732849 24.4376564026
17.4833469391 35.3216896057 24.2397422791
17.4909534454 35.3312454224 24.0426788330
17.5005130768 35.3444786072 23.8466205597
17.5114097595 35.3602333069 23.6512584686
17.5226116180 35.3765640259 23.4560642242
17.5337944031 35.3928565979 23.2608718872
17.5458087921 35.4107208252 23.0661220551
17.5598907471 35.4324760437 22.8724632263
17.5762863159 35.4585914612 22.6800308228
17.5935916901 35.4864196777 22.4881019592
17.6094245911 35.5114784241 22.2954254150
17.6218490601 35.5301132202 22.1009807587
17.6303157806 35.5412940979 21.9044628143
17.6355876923 35.5464515686 21.7062606812
17.6391391754 35.5483703613 21.5071392059
17.6426544189 35.5502204895 21.3079891205
17.6476669312 35.5548896790 21.1096267700
17.6552219391 35.5643501282 20.9126186371
17.6655178070 35.5789756775 20.7170810699
17.6775913239 35.5969505310 20.5225048065
17.6890773773 35.6138191223 20.3276271820
17.6966991425 35.6234092712 20.1306762695
17.6978530884 35.6208038330 19.9302253723
17.6922550201 35.6054840088 19.7260951996
17.6821670532 35.5816955566 19.5194873810
17.6712646484 35.5563697815 19.3123874664
17.6634292603 35.5368232727 19.1069164276
17.6617202759 35.5288276672 18.9047622681
17.6672592163 35.5344848633 18.7065677643
17.6788291931 35.5515098572 18.5116882324
17.6939544678 35.5752372742 18.3187866211
17.7103996277 35.6014518738 18.1266384125
17.7264499664 35.6269226074 17.9342956543
17.7402763367 35.6482048035 17.7407417297
17.7501888275 35.6621093750 17.5450229645
17.7560977936 35.6684646606 17.3470726013
17.7603874207 35.6717720032 17.1482124329
17.7667903900 35.6790580750 16.9505329132
17.7781219482 35.6956405640 16.7556266785
17.7949924469 35.7226600647 16.5638580322
17.8162612915 35.7579727173 16.3746070862
17.8401470184 35.7982177734 16.1868782043
17.8648757935 35.8400535583 15.9996757507
17.8890228271 35.8807983398 15.8121910095
17.9117832184 35.9189224243 15.6239585876
17.9327354431 35.9536437988 15.4347352982
17.9512252808 35.9837265015 15.2441368103
17.9663162231 36.0073966980 15.0516119003
17.9775276184 36.0237503052 14.8568716049
17.9853935242 36.0338020325 14.6602077484
17.9912052155 36.0399818420 14.4623565674
17.9963474274 36.0448989868 14.2641124725
18.0018177032 36.0504302979 14.0660543442
18.0080280304 36.0573616028 13.8684234619
18.0148334503 36.0654144287 13.6711387634
18.0218353271 36.0738334656 13.4739685059
18.0288314819 36.0822486877 13.2767953873
18.0360393524 36.0910568237 13.0797462463
18.0438270569 36.1009597778 12.8830394745
18.0524120331 36.1123657227 12.6868085861
18.0621604919 36.1259689331 12.4912710190
18.0741844177 36.1438598633 12.2970943451
18.0902214050 36.1693191528 12.1053237915
18.1115303040 36.2047233582 11.9167270660
18.1376571655 36.2492141724 11.7310552597
18.1661434174 36.2981529236 11.5468521118
18.1934165955 36.3448104858 11.3619794846
18.2163219452 36.3832244873 11.1745262146
18.2333450317 36.4105491638 10.9835624695
18.2448635101 36.4274978638 10.7892932892
18.2524776459 36.4370765686 10.5926647186
18.2580890656 36.4428787231 10.3948192596
18.2633075714 36.4479408264 10.1967306137
18.2691612244 36.4542007446 9.9990243912
18.2760295868 36.4623756409 9.8019380569
18.2837486267 36.4721527100 9.6053724289
18.2918605804 36.4826736450 9.4090499878
18.2999286652 36.4931106567 9.2127046585
18.3077583313 36.5030975342 9.0162134171
18.3155479431 36.5130119324 8.8197011948
18.3240146637 36.5242004395 8.6236104965
18.3344326019 36.5390701294 8.4287376404
18.3482494354 36.5603523254 8.2359943390
18.3660850525 36.5892143250 8.0457801819
18.3867092133 36.6233406067 7.8573436737
18.4072666168 36.6573371887 7.6689019203
18.4249324799 36.6858825684 7.4786782265
18.4385395050 36.7067756653 7.2859258652
18.4486675262 36.7210998535 7.0909924507
18.4565238953 36.7311401367 6.8946290016
18.4629554749 36.7384910583 6.6973638535
18.4682407379 36.7436828613 6.4993672371
18.4723777771 36.7467041016 6.3006353378
18.4754467010 36.7477111816 6.1012120247
18.4777965546 36.7473602295 5.9013180733
18.4800395966 36.7468109131 5.7013421059
18.4828338623 36.7472991943 5.5017075539
18.4866085052 36.7496376038 5.3026933670
18.4914131165 36.7539176941 5.1043348312
18.4969825745 36.7596435547 4.9064650536
18.5029373169 36.7660942078 4.7088418007
18.5090026855 36.7727546692 4.5112857819
18.5152015686 36.7796669006 4.3138155937
18.5220680237 36.7878379822 4.1167778969
18.5306587219 36.7992630005 3.9208681583
18.5421676636 36.8161964417 3.7268736362
18.5571250916 36.8396377563 3.5351564884
18.5748958588 36.8683891296 3.3453133106
18.5941658020 36.8999710083 3.1564879417
18.6140575409 36.9327239990 2.9681065083
18.6346263885 36.9667587280 2.7802100182
18.6562099457 37.0027084351 2.5930228233
18.6783847809 37.0397758484 2.4062707424
18.6995906830 37.0750160217 2.2189140320
18.7175674438 37.1041603088 2.0294399261
18.7302837372 37.1233787537 1.8364769220
18.7369213104 37.1311225891 1.6394529343
18.7384815216 37.1292839050 1.4390176535
18.7375965118 37.1228256226 1.2369207144
18.7374382019 37.1177406311 1.0352922678
18.7404003143 37.1185455322 0.8357529640
18.7473335266 37.1268463135 0.6388928890
18.7575302124 37.1413078308 0.4442468286
18.7692852020 37.1587104797 0.2506695986
18.7810668945 37.1761627197 0.0571246147
25.2564086914 26.8652782440 80.5151062012
25.2431373596 26.8494243622 80.3161849976
25.2179889679 26.8221302032 80.1162109375
25.1861400604 26.7883834839 79.9156036377
25.1551589966 26.7554702759 79.7150039673
25.1328411102 26.7308998108 79.5150909424
25.1239395142 26.7192535400 79.3163070679
25.1279582977 26.7200489044 79.1186447144
25.1399726868 26.7285461426 78.9216918945
25.1537952423 26.7387847900 78.7249145508
25.1646480560 26.7461624146 78.5278701782
25.1698722839 26.7481174469 78.3302993774
25.1688041687 26.7440147400 78.1321411133
25.1628990173 26.7352504730 77.9335021973
25.1552810669 26.7248363495 77.7346801758
25.1490840912 26.7157897949 77.5359573364
25.1458377838 26.7095851898 77.3375015259
25.1453571320 26.7060432434 77.1392898560
25.1467838287 26.7043399811 76.9412536621
25.1494979858 26.7038784027 76.7433319092
25.1533660889 26.7045269012 76.5455093384
25.1585197449 26.7064132690 76.3478088379
25.1650753021 26.7096519470 76.1502456665
25.1727485657 26.7139644623 75.9527969360
25.1803741455 26.7182312012 75.7553329468
25.1857223511 26.7203063965 75.5576324463
25.1862258911 26.7177124023 75.3594131470
25.1803302765 26.7089538574 75.1604919434
25.1686420441 26.6946105957 74.9609222412
25.1542968750 26.6777095795 74.7610321045
25.1422710419 26.6630420685 74.5613479614
25.1374759674 26.6553421021 74.3624267578
25.1427898407 26.6573810577 74.1646041870
25.1582813263 26.6692256927 73.9679107666
25.1815509796 26.6885662079 73.7721099854
25.2086334229 26.7115802765 73.5767593384
25.2352714539 26.7341670990 73.3813934326
25.2582626343 26.7532405853 73.1856384277
25.2762374878 26.7674789429 72.9893188477
25.2893619537 26.7770442963 72.7924499512
25.2983741760 26.7826480865 72.5951004028
25.3038311005 26.7848262787 72.3973312378
25.3059310913 26.7837677002 72.1991500854
25.3045177460 26.7793235779 72.0005340576
25.2988548279 26.7707843781 71.8013763428
25.2876033783 26.7568588257 71.6015167236
25.2700576782 26.7368659973 71.4008483887
25.2484340668 26.7129440308 71.1996231079
25.2285385132 26.6906871796 70.9985580444
25.2165336609 26.6760330200 70.7984390259
25.2144012451 26.6708927155 70.5995330811
25.2191753387 26.6724090576 70.4014816284
25.2264328003 26.6763191223 70.2037506104
25.2336063385 26.6801471710 70.0059967041
25.2402935028 26.6835060120 69.8081817627
25.2468547821 26.6867446899 69.6103363037
25.2534236908 26.6899909973 69.4124984741
25.2597885132 26.6930389404 69.2146224976
25.2656326294 26.6955871582 69.0166702271
25.2708568573 26.6975364685 68.8186340332
25.2759208679 26.6993293762 68.6205673218
25.2820453644 26.7021484375 68.4226379395
25.2908134460 26.7075119019 68.2250595093
25.3029651642 26.7161388397 68.0279541016
25.3173618317 26.7269306183 67.8311614990
25.3313484192 26.7373256683 67.6343231201
25.3422451019 26.7447414398 67.4370574951
25.3483619690 26.7475509644 67.2391204834
25.3488407135 26.7449245453 67.0403671265
25.3433113098 26.7365074158 66.8407440186
25.3322658539 26.7227706909 66.6403045654
25.3176822662 26.7056236267 66.4393081665
25.3029232025 26.6883068085 66.2382507324
25.2917823792 26.6744747162 66.0376739502
25.2875003815 26.6672573090 65.8380813599
25.2920837402 26.6685848236 65.6397781372
25.3059024811 26.6788177490 65.4428482056
25.3278617859 26.6968994141 65.2471466064
25.3560333252 26.7209720612 65.0524063110
25.3880615234 26.7487621307 64.8582839966
25.4210891724 26.7775154114 64.6643524170
25.4517803192 26.8040180206 64.4701080322
25.4771003723 26.8253421783 64.2750701904
25.4955673218 26.8400592804 64.0789871216
25.5077247620 26.8486919403 63.8819427490
25.5152778625 26.8528842926 63.6841735840
25.5198249817 26.8541793823 63.4859275818
25.5222702026 26.8534488678 63.2873420715
25.5229949951 26.8510570526 63.0884666443
25.5222263336 26.8472251892 62.8893356323
25.5203418732 26.8423156738 62.6900100708
25.5179805756 26.8369483948 62.4905853271
25.5159759521 26.8319244385 62.2911987305
25.5150470734 26.8279361725 62.0919685364
25.5154399872 26.8252239227 61.8929367065
25.5167694092 26.8234157562 61.6940460205
25.5181941986 26.8216972351 61.4951591492
25.5188140869 26.8192005157 61.2961196899
25.5180797577 26.8154010773 61.0968399048
25.5160713196 26.8103694916 60.8973274231
25.5135841370 26.8048782349 60.6977119446
25.5120086670 26.8002643585 60.4982299805
25.5131168365 26.7982406616 60.2991905212
25.5188560486 26.8006801605 60.1009407043
25.5312728882 26.8095626831 59.9038429260
25.5523719788 26.8268184662 59.7082710266
25.5832767487 26.8535327911 59.5144386292
25.6226119995 26.8883800507 59.3221321106
25.6656703949 26.9268169403 59.1305351257
25.7061462402 26.9627666473 58.9385414124
25.7393283844 26.9916801453 58.7452926636
25.7636299133 27.0120277405 58.5504913330
25.7795925140 27.0243320465 58.3542060852
25.7883853912 27.0297222137 58.1566276550
25.7914810181 27.0296154022 57.9580116272
25.7911796570 27.0262298584 57.7587585449
25.7907466888 27.0227184296 57.5594673157
25.7933807373 27.0221652985 57.3607254028
25.8003139496 27.0257606506 57.1627693176
25.8095340729 27.0315608978 56.9652404785
25.8167762756 27.0354518890 56.7673377991
25.8183631897 27.0338897705 56.5683670044
25.8136253357 27.0262241364 56.3681793213
25.8048152924 27.0146293640 56.1671943665
25.7948379517 27.0019073486 55.9659538269
25.7852134705 26.9895267487 55.7647438049
25.7764549255 26.9779796600 55.5636711121
25.7699623108 26.9686203003 55.3630065918
25.7688217163 26.9644203186 55.1633567810
25.7766036987 26.9688320160 54.9654350281
25.7954216003 26.9838905334 54.7696762085
25.8243103027 27.0086688995 54.5759277344
25.8590145111 27.0390567780 54.3833656311
25.8941440582 27.0698547363 54.1909332275
25.9262371063 27.0977249146 53.9979362488
25.9543876648 27.1217918396 53.8041915894
25.9781589508 27.1416320801 53.6095924377
25.9959735870 27.1557273865 53.4138107300
26.0058174133 27.1621303558 53.2164192200
26.0069656372 27.1601409912 53.0172538757
26.0010471344 27.1513328552 52.8166198730
25.9918537140 27.1393642426 52.6152877808
25.9838848114 27.1285762787 52.4141731262
25.9805641174 27.1222743988 52.2139930725
25.9834957123 27.1220035553 52.0151023865
25.9926776886 27.1277675629 51.8175086975
26.0065555573 27.1380615234 51.6209030151
26.0217552185 27.1496315002 51.4245872498
26.0338153839 27.1581726074 51.2276115417
26.0393028259 27.1603717804 51.0292396545
26.0377960205 27.1558170319 50.8293647766
26.0319709778 27.1470966339 50.6285438538
26.0256824493 27.1379261017 50.4275932312
26.0216655731 27.1309490204 50.2271080017
26.0207901001 27.1270046234 50.0272827148
26.0230617523 27.1260986328 49.8281288147
26.0290546417 27.1287803650 49.6297760010
26.0404720306 27.1367015839 49.4326171875
26.0593757629 27.1518459320 49.2371139526
26.0862712860 27.1747055054 49.0434036255
26.1184787750 27.2026920319 48.8509101868
26.1506118774 27.2306098938 48.6584396362
26.1774902344 27.2534542084 48.4648246765
26.1969890594 27.2691764832 48.2695808411
26.2103481293 27.2789726257 48.0729598999
26.2201957703 27.2853794098 47.8755493164
26.2284603119 27.2902565002 47.6777801514
26.2356376648 27.2940845490 47.4797592163
26.2411804199 27.2963333130 47.2813568115
26.2441749573 27.2961235046 47.0823631287
26.2438735962 27.2927322388 46.8825912476
26.2401294708 27.2860145569 46.6820030212
26.2339229584 27.2769222260 46.4808158875
26.2276611328 27.2677745819 46.2795867920
26.2244091034 27.2615337372 46.0790405273
26.2261829376 27.2601413727 45.8796577454
26.2329158783 27.2635402679 45.6814384460
26.2432174683 27.2703819275 45.4840621948
26.2557411194 27.2793693542 45.2872200012
26.2694702148 27.2895240784 45.0906715393
26.2831001282 27.2995796204 44.8941040039
26.2950553894 27.3080196381 44.6971435547
26.3046340942 27.3141651154 44.4996109009
26.3126144409 27.3187656403 44.3016891479
26.3199977875 27.3227939606 44.1036224365
26.3263034821 27.3257770538 43.9052848816
26.3299102783 27.3261566162 43.7062797546
26.3305206299 27.3236408234 43.5065231323
26.3309993744 27.3209972382 43.3067207336
26.3364810944 27.3231868744 43.1081428528
26.3513164520 27.3344078064 42.9118957520
26.3759918213 27.3551311493 42.7181167603
26.4063377380 27.3813323975 42.5257911682
26.4360752106 27.4069442749 42.3333473206
26.4604530334 27.4273834229 42.1395835876
26.4770698547 27.4403247833 41.9438781738
26.4835662842 27.4434947968 41.7456092834
26.4767990112 27.4338531494 41.5439453125
26.4562816620 27.4109344482 41.3387260437
26.4275417328 27.3800716400 41.1313400269
26.3995819092 27.3499603271 40.9240875244
26.3788890839 27.3268680573 40.7186508179
26.3675937653 27.3128509521 40.5156059265
26.3668918610 27.3090648651 40.3152847290
26.3797187805 27.3183441162 40.1184883118
26.4086608887 27.3431911469 39.9259300232
26.4511585236 27.3811321259 39.7369804382
26.4972896576 27.4225826263 39.5490455627
26.5336589813 27.4546031952 39.3585891724
26.5509529114 27.4682025909 39.1631011963
26.5489711761 27.4631805420 38.9624824524
26.5358963013 27.4474430084 38.7588729858
26.5233879089 27.4322509766 38.5553741455
26.5206661224 27.4265136719 38.3544769287
26.5309085846 27.4333000183 38.1570625305
26.5517005920 27.4502773285 37.9625167847
26.5778160095 27.4723968506 37.7694396973
26.6035537720 27.4941520691 37.5762901306
26.6243591309 27.5111427307 37.3818168640
26.6386985779 27.5218868256 37.1855850220
26.6490974426 27.5288238525 36.9882774353
26.6606597900 27.5368862152 36.7912902832
26.6779212952 27.5504531860 36.5958900452
26.7029609680 27.5715370178 36.4026718140
26.7358932495 27.6002445221 36.2116851807
26.7757740021 27.6356678009 36.0226898193
26.8204631805 27.6757354736 35.8350982666
26.8664169312 27.7170276642 35.6479225159
26.9094104767 27.7554607391 35.4599800110
26.9456176758 27.7873363495 35.2701683044
26.9724197388 27.8101272583 35.0777282715
26.9887828827 27.8228302002 34.8823356628
26.9949798584 27.8257102966 34.6840438843
26.9920539856 27.8197765350 34.4831237793
26.9819831848 27.8069381714 34.2801284790
26.9681529999 27.7904663086 34.0760078430
26.9545669556 27.7742290497 33.8719177246
26.9438438416 27.7607593536 33.6686172485
26.9360466003 27.7501163483 33.4661369324
26.9296379089 27.7408142090 33.2640342712
26.9236392975 27.7319068909 33.0620231628
26.9190578461 27.7243690491 32.8604011536
26.9186115265 27.7208271027 32.6599769592
26.9253444672 27.7242221832 32.4616584778
26.9409408569 27.7361850739 32.2659721375
26.9641590118 27.7555122375 32.0725669861
26.9903488159 27.7777137756 31.8800735474
27.0133552551 27.7968368530 31.6866550446
27.0286808014 27.8085365295 31.4909534454
27.0350379944 27.8115730286 31.2925586700
27.0336227417 27.8070926666 31.0918064117
27.0270538330 27.7976322174 30.8894748688
27.0189476013 27.7866859436 30.6866455078
27.0131473541 27.7779674530 30.4844894409
27.0124626160 27.7741947174 30.2838706970
27.0181522369 27.7765808105 30.0851917267
27.0304889679 27.7853927612 29.8885498047
27.0491275787 27.8002948761 29.6938591003
27.0725307465 27.8198051453 29.5006580353
27.0975017548 27.8408298492 29.3079700470
27.1201610565 27.8596210480 29.1145877838
27.1378421783 27.8736000061 28.9196777344
27.1500873566 27.8823242188 28.7230796814
27.1580867767 27.8869438171 28.5251541138
27.1635723114 27.8891353607 28.3264350891
27.1681156158 27.8904113770 28.1274127960
27.1728706360 27.8918972015 27.9284477234
27.1785202026 27.8942451477 27.7297592163
27.1852550507 27.8976421356 27.5314083099
27.1928329468 27.9018535614 27.3333225250
27.2007217407 27.9063663483 27.1353340149
27.2082958221 27.9105758667 26.9372425079
27.2150402069 27.9139804840 26.7388782501
27.2206764221 27.9163169861 26.5401535034
27.2252521515 27.9176273346 26.3410778046
27.2292175293 27.9183444977 26.1417961121
27.2336254120 27.9194927216 25.9426498413
27.2404117584 27.9229393005 25.7442703247
27.2523250580 27.9313411713 25.5475616455
27.2717285156 27.9469890594 25.3533191681
27.2984542847 27.9697132111 25.1615009308
27.3286647797 27.9958095551 24.9708633423
27.3567333221 28.0198345184 24.7795543671
27.3787708282 28.0380306244 24.5862789154
27.3945388794 28.0501632690 24.3909416199
27.4066085815 28.0587177277 24.1943798065
27.4186153412 28.0672130585 23.9978046417
27.4341697693 28.0791397095 23.8024215698
27.4561595917 28.0972900391 23.6092147827
27.4859237671 28.1229572296 23.4186496735
27.5227413177 28.1554470062 23.2305030823
27.5643539429 28.1925735474 23.0440292358
27.6079196930 28.2315902710 22.8582763672
27.6503849030 28.2695446014 22.6722106934
27.6884860992 28.3032779694 22.4847126007
27.7193851471 28.3300476074 22.2948017120
27.7419853210 28.3487911224 22.1020793915
27.7576885223 28.3608646393 21.9070091248
27.7696990967 28.3693695068 21.7106761932
27.7814445496 28.3776149750 21.5142555237
