-51.3561210632 -15.4874696732 71.6271743774
-51.3840522766 -15.4950618744 71.4393463135
-51.4099464417 -15.5020017624 71.2513809204
-51.4274673462 -15.5062608719 71.0627593994
-51.4326477051 -15.5065689087 70.8731460571
-51.4236221313 -15.5023317337 70.6823501587
-51.3999748230 -15.4934110641 70.4903106689
-51.3626594543 -15.4801168442 70.2970886230
-51.3144416809 -15.4633312225 70.1028976440
-51.2597885132 -15.4444847107 69.9080810547
-51.2040328979 -15.4252853394 69.7130966187
-51.1522979736 -15.4073724747 69.5183868408
-51.1083183289 -15.3919410706 69.3242797852
-51.0734634399 -15.3794317245 69.1309051514
-51.0466270447 -15.3694877625 68.9381942749
-51.0250473022 -15.3612279892 68.7459106445
-51.0054817200 -15.3536128998 68.5537719727
-50.9850158691 -15.3457078934 68.3615264893
-50.9615097046 -15.3368301392 68.1689682007
-50.9335250854 -15.3265190125 67.9759597778
-50.8995971680 -15.3143033981 67.7823638916
-50.8576774597 -15.2995290756 67.5879745483
-50.8060646057 -15.2816495895 67.3926239014
-50.7452011108 -15.2608089447 67.1963272095
-50.6784896851 -15.2380952835 66.9993972778
-50.6109504700 -15.2151145935 66.8022918701
-50.5468902588 -15.1932487488 66.6054306030
-50.4880371094 -15.1730480194 66.4089889526
-50.4328422546 -15.1540193558 66.2128219604
-50.3776779175 -15.1349992752 66.0165786743
-50.3196029663 -15.1150474548 65.8199691772
-50.2587966919 -15.0942201614 65.6230163574
-50.1984596252 -15.0735416412 65.4260253906
-50.1429176331 -15.0543985367 65.2294311523
-50.0961494446 -15.0380659103 65.0336456299
-50.0611305237 -15.0254936218 64.8389892578
-50.0389785767 -15.0170431137 64.6455917358
-50.0283203125 -15.0122728348 64.4533462524
-50.0257453918 -15.0100908279 64.2619171143
-50.0270233154 -15.0091428757 64.0708770752
-50.0278892517 -15.0080633163 63.8797874451
-50.0241737366 -15.0055150986 63.6882057190
-50.0118103027 -15.0001993179 63.4957008362
-49.9873046875 -14.9909925461 63.3018798828
-49.9486465454 -14.9772529602 63.1064987183
-49.8964729309 -14.9591846466 62.9096107483
-49.8348045349 -14.9380741119 62.7116165161
-49.7704124451 -14.9160909653 62.5132408142
-49.7104988098 -14.8955411911 62.3152694702
-49.6599617004 -14.8779945374 62.1182479858
-49.6203041077 -14.8639326096 61.9223670959
-49.5904426575 -14.8530073166 61.7275199890
-49.5681571960 -14.8445091248 61.5334777832
-49.5510673523 -14.8376741409 61.3399887085
-49.5371971130 -14.8318710327 61.1468353271
-49.5252609253 -14.8266868591 60.9538803101
-49.5145301819 -14.8218898773 60.7610397339
-49.5045166016 -14.8173217773 60.5682601929
-49.4948844910 -14.8128747940 60.3755035400
-49.4859809875 -14.8086614609 60.1828155518
-49.4798469543 -14.8053369522 59.9904327393
-49.4807510376 -14.8042659760 59.7988662720
-49.4937896729 -14.8070821762 59.6087303162
-49.5216941833 -14.8146610260 59.4203758240
-49.5621528625 -14.8262615204 59.2335472107
-49.6078109741 -14.8395299911 59.0473937988
-49.6490478516 -14.8513813019 58.8607521057
-49.6780242920 -14.8593044281 58.6726646423
-49.6921424866 -14.8624677658 58.4827919006
-49.6946563721 -14.8619127274 58.2915000916
-49.6919860840 -14.8596973419 58.0995674133
-49.6899909973 -14.8576974869 57.9077033997
-49.6916961670 -14.8568840027 57.7162971497
-49.6971549988 -14.8572711945 57.5253524780
-49.7044906616 -14.8582620621 57.3346443176
-49.7113304138 -14.8590936661 57.1438751221
-49.7160987854 -14.8592605591 56.9528465271
-49.7187690735 -14.8587551117 56.7615432739
-49.7205619812 -14.8579692841 56.5701293945
-49.7229042053 -14.8573589325 56.3787765503
-49.7264900208 -14.8571472168 56.1875839233
-49.7311820984 -14.8572902679 55.9965324402
-49.7364921570 -14.8576316833 55.8055572510
-49.7422370911 -14.8581113815 55.6146430969
-49.7491340637 -14.8589620590 55.4238815308
-49.7589683533 -14.8607521057 55.2335090637
-49.7738990784 -14.8641757965 55.0438232422
-49.7950477600 -14.8695936203 54.8549804688
-49.8210906982 -14.8765783310 54.6668205261
-49.8478088379 -14.8837804794 54.4787750244
-49.8692932129 -14.8893060684 54.2900466919
-49.8799247742 -14.8913536072 54.0998535156
-49.8758583069 -14.8886890411 53.9076461792
-49.8557167053 -14.8808727264 53.7132110596
-49.8213768005 -14.8685054779 53.5167770386
-49.7785186768 -14.8534078598 53.3191070557
-49.7356681824 -14.8383131027 53.1213760376
-49.7012519836 -14.8259201050 52.9247665405
-49.6802635193 -14.8178300858 52.7300033569
-49.6728515625 -14.8140935898 52.5371322632
-49.6757469177 -14.8136596680 52.3457069397
-49.6850814819 -14.8152894974 52.1552009583
-49.6982765198 -14.8181571960 51.9652557373
-49.7139091492 -14.8218059540 51.7756690979
-49.7303504944 -14.8257141113 51.5862121582
-49.7445678711 -14.8289098740 51.3964424133
-49.7524909973 -14.8300876617 51.2057685852
-49.7514762878 -14.8284006119 51.0137825012
-49.7430725098 -14.8243446350 50.8207015991
-49.7331428528 -14.8197994232 50.6273765564
-49.7286224365 -14.8169879913 50.4348335266
-49.7335662842 -14.8172101974 50.2436943054
-49.7474937439 -14.8203134537 50.0538978577
-49.7667160034 -14.8251142502 49.8649063110
-49.7871398926 -14.8302993774 49.6761169434
-49.8063468933 -14.8350954056 49.4871597290
-49.8241653442 -14.8394460678 49.2980079651
-49.8421669006 -14.8438558578 49.1088981628
-49.8629684448 -14.8491630554 48.9202346802
-49.8898048401 -14.8564043045 48.7325210571
-49.9263076782 -14.8667469025 48.5463333130
-49.9757156372 -14.8812274933 48.3621864319
-50.0390167236 -14.9001617432 48.1802673340
-50.1134376526 -14.9226617813 48.0001640320
-50.1932487488 -14.9468927383 47.8209915161
-50.2727394104 -14.9710206985 47.6418647766
-50.3484306335 -14.9939298630 47.4622268677
-50.4183578491 -15.0149927139 47.2817611694
-50.4795494080 -15.0332546234 47.0999755859
-50.5269546509 -15.0470952988 46.9160499573
-50.5554122925 -15.0548620224 46.7291183472
-50.5630111694 -15.0559387207 46.5388450623
-50.5526199341 -15.0512475967 46.3456497192
-50.5304031372 -15.0427627563 46.1505050659
-50.5027542114 -15.0325365067 45.9544372559
-50.4744186401 -15.0220899582 45.7582168579
-50.4488525391 -15.0125293732 45.5624084473
-50.4293556213 -15.0049171448 45.3675651550
-50.4190177917 -15.0002412796 45.1742095947
-50.4192619324 -14.9989595413 44.9826049805
-50.4288368225 -15.0006685257 44.7925491333
-50.4444160461 -15.0043048859 44.6035118103
-50.4619598389 -15.0085706711 44.4148178101
-50.4774818420 -15.0121889114 44.2257957458
-50.4874000549 -15.0140085220 44.0358352661
-50.4890441895 -15.0131759644 43.8444671631
-50.4812889099 -15.0093278885 43.6514854431
-50.4647407532 -15.0026588440 43.4569740295
-50.4413642883 -14.9938011169 43.2612571716
-50.4140739441 -14.9836854935 43.0648269653
-50.3865699768 -14.9735021591 42.8683166504
-50.3631973267 -14.9646434784 42.6724853516
-50.3480491638 -14.9584236145 42.4780578613
-50.3437080383 -14.9556694031 42.2854995728
-50.3506050110 -14.9565200806 42.0949134827
-50.3672637939 -14.9605026245 41.9060516357
-50.3906974792 -14.9666576385 41.7184066772
-50.4167976379 -14.9736680984 41.5312614441
-50.4411888123 -14.9801321030 41.3438339233
-50.4604110718 -14.9849367142 41.1555023193
-50.4725990295 -14.9874858856 40.9659233093
-50.4774703979 -14.9876861572 40.7750282288
-50.4761199951 -14.9858922958 40.5830078125
-50.4710121155 -14.9828920364 40.3902931213
-50.4659500122 -14.9799060822 40.1975708008
-50.4656486511 -14.9784469604 40.0057106018
-50.4745178223 -14.9799318314 39.8155250549
-50.4947700500 -14.9850673676 39.6274452209
-50.5246696472 -14.9932985306 39.4411659241
-50.5582923889 -15.0027246475 39.2556114197
-50.5872879028 -15.0106668472 39.0692291260
-50.6038856506 -15.0146293640 38.8805580139
-50.6037788391 -15.0132341385 38.6887664795
-50.5876464844 -15.0066967010 38.4939537048
-50.5607910156 -14.9967184067 38.2970848083
-50.5313568115 -14.9859123230 38.0996894836
-50.5074386597 -14.9768743515 37.9032974243
-50.4936828613 -14.9710988998 37.7088050842
-50.4889450073 -14.9682159424 37.5160140991
-50.4866714478 -14.9661235809 37.3236846924
-50.4783401489 -14.9620885849 37.1301765442
-50.4579849243 -14.9541931152 36.9343299866
-50.4247627258 -14.9421701431 36.7359542847
-50.3824768066 -14.9272375107 36.5357666016
-50.3372497559 -14.9113607407 36.3349418640
-50.2951126099 -14.8964748383 36.1346626282
-50.2601394653 -14.8838872910 35.9357261658
-50.2336997986 -14.8740386963 35.7384185791
-50.2152633667 -14.8667583466 35.5426559448
-50.2038993835 -14.8617467880 35.3482627869
-50.1992530823 -14.8588914871 35.1551856995
-50.2014656067 -14.8582372665 34.9634666443
-50.2103805542 -14.8597335815 34.7730789185
-50.2249298096 -14.8630390167 34.5838317871
-50.2432403564 -14.8675518036 34.3953514099
-50.2632484436 -14.8726100922 34.2072296143
-50.2830467224 -14.8776006699 34.0190849304
-50.3007316589 -14.8819122314 33.8305244446
-50.3143806458 -14.8849296570 33.6411590576
-50.3222236633 -14.8860826492 33.4506149292
-50.3227043152 -14.8848724365 33.2585601807
-50.3147773743 -14.8809642792 33.0647735596
-50.2988548279 -14.8744878769 32.8693122864
-50.2777557373 -14.8663511276 32.6727561951
-50.2565727234 -14.8581867218 32.4761466980
-50.2412376404 -14.8519001007 32.2807235718
-50.2366790771 -14.8490705490 32.0875244141
-50.2452011108 -14.8504419327 31.8970565796
-50.2654190063 -14.8555679321 31.7090492249
-50.2924270630 -14.8628730774 31.5224933624
-50.3196563721 -14.8702497482 31.3360099792
-50.3414306641 -14.8758754730 31.1483974457
-50.3544311523 -14.8786840439 30.9589366913
-50.3575935364 -14.8783349991 30.7673873901
-50.3514823914 -14.8750076294 30.5738487244
-50.3382682800 -14.8694009781 30.3787708282
-50.3219299316 -14.8627901077 30.1829948425
-50.3075447083 -14.8568067551 29.9876136780
-50.2998275757 -14.8529644012 29.7936515808
-50.3020401001 -14.8523092270 29.6018295288
-50.3156814575 -14.8553237915 29.4124908447
-50.3402633667 -14.8618516922 29.2255535126
-50.3729438782 -14.8709793091 29.0404148102
-50.4086952209 -14.8810930252 28.8559837341
-50.4411888123 -14.8901615143 28.6708717346
-50.4639320374 -14.8961000443 28.4836406708
-50.4716377258 -14.8972082138 28.2930965424
-50.4619331360 -14.8927278519 28.0986881256
-50.4364547729 -14.8831815720 27.9007434845
-50.4001541138 -14.8701601028 27.7003402710
-50.3595352173 -14.8557510376 27.4989166260
-50.3210830688 -14.8420381546 27.2979221344
-50.2902030945 -14.8307552338 27.0985755920
-50.2703857422 -14.8230247498 26.9016857147
-50.2628784180 -14.8192481995 26.7075538635
-50.2665710449 -14.8190679550 26.5159511566
-50.2776031494 -14.8212442398 26.3260173798
-50.2891540527 -14.8235883713 26.1362094879
-50.2929954529 -14.8234548569 25.9446411133
-50.2826080322 -14.8187522888 25.7498016357
-50.2557830811 -14.8087711334 25.5511531830
-50.2152290344 -14.7943811417 25.3492908478
-50.1679382324 -14.7778244019 25.1458091736
-50.1237792969 -14.7622747421 24.9429893494
-50.0927085876 -14.7509288788 24.7431545258
-50.0811653137 -14.7458543777 24.5478363037
-50.0901565552 -14.7473735809 24.3573036194
-50.1160926819 -14.7543363571 24.1707553864
-50.1530532837 -14.7648410797 23.9868297577
-50.1949081421 -14.7769174576 23.8040981293
-50.2366218567 -14.7889480591 23.6213798523
-50.2746315002 -14.7997903824 23.4378261566
-50.3066139221 -14.8086967468 23.2528800964
-50.3315773010 -14.8153486252 23.0662918091
-50.3505363464 -14.8200721741 22.8782901764
-50.3666076660 -14.8238677979 22.6896133423
-50.3837394714 -14.8280048370 22.5012035370
-50.4048271179 -14.8334112167 22.3137626648
-50.4308509827 -14.8404045105 22.1275348663
-50.4616394043 -14.8489284515 21.9424877167
-50.4970359802 -14.8589334488 21.7585926056
-50.5368041992 -14.8703432083 21.5757999420
-50.5793495178 -14.8826446533 21.3937282562
-50.6209716797 -14.8946495056 21.2114772797
-50.6569175720 -14.9048318863 21.0278778076
-50.6833190918 -14.9119482040 20.8419666290
-50.6983451843 -14.9154109955 20.6532726288
-50.7021293640 -14.9152603149 20.4618091583
-50.6964569092 -14.9120712280 20.2679958344
-50.6852569580 -14.9071063995 20.0727920532
-50.6754570007 -14.9025926590 19.8779182434
-50.6764907837 -14.9015579224 19.6857318878
-50.6972961426 -14.9068765640 19.4984970093
-50.7423553467 -14.9199886322 19.3173751831
-50.8097572327 -14.9402799606 19.1419296265
-50.8921699524 -14.9653949738 18.9703540802
-50.9790573120 -14.9919471741 18.8000068665
-51.0588722229 -15.0162296295 18.6279697418
-51.1215095520 -15.0349922180 18.4516544342
-51.1607055664 -15.0462236404 18.2694320679
-51.1753997803 -15.0495796204 18.0809860229
-51.1696624756 -15.0463714600 17.8873138428
-51.1514091492 -15.0391416550 17.6904106140
-51.1296920776 -15.0307989120 17.4925861359
-51.1114997864 -15.0235862732 17.2956371307
-51.1001434326 -15.0185728073 17.1004276276
-51.0963706970 -15.0159940720 16.9071617126
-51.1005058289 -15.0159587860 16.7159442902
-51.1134643555 -15.0187587738 16.5270233154
-51.1359634399 -15.0246238708 16.3406066895
-51.1669158936 -15.0332059860 16.1564254761
-51.2021942139 -15.0431795120 15.9734115601
-51.2348136902 -15.0522975922 15.7897357941
-51.2571792603 -15.0581216812 15.6033878326
-51.2644424438 -15.0590915680 15.4130659103
-51.2567214966 -15.0552444458 15.2187709808
-51.2389488220 -15.0481681824 15.0217885971
-51.2191429138 -15.0404367447 14.8242340088
-51.2059059143 -15.0348157883 14.6284008026
-51.2054367065 -15.0333003998 14.4359636307
-51.2191734314 -15.0363502502 14.2473297119
-51.2441139221 -15.0430011749 14.0617189407
-51.2755966187 -15.0517568588 13.8778963089
-51.3097496033 -15.0613689423 13.6948280334
-51.3440856934 -15.0710411072 13.5118455887
-51.3772392273 -15.0803337097 13.3285779953
-51.4084968567 -15.0890178680 13.1448307037
-51.4367942810 -15.0967493057 12.9603061676
-51.4597015381 -15.1027479172 12.7743368149
-51.4740982056 -15.1060113907 12.5860576630
-51.4783935547 -15.1060285568 12.3950147629
-51.4743423462 -15.1033611298 12.2016716003
-51.4669151306 -15.0996084213 12.0073843002
-51.4627990723 -15.0969209671 11.8139972687
-51.4686851501 -15.0974473953 11.6233692169
-51.4897689819 -15.1028614044 11.4369640350
-51.5286216736 -15.1139879227 11.2555265427
-51.5846786499 -15.1306457520 11.0789337158
-51.6543312073 -15.1516752243 10.9062061310
-51.7307815552 -15.1748914719 10.7354660034
-51.8038711548 -15.1970262527 10.5638713837
-51.8618507385 -15.2143049240 10.3881063461
-51.8957061768 -15.2238264084 10.2055969238
-51.9029769897 -15.2248010635 10.0156030655
-51.8878784180 -15.2185831070 9.8192691803
-51.8580436707 -15.2076263428 9.6187200546
-51.8211555481 -15.1944007874 9.4161186218
-51.7837028503 -15.1809940338 9.2133007050
-51.7513351440 -15.1692228317 9.0118837357
-51.7290000916 -15.1606760025 8.8132944107
-51.7198410034 -15.1563663483 8.6184558868
-51.7234992981 -15.1561775208 8.4272880554
-51.7353630066 -15.1586275101 8.2384862900
-51.7481422424 -15.1613731384 8.0499582291
-51.7552604675 -15.1622972488 7.8597970009
-51.7535858154 -15.1603937149 7.6670832634
-51.7435798645 -15.1558113098 7.4719352722
-51.7276535034 -15.1493244171 7.2750391960
-51.7090301514 -15.1419696808 7.0773272514
-51.6919136047 -15.1351003647 6.8800258636
-51.6817169189 -15.1304550171 6.6847276688
-51.6841773987 -15.1298809052 6.4931344986
-51.7035484314 -15.1347455978 6.3065247536
-51.7411308289 -15.1454687119 6.1253156662
-51.7950019836 -15.1614303589 5.9489712715
-51.8604583740 -15.1811170578 5.7761254311
-51.9305267334 -15.2022905350 5.6047291756
-51.9973411560 -15.2224159241 5.4324436188
-52.0546875000 -15.2394962311 5.2574062347
-52.1000976563 -15.2527389526 5.0788617134
-52.1346092224 -15.2624759674 4.8970971107
-52.1609191895 -15.2695751190 4.7129044533
-52.1819610596 -15.2749795914 4.5271492004
-52.2002601624 -15.2795028687 4.3405866623
-52.2176437378 -15.2837305069 4.1537623405
-52.2352371216 -15.2880268097 3.9670171738
-52.2540092468 -15.2927017212 3.7806439400
-52.2750778198 -15.2981157303 3.5949871540
-52.2993850708 -15.3045711517 3.4103369713
-52.3270835876 -15.3121175766 3.2267477512
-52.3572769165 -15.3204689026 3.0439517498
-52.3882369995 -15.3290643692 2.8614201546
-52.4179000854 -15.3372440338 2.6785228252
-52.4444427490 -15.3444204330 2.4946930408
-52.4663314819 -15.3500995636 2.3094530106
-52.4818687439 -15.3537349701 2.1222677231
-52.4888496399 -15.3546180725 1.9324402809
-52.4853286743 -15.3521223068 1.7393515110
-52.4715461731 -15.3463249207 1.5430550575
-52.4515609741 -15.3385314941 1.3447979689
-52.4326629639 -15.3310880661 1.1468486786
-52.4221267700 -15.3263339996 0.9514866471
-52.4237289429 -15.3254861832 0.7599164844
-52.4371871948 -15.3284530640 0.5720708370
-52.4600791931 -15.3344545364 0.3872072101
-52.4893074036 -15.3424968719 0.2043685168
-52.5210914612 -15.3513593674 0.0223672297
-27.3826847076 45.7896041870 74.6458740234
-27.3923435211 45.8027610779 74.4579315186
-27.4057731628 45.8218383789 74.2705841064
-27.4194183350 45.8412551880 74.0832901001
-27.4295635223 45.8551788330 73.8954696655
-27.4339885712 45.8601226807 73.7067794800
-27.4323577881 45.8555641174 73.5171432495
-27.4251632690 45.8422737122 73.3266067505
-27.4125308990 45.8204421997 73.1351776123
-27.3939762115 45.7893218994 72.9427642822
-27.3691043854 45.7482833862 72.7492752075
-27.3385982513 45.6984024048 72.5547943115
-27.3046665192 45.6431427002 72.3596801758
-27.2704830170 45.5874862671 72.1644287109
-27.2391796112 45.5363502502 71.9695739746
-27.2131423950 45.4934768677 71.7755126953
-27.1935520172 45.4607276917 71.5824737549
-27.1799736023 45.4374084473 71.3904037476
-27.1703147888 45.4202461243 71.1989593506
-27.1616535187 45.4046478271 71.0076522827
-27.1514835358 45.3866767883 70.8160629272
-27.1386528015 45.3645324707 70.6239700317
-27.1234321594 45.3386383057 70.4314193726
-27.1067390442 45.3104286194 70.2385635376
-27.0892276764 45.2809333801 70.0455169678
-27.0710868835 45.2504501343 69.8523025513
-27.0525341034 45.2193222046 69.6589660645
-27.0343132019 45.1887130737 69.4656295776
-27.0176277161 45.1605148315 69.2725296021
-27.0036334991 45.1365394592 69.0798721313
-26.9929752350 45.1178016663 68.8877944946
-26.9856758118 45.1043357849 68.6963119507
-26.9812431335 45.0953674316 68.5053329468
-26.9786472321 45.0892868042 68.3146820068
-26.9761867523 45.0834159851 68.1240463257
-26.9715785980 45.0741729736 67.9329833984
-26.9624137878 45.0577774048 67.7410202026
-26.9468097687 45.0312690735 67.5477905273
-26.9239940643 44.9934425354 67.3531036377
-26.8946361542 44.9453468323 67.1570816040
-26.8608112335 44.8902320862 66.9600982666
-26.8256473541 44.8330192566 66.7627563477
-26.7927360535 44.7793388367 66.5657806396
-26.7651042938 44.7339477539 66.3697738647
-26.7440376282 44.6988601685 66.1750106812
-26.7285842896 44.6725883484 65.9813385010
-26.7162570953 44.6512222290 65.7882461548
-26.7043075562 44.6304512024 65.5951995850
-26.6906375885 44.6069755554 65.4017639160
-26.6738929749 44.5786705017 65.2076416016
-26.6531963348 44.5441627502 65.0126495361
-26.6281394958 44.5028076172 64.8166885376
-26.5990352631 44.4551010132 64.6198043823
-26.5669250488 44.4026679993 64.4222030640
-26.5333042145 44.3478698730 64.2241973877
-26.4999847412 44.2935371399 64.0261688232
-26.4689464569 44.2427864075 63.8285446167
-26.4418830872 44.1982803345 63.6317024231
-26.4195995331 44.1612739563 63.4358253479
-26.4017276764 44.1311912537 63.2408561707
-26.3869094849 44.1059112549 63.0465049744
-26.3731994629 44.0823631287 62.8523597717
-26.3584709167 44.0572204590 62.6579437256
-26.3408603668 44.0275497437 62.4628410339
-26.3193397522 43.9917373657 62.2668075562
-26.2943038940 43.9504051208 62.0699195862
-26.2677440643 43.9066810608 61.8726158142
-26.2426910400 43.8653221130 61.6755828857
-26.2221546173 43.8310546875 61.4795227051
-26.2080421448 43.8068733215 61.2848892212
-26.2004795074 43.7929763794 61.0917320251
-26.1977252960 43.7866325378 60.8996696472
-26.1967792511 43.7831230164 60.7080154419
-26.1944580078 43.7774581909 60.5160217285
-26.1884765625 43.7660408020 60.3231506348
-26.1781024933 43.7477302551 60.1292114258
-26.1642150879 43.7238998413 59.9343986511
-26.1487579346 43.6976051331 59.7391700745
-26.1339168549 43.6722755432 59.5440406799
-26.1215171814 43.6507797241 59.3494606018
-26.1127376556 43.6349678040 59.1557235718
-26.1079769135 43.6254692078 58.9629440308
-26.1070251465 43.6219482422 58.7710800171
-26.1095352173 43.6238670349 58.5800590515
-26.1153507233 43.6309814453 58.3898582458
-26.1243057251 43.6430206299 58.2004432678
-26.1358413696 43.6591110229 58.0116882324
-26.1491394043 43.6779708862 57.8233985901
-26.1637821198 43.6989440918 57.6354675293
-26.1803131104 43.7228813171 57.4480438232
-26.2001628876 43.7520370483 57.2614974976
-26.2248439789 43.7887725830 57.0762290955
-26.2546558380 43.8335723877 56.8923301697
-26.2877159119 43.8834724426 56.7093353271
-26.3200473785 43.9322280884 56.5262184143
-26.3468456268 43.9722976685 56.3417243958
-26.3641967773 43.9975242615 56.1548004150
-26.3704509735 44.0053291321 55.9649848938
-26.3666305542 43.9973030090 55.7725028992
-26.3556060791 43.9779663086 55.5780906677
-26.3407764435 43.9526519775 55.3826217651
-26.3252372742 43.9262237549 55.1869201660
-26.3117866516 43.9030761719 54.9917373657
-26.3030719757 43.8873634338 54.7977943420
-26.3009967804 43.8820800781 54.6056251526
-26.3055858612 43.8872642517 54.4152679443
-26.3144569397 43.8991775513 54.2260818481
-26.3236865997 43.9116477966 54.0370063782
-26.3294925690 43.9187431335 53.8470001221
-26.3295402527 43.9167976379 53.6553955078
-26.3233947754 43.9051208496 53.4620552063
-26.3123474121 43.8857421875 53.2673187256
-26.2987937927 43.8624305725 53.0718383789
-26.2852973938 43.8392028809 52.8763351440
-26.2737407684 43.8190269470 52.6813430786
-26.2650508881 43.8033523560 52.4871292114
-26.2594757080 43.7925682068 52.2937774658
-26.2570114136 43.7866706848 52.1012954712
-26.2576007843 43.7855758667 51.9096832275
-26.2610626221 43.7889862061 51.7188911438
-26.2669181824 43.7961578369 51.5287933350
-26.2743167877 43.8057556152 51.3391532898
-26.2820911407 43.8159446716 51.1496315002
-26.2889633179 43.8247146606 50.9598541260
-26.2938518524 43.8303680420 50.7694931030
-26.2961311340 43.8319244385 50.5783653259
-26.2957229614 43.8292579651 50.3864326477
-26.2929706573 43.8229103088 50.1937866211
-26.2885875702 43.8139953613 50.0006370544
-26.2837734222 43.8044090271 49.8073387146
-26.2802295685 43.7968139648 49.6144027710
-26.2795619965 43.7937393188 49.4223213196
-26.2822990417 43.7960166931 49.2312698364
-26.2874603271 43.8020973206 49.0409545898
-26.2932071686 43.8090972900 48.8508262634
-26.2979583740 43.8145370483 48.6603927612
-26.3010501862 43.8173675537 48.4694480896
-26.3028144836 43.8181114197 48.2780876160
-26.3044223785 43.8186149597 48.0866775513
-26.3076591492 43.8216705322 47.8957672119
-26.3144721985 43.8303489685 47.7059822083
-26.3263130188 43.8469276428 47.5177879333
-26.3435020447 43.8719062805 47.3313064575
-26.3650016785 43.9036598206 47.1462287903
-26.3888378143 43.9390869141 46.9619369507
-26.4127388000 43.9746131897 46.7777099609
-26.4343185425 44.0064926147 46.5927886963
-26.4509487152 44.0305976868 46.4063072205
-26.4602298737 44.0431556702 46.2174797058
-26.4611072540 44.0425109863 46.0259361267
-26.4545917511 44.0302467346 45.8319740295
-26.4434108734 44.0106506348 45.6364593506
-26.4311504364 43.9893608093 45.4405555725
-26.4214820862 43.9721412659 45.2454681396
-26.4174404144 43.9637641907 45.0522079468
-26.4207592010 43.9669532776 44.8613739014
-26.4316101074 43.9819755554 44.6730461121
-26.4488296509 44.0070075989 44.4868659973
-26.4702720642 44.0386734009 44.3021354675
-26.4932022095 44.0726814270 44.1179428101
-26.5148963928 44.1047439575 43.9333801270
-26.5333557129 44.1317253113 43.7477645874
-26.5475120544 44.1519432068 43.5607147217
-26.5567779541 44.1644783020 43.3720207214
-26.5605220795 44.1683387756 43.1814498901
-26.5581665039 44.1626091003 42.9887809753
-26.5497837067 44.1474113464 42.7940216064
-26.5365180969 44.1245384216 42.5975379944
-26.5202045441 44.0968742371 42.3999595642
-26.5024528503 44.0669517517 42.2018280029
-26.4840202332 44.0359535217 42.0034103394
-26.4650020599 44.0040397644 41.8047332764
-26.4455184937 43.9713935852 41.6058425903
-26.4260921478 43.9388351440 41.4069137573
-26.4072856903 43.9072494507 41.2081489563
-26.3889865875 43.8764648438 41.0095100403
-26.3701591492 43.8448448181 40.8106307983
-26.3493194580 43.8100624084 40.6109809875
-26.3254337311 43.7704925537 40.4101753235
-26.2986965179 43.7264404297 40.2082786560
-26.2708568573 43.6806564331 40.0059089661
-26.2447757721 43.6376380920 39.8041076660
-26.2232875824 43.6018333435 39.6039009094
-26.2079906464 43.5757598877 39.4058952332
-26.1988239288 43.5593185425 39.2100906372
-26.1945381165 43.5505523682 39.0160446167
-26.1934242249 43.5467681885 38.8231506348
-26.1935977936 43.5450057983 38.6307220459
-26.1928520203 43.5418014526 38.4379425049
-26.1887626648 43.5333404541 38.2439079285
-26.1794033051 43.5165977478 38.0478858948
-26.1644401550 43.4910430908 37.8497352600
-26.1458110809 43.4597320557 37.6501617432
-26.1273250580 43.4286384583 37.4505920410
-26.1130504608 43.4041709900 37.2525596619
-26.1054458618 43.3901824951 37.0570144653
-26.1046352386 43.3868751526 36.8640251160
-26.1092605591 43.3921089172 36.6730995178
-26.1177673340 43.4034461975 36.4836578369
-26.1289119720 43.4189300537 36.2952423096
-26.1413955688 43.4365158081 36.1073570251
-26.1534194946 43.4533843994 35.9193153381
-26.1627693176 43.4660453796 35.7302589417
-26.1674194336 43.4713211060 35.5393867493
-26.1663284302 43.4675712585 35.3462791443
-26.1598949432 43.4554214478 35.1510734558
-26.1498031616 43.4375267029 34.9544067383
-26.1384181976 43.4175910950 34.7571983337
-26.1281871796 43.3994750977 34.5604095459
-26.1213150024 43.3866348267 34.3649139404
-26.1194667816 43.3816909790 34.1713867188
-26.1232604980 43.3856201172 33.9800949097
-26.1318473816 43.3970832825 33.7907142639
-26.1431560516 43.4128265381 33.6024360657
-26.1547813416 43.4290657043 33.4143028259
-26.1647071838 43.4426345825 33.2254981995
-26.1713809967 43.4510917664 33.0354003906
-26.1734619141 43.4523239136 32.8434448242
-26.1697483063 43.4444541931 32.6491317749
-26.1595516205 43.4263839722 32.4521598816
-26.1431865692 43.3986206055 32.2526321411
-26.1221427917 43.3634986877 32.0511398315
-26.0987014771 43.3246078491 31.8486042023
-26.0752944946 43.2857704163 31.6460170746
-26.0539836884 43.2502288818 31.4442310333
-26.0361919403 43.2202186584 31.2438449860
-26.0226306915 43.1968612671 31.0451679230
-26.0133132935 43.1801719666 30.8482170105
-26.0075721741 43.1691055298 30.6527309418
-26.0041179657 43.1616363525 30.4581794739
-26.0013465881 43.1552391052 30.2638988495
-25.9978809357 43.1477508545 30.0693092346
-25.9931297302 43.1382408142 29.8741588593
-25.9876213074 43.1275405884 29.6786670685
-25.9829502106 43.1181564331 29.4835090637
-25.9813117981 43.1135406494 29.2896232605
-25.9847259521 43.1168670654 29.0978851318
-25.9943141937 43.1299057007 28.9087944031
-26.0098705292 43.1523246765 28.7222805023
-26.0298137665 43.1816406250 28.5376853943
-26.0517005920 43.2140159607 28.3539695740
-26.0732860565 43.2459182739 28.1701660156
-26.0932998657 43.2753486633 27.9857196808
-26.1111202240 43.3013305664 27.8003559113
-26.1258106232 43.3223953247 27.6136589050
-26.1358890533 43.3362007141 27.4249649048
-26.1401901245 43.3409233093 27.2337455750
-26.1389503479 43.3369331360 27.0400867462
-26.1340732574 43.3272285461 26.8448104858
-26.1284866333 43.3164024353 26.6491985321
-26.1251144409 43.3090591431 26.4545459747
-26.1261253357 43.3086090088 26.2618293762
-26.1326122284 43.3167724609 26.0715522766
-26.1445026398 43.3334312439 25.8836975098
-26.1604747772 43.3565063477 25.6976947784
-26.1781482697 43.3822593689 25.5124874115
-26.1947383881 43.4063110352 25.3268222809
-26.2079086304 43.4249839783 25.1396408081
-26.2161693573 43.4359321594 24.9502544403
-26.2187232971 43.4379119873 24.7582817078
-26.2153453827 43.4305610657 24.5636024475
-26.2066707611 43.4148788452 24.3664836884
-26.1944656372 43.3936424255 24.1677169800
-26.1813106537 43.3709144592 23.9684772491
-26.1697406769 43.3506774902 23.7699241638
-26.1615715027 43.3357887268 23.5729084015
-26.1577625275 43.3277587891 23.3778820038
-26.1585655212 43.3269805908 23.1849765778
-26.1635780334 43.3328247070 22.9940261841
-26.1718463898 43.3437843323 22.8045959473
-26.1823577881 43.3582763672 22.6162242889
-26.1949577332 43.3760566711 22.4288501740
-26.2108974457 43.3990821838 22.2430648804
-26.2323589325 43.4307975769 22.0599117279
-26.2613754272 43.4743957520 21.8803710938
-26.2990360260 43.5315856934 21.7049827576
-26.3452625275 43.6022567749 21.5337448120
-26.3988418579 43.6844863892 21.3661041260
-26.4574851990 43.7746887207 21.2010021210
-26.5181427002 43.8680572510 21.0369911194
-26.5774593353 43.9593162537 20.8724727631
-26.6321239471 44.0432624817 20.7058486938
-26.6792049408 44.1152839661 20.5356884003
-26.7167186737 44.1722526550 20.3610076904
-26.7440567017 44.2132148743 20.1814785004
-26.7616577148 44.2388687134 19.9972763062
-26.7702617645 44.2503662109 19.8087272644
-26.7706470490 44.2489356995 19.6161785126
-26.7642250061 44.2368011475 19.4202919006
-26.7537307739 44.2182579041 19.2223854065
-26.7430591583 44.1994361877 19.0243568420
-26.7362022400 44.1866111755 18.8281726837
-26.7360782623 44.1843795776 18.6352882385
-26.7439460754 44.1947212219 18.4463500977
-26.7593955994 44.2169876099 18.2611846924
-26.7807025909 44.2484703064 18.0789623260
-26.8054580688 44.2853775024 17.8984985352
-26.8312530518 44.3239173889 17.7186031342
-26.8562030792 44.3611335754 17.5383377075
-26.8793735504 44.3955459595 17.3572273254
-26.9011306763 44.4277381897 17.1754512787
-26.9231433868 44.4603347778 16.9938468933
-26.9477062225 44.4969406128 16.8135757446
-26.9767589569 44.5406112671 16.6356296539
-27.0113105774 44.5929374695 16.4605369568
-27.0515136719 44.6541481018 16.2883949280
-27.0968246460 44.7234001160 16.1189479828
-27.1456985474 44.7982559204 15.9514207840
-27.1953258514 44.8743019104 15.7843875885
-27.2423057556 44.9461784363 15.6161012650
-27.2840099335 45.0097579956 15.4451990128
-27.3194465637 45.0634803772 15.2711505890
-27.3488807678 45.1077575684 15.0940704346
-27.3727722168 45.1433181763 14.9141750336
-27.3911628723 45.1702232361 14.7314662933
-27.4040660858 45.1884918213 14.5459318161
-27.4123573303 45.1995086670 14.3580112457
-27.4182109833 45.2066841125 14.1688222885
-27.4246635437 45.2148094177 13.9799547195
-27.4347915649 45.2287139893 13.7930250168
-27.4508590698 45.2519645691 13.6092414856
-27.4736824036 45.2858467102 13.4290561676
-27.5024108887 45.3290176392 13.2520408630
-27.5348491669 45.3780288696 13.0770549774
-27.5678977966 45.4279975891 12.9024610519
-27.5977878571 45.4729995728 12.7262516022
-27.6206912994 45.5070114136 12.5463724136
-27.6341114044 45.5260963440 12.3614606857
-27.6379623413 45.5301284790 12.1714372635
-27.6340713501 45.5219764709 11.9772500992
-27.6246852875 45.5051803589 11.7800817490
-27.6118030548 45.4828796387 11.5809946060
-27.5977115631 45.4586753845 11.3812122345
-27.5854244232 45.4373130798 11.1823654175
-27.5781326294 45.4238090515 10.9861974716
-27.5782318115 45.4219360352 10.7940301895
-27.5867557526 45.4333190918 10.6064548492
-27.6032352448 45.4572219849 10.4232435226
-27.6257247925 45.4905853271 10.2433605194
-27.6511592865 45.5285797119 10.0651397705
-27.6761856079 45.5659294128 9.8867435455
-27.6981945038 45.5985374451 9.7067337036
-27.7160091400 45.6245422363 9.5244464874
-27.7298526764 45.6442985535 9.3399906158
-27.7408199310 45.6595268250 9.1539583206
-27.7503585815 45.6725120544 8.9671506882
-27.7601432800 45.6858825684 8.7804918289
-27.7720623016 45.7026100159 8.5950403214
-27.7879581451 45.7255973816 8.4118366241
-27.8091678619 45.7569465637 8.2316455841
-27.8361949921 45.7974548340 8.0547704697
-27.8684291840 45.8461570740 7.8808856010
-27.9037628174 45.8997344971 7.7088193893
-27.9386577606 45.9526252747 7.5365800858
-27.9691257477 45.9985504150 7.3619031906
-27.9921360016 46.0327377319 7.1830472946
-28.0065422058 46.0533866882 6.9993343353
-28.0132923126 46.0619812012 6.8112735748
-28.0150547028 46.0627288818 6.6203656197
-28.0154361725 46.0613021851 6.4286603928
-28.0180931091 46.0634574890 6.2382555008
-28.0261917114 46.0741767883 6.0509796143
-28.0420131683 46.0970497131 5.8681707382
-28.0664119720 46.1334266663 5.6903495789
-28.0983772278 46.1817131042 5.5169620514
-28.1353645325 46.2379035950 5.3465571404
-28.1742916107 46.2971496582 5.1773591042
-28.2124156952 46.3551292419 5.0077762604
-28.2474994659 46.4083251953 4.8364977837
-28.2773227692 46.4532432556 4.6622157097
-28.2992324829 46.4857063293 4.4833536148
-28.3105888367 46.5015563965 4.2983322144
-28.3103523254 46.4991607666 4.1065011024
-28.3005809784 46.4817581177 3.9090335369
-28.2862739563 46.4572105408 3.7088506222
-28.2733516693 46.4348449707 3.5094456673
-28.2662715912 46.4216728210 3.3134691715
-28.2667808533 46.4204521179 3.1219811440
-28.2741775513 46.4300689697 2.9345908165
-28.2864532471 46.4473686218 2.7501223087
-28.3014278412 46.4689140320 2.5672891140
-28.3172931671 46.4918632507 2.3850171566
-28.3326435089 46.5140037537 2.2024641037
-28.3464317322 46.5336837769 2.0189971924
-28.3580951691 46.5500183105 1.8342728615
-28.3677272797 46.5631561279 1.6483385563
-28.3760643005 46.5742568970 1.4616349936
-28.3843097687 46.5852127075 1.2748850584
-28.3937988281 46.5981254578 1.0889025927
-28.4055442810 46.6145935059 0.9043082595
-28.4197063446 46.6348609924 0.7212069631
-28.4354305267 46.6575889587 0.5390849710
-28.4514026642 46.6807136536 0.3571443558
-28.4667701721 46.7028808594 0.1748605669
-53.3984718323 -1.6818770170 75.2227096558
-53.4103469849 -1.6811598539 75.0334396362
-53.4313125610 -1.6808786392 74.8447799683
-53.4592552185 -1.6809321642 74.6566009521
-53.4946670532 -1.6813440323 74.4689483643
-53.5378112793 -1.6821272373 74.2818527222
-53.5848312378 -1.6830965281 74.0950622559
-53.6269760132 -1.6838322878 73.9079895020
-53.6534919739 -1.6838185787 73.7198791504
-53.6558265686 -1.6826447248 73.5300979614
-53.6304702759 -1.6801418066 73.3383560181
-53.5791549683 -1.6763930321 73.1447372437
-53.5073280334 -1.6716592312 72.9495697021
-53.4227752686 -1.6663140059 72.7533874512
-53.3352012634 -1.6608228683 72.5568847656
-53.2554168701 -1.6557050943 72.3608398438
-53.1926918030 -1.6514055729 72.1659545898
-53.1509437561 -1.6481128931 71.9725646973
-53.1268882751 -1.6456692219 71.7804412842
-53.1118888855 -1.6436604261 71.5889816284
-53.0960197449 -1.6416095495 71.3974227905
-53.0711708069 -1.6391272545 71.2051467896
-53.0323143005 -1.6359719038 71.0117492676
-52.9779243469 -1.6320698261 70.8170776367
-52.9101867676 -1.6275260448 70.6212844849
-52.8347854614 -1.6226134300 70.4247894287
-52.7596778870 -1.6177142859 70.2282257080
-52.6930923462 -1.6132240295 70.0322494507
-52.6416397095 -1.6094603539 69.8374176025
-52.6093406677 -1.6066170931 69.6440887451
-52.5972023010 -1.6047425270 69.4523773193
-52.6028022766 -1.6037205458 69.2621231079
-52.6207160950 -1.6032904387 69.0728988647
-52.6442756653 -1.6031320095 68.8841629028
-52.6677017212 -1.6029672623 68.6954345703
-52.6873435974 -1.6026207209 68.5064086914
-52.7018165588 -1.6020256281 68.3169479370
-52.7111587524 -1.6011837721 68.1270599365
-52.7151145935 -1.6000831127 67.9367065430
-52.7119560242 -1.5986399651 67.7457199097
-52.6993942261 -1.5967445374 67.5538940430
-52.6768608093 -1.5943690538 67.3611526489
-52.6464080811 -1.5916123390 67.1676788330
-52.6115379333 -1.5886428356 66.9737548828
-52.5755920410 -1.5856211185 66.7796859741
-52.5409545898 -1.5826619864 66.5856857300
-52.5086402893 -1.5798145533 66.3918533325
-52.4777030945 -1.5770330429 66.1981048584
-52.4448928833 -1.5741610527 66.0041351318
-52.4054641724 -1.5709700584 65.8095016479
-52.3549346924 -1.5672441721 65.6137619019
-52.2908325195 -1.5628643036 65.4166641235
-52.2138252258 -1.5578624010 65.2182540894
-52.1281013489 -1.5524399281 65.0188980103
-52.0404968262 -1.5469262600 64.8192596436
-51.9581336975 -1.5416642427 64.6200180054
-51.8860206604 -1.5368953943 64.4216690063
-51.8265876770 -1.5327367783 64.2244873047
-51.7808914185 -1.5292394161 64.0285873413
-51.7494888306 -1.5264303684 63.8340530396
-51.7319755554 -1.5242905617 63.6408691406
-51.7262954712 -1.5227206945 63.4488525391
-51.7286682129 -1.5215388536 63.2576408386
-51.7339782715 -1.5204985142 63.0667266846
-51.7365112305 -1.5193244219 62.8755264282
-51.7314758301 -1.5177854300 62.6835365295
-51.7170181274 -1.5157920122 62.4905586243
-51.6953392029 -1.5134502649 62.2967987061
-51.6717758179 -1.5110174417 62.1028099060
-51.6522216797 -1.5087777376 61.9092063904
-51.6404075623 -1.5069111586 61.7164001465
-51.6366767883 -1.5054341555 61.5244331360
-51.6386070251 -1.5042302608 61.3330688477
-51.6427574158 -1.5031334162 61.1419372559
-51.6462554932 -1.5020052195 60.9507331848
-51.6475906372 -1.5007724762 60.7592926025
-51.6465568542 -1.4994255304 60.5675849915
-51.6437911987 -1.4979948997 60.3756752014
-51.6402282715 -1.4965256453 60.1836700439
-51.6366195679 -1.4950543642 59.9916458130
-51.6331825256 -1.4935909510 59.7996330261
-51.6294021606 -1.4921109676 59.6075706482
-51.6242904663 -1.4905668497 59.4153404236
-51.6170387268 -1.4889190197 59.2228584290
-51.6077041626 -1.4871706963 59.0301208496
-51.5974769592 -1.4853790998 58.8372612000
-51.5881881714 -1.4836326838 58.6444892883
-51.5814399719 -1.4820090532 58.4519996643
-51.5779991150 -1.4805446863 58.2598800659
-51.5777778625 -1.4792360067 58.0681304932
-51.5802192688 -1.4780559540 57.8766899109
-51.5846824646 -1.4769735336 57.6854820251
-51.5907783508 -1.4759700298 57.4944686890
-51.5987548828 -1.4750573635 57.3036842346
-51.6099205017 -1.4742985964 57.1132850647
-51.6267013550 -1.4738116264 56.9235763550
-51.6517677307 -1.4737250805 56.7348899841
-51.6861572266 -1.4740893841 56.5473709106
-51.7276496887 -1.4747972488 56.3607559204
-51.7706298828 -1.4755773544 56.1743698120
-51.8077583313 -1.4760749340 55.9873046875
-51.8327293396 -1.4759848118 55.7987556458
-51.8427276611 -1.4751706123 55.6083488464
-51.8390693665 -1.4736963511 55.4162254333
-51.8258056641 -1.4717570543 55.2228736877
-51.8079681396 -1.4695963860 55.0289192200
-51.7910423279 -1.4674798250 54.8350524902
-51.7810821533 -1.4656999111 54.6420516968
-51.7840995789 -1.4645477533 54.4507102966
-51.8045501709 -1.4642393589 54.2616233826
-51.8435325623 -1.4648276567 54.0749702454
-51.8971977234 -1.4661270380 53.8902816772
-51.9567184448 -1.4677100182 53.7064170837
-52.0109634399 -1.4690382481 53.5219230652
-52.0508766174 -1.4696729183 53.3355827332
-52.0722923279 -1.4694123268 53.1468200684
-52.0757446289 -1.4682822227 52.9556694031
-52.0647544861 -1.4664528370 52.7625732422
-52.0442657471 -1.4641631842 52.5681762695
-52.0195808411 -1.4616702795 52.3731765747
-51.9957542419 -1.4592186213 52.1782569885
-51.9773292542 -1.4570285082 51.9840431213
-51.9678688049 -1.4552721977 51.7910308838
-51.9684143066 -1.4540005922 51.5993843079
-51.9758834839 -1.4530645609 51.4086914063
-51.9836273193 -1.4521417618 51.2180404663
-51.9849739075 -1.4509088993 51.0264930725
-51.9772720337 -1.4492374659 50.8336715698
-51.9630889893 -1.4472519159 50.6399192810
-51.9482040405 -1.4452321529 50.4460449219
-51.9384727478 -1.4434620142 50.2528800964
-51.9373512268 -1.4421093464 50.0609245300
-51.9448127747 -1.4411724806 49.8701934814
-51.9579620361 -1.4405114651 49.6802825928
-51.9731521606 -1.4399493933 49.4906768799
-51.9882049561 -1.4393808842 49.3010597229
-52.0034103394 -1.4388197660 49.1114807129
-52.0206413269 -1.4383571148 48.9222068787
-52.0414085388 -1.4380657673 48.7334671021
-52.0654830933 -1.4379353523 48.5452346802
-52.0910606384 -1.4378777742 48.3572463989
-52.1154670715 -1.4377636909 48.1691093445
-52.1361122131 -1.4374670982 47.9804306030
-52.1525154114 -1.4369647503 47.7911338806
-52.1687202454 -1.4364529848 47.6018218994
-52.1927490234 -1.4363209009 47.4137039185
-52.2318229675 -1.4369194508 47.2278938293
-52.2871627808 -1.4383076429 47.0446014404
-52.3529167175 -1.4402019978 46.8629608154
-52.4190864563 -1.4421169758 46.6814613342
-52.4753341675 -1.4435504675 46.4985008240
-52.5142402649 -1.4441425800 46.3129158020
-52.5332107544 -1.4437667131 46.1242713928
-52.5336112976 -1.4424891472 45.9327468872
-52.5181007385 -1.4404386282 45.7387199402
-52.4891662598 -1.4377359152 45.5425605774
-52.4498710632 -1.4345295429 45.3447227478
-52.4045715332 -1.4310312271 45.1458816528
-52.3583374023 -1.4274868965 44.9468269348
-52.3163414001 -1.4241482019 44.7483901978
-52.2842292786 -1.4212895632 44.5514793396
-52.2678833008 -1.4191964865 44.3570556641
-52.2712402344 -1.4180612564 44.1657905579
-52.2936210632 -1.4178503752 43.9776039124
-52.3288154602 -1.4182627201 43.7915191650
-52.3670921326 -1.4188251495 43.6059761047
-52.3990287781 -1.4190794230 43.4194297791
-52.4186859131 -1.4187369347 43.2308998108
-52.4240989685 -1.4177019596 43.0400352478
-52.4154472351 -1.4159829617 42.8468399048
-52.3930664063 -1.4135961533 42.6513442993
-52.3570594788 -1.4105463028 42.4535408020
-52.3085441589 -1.4068876505 42.2535934448
-52.2513275146 -1.4028053284 42.0521202087
-52.1921195984 -1.3986254930 41.8502388000
-52.1385993958 -1.3947218657 41.6492385864
-52.0966720581 -1.3913818598 41.4501342773
-52.0686035156 -1.3887161016 41.2533378601
-52.0525703430 -1.3866357803 41.0585594177
-52.0436897278 -1.3849031925 40.8649787903
-52.0364303589 -1.3832495213 40.6716651917
-52.0274505615 -1.3815119267 40.4780349731
-52.0173492432 -1.3797197342 40.2841949463
-52.0106887817 -1.3780949116 40.0909347534
-52.0143699646 -1.3769735098 39.8994636536
-52.0346260071 -1.3766591549 39.7108955383
-52.0736961365 -1.3772612810 39.5256538391
-52.1282196045 -1.3786163330 39.3431777954
-52.1903381348 -1.3803416491 39.1621055603
-52.2503356934 -1.3819642067 38.9807205200
-52.2991294861 -1.3830412626 38.7974090576
-52.3299751282 -1.3832442760 38.6109352112
-52.3395652771 -1.3824119568 38.4206809998
-52.3284111023 -1.3805686235 38.2266960144
-52.3005981445 -1.3779134750 38.0296821594
-52.2631568909 -1.3747887611 37.8308830261
-52.2248153687 -1.3716197014 37.6318664551
-52.1940078735 -1.3688176870 37.4341735840
-52.1763038635 -1.3666540384 37.2388343811
-52.1723823547 -1.3651621342 37.0460014343
-52.1781272888 -1.3641415834 36.8549346924
-52.1871604919 -1.3632813692 36.6644744873
-52.1938018799 -1.3623044491 36.4735755920
-52.1944122314 -1.3610334396 36.2815551758
-52.1872100830 -1.3593813181 36.0880737305
-52.1720504761 -1.3573410511 35.8930854797
-52.1505584717 -1.3549914360 35.6968803406
-52.1256446838 -1.3524750471 35.5000000000
-52.1004257202 -1.3499431610 35.3030242920
-52.0774002075 -1.3475182056 35.1064300537
-52.0585746765 -1.3452981710 34.9105987549
-52.0457954407 -1.3433727026 34.7158927917
-52.0406379700 -1.3418191671 34.5226211548
-52.0439758301 -1.3406803608 34.3309707642
-52.0556068420 -1.3399462700 34.1409111023
-52.0741462708 -1.3395493031 33.9521942139
-52.0971870422 -1.3393723965 33.7643699646
-52.1217994690 -1.3392723799 33.5768661499
-52.1452331543 -1.3391149044 33.3891601563
-52.1656227112 -1.3388088942 33.2008781433
-52.1824035645 -1.3383266926 33.0119056702
-52.1962013245 -1.3376990557 32.8223571777
-52.2082977295 -1.3369882107 32.6324844360
-52.2201156616 -1.3362637758 32.4425659180
-52.2330207825 -1.3355927467 32.2528686523
-52.2479248047 -1.3350193501 32.0635757446
-52.2644729614 -1.3345263004 31.8746261597
-52.2807121277 -1.3340182304 31.6856269836
-52.2938461304 -1.3333586454 31.4960174561
-52.3011932373 -1.3324160576 31.3052482605
-52.3006286621 -1.3310867548 31.1128807068
-52.2910346985 -1.3293162584 30.9186744690
-52.2730178833 -1.3271336555 30.7227363586
-52.2490005493 -1.3246576786 30.5255451202
-52.2219696045 -1.3220340014 30.3277034760
-52.1937255859 -1.3193507195 30.1295700073
-52.1645736694 -1.3166228533 29.9312114716
-52.1348075867 -1.3138644695 29.7326831818
-52.1062927246 -1.3111671209 29.5343723297
-52.0825424194 -1.3087027073 29.3370094299
-52.0673980713 -1.3066588640 29.1414031982
-52.0635414124 -1.3051670790 28.9481296539
-52.0714912415 -1.3042529821 28.7573165894
-52.0890235901 -1.3038077354 28.5685195923
-52.1109161377 -1.3035758734 28.3806552887
-52.1297912598 -1.3031967878 28.1921730042
-52.1386222839 -1.3023258448 28.0015792847
-52.1339187622 -1.3007925749 27.8081130981
-52.1172599792 -1.2986739874 27.6120872498
-52.0937995911 -1.2962222099 27.4145812988
-52.0692520142 -1.2937171459 27.2168083191
-52.0478935242 -1.2913676500 27.0196819305
-52.0322570801 -1.2892984152 26.8237571716
-52.0235786438 -1.2875696421 26.6293106079
-52.0219001770 -1.2861835957 26.4363632202
-52.0259819031 -1.2850797176 26.2446575165
-52.0334663391 -1.2841423750 26.0536918640
-52.0414428711 -1.2832291126 25.8628368378
-52.0472640991 -1.2822104692 25.6715106964
-52.0493392944 -1.2810082436 25.4793624878
-52.0477752686 -1.2796275616 25.2864093781
-52.0446281433 -1.2781692743 25.0930957794
-52.0430870056 -1.2767896652 24.9001293182
-52.0457572937 -1.2756162882 24.7080879211
-52.0535888672 -1.2746961117 24.5171928406
-52.0665245056 -1.2740259171 24.3274402618
-52.0847434998 -1.2736150026 24.1388797760
-52.1089248657 -1.2734962702 23.9516696930
-52.1391830444 -1.2736757994 23.7658519745
-52.1738929749 -1.2740739584 23.5810680389
-52.2096672058 -1.2745244503 23.3965606689
-52.2430229187 -1.2748564482 23.2115402222
-52.2723655701 -1.2749921083 23.0256404877
-52.2981948853 -1.2749553919 22.8389663696
-52.3215446472 -1.2747973204 22.6517505646
-52.3429679871 -1.2745445967 22.4641132355
-52.3630676270 -1.2742273808 22.2761917114
-52.3832778931 -1.2739155293 22.0883121490
-52.4054870605 -1.2737020254 21.9009132385
-52.4308242798 -1.2736420631 21.7142581940
-52.4586982727 -1.2737069130 21.5282173157
-52.4869422913 -1.2737898827 21.3422870636
-52.5127105713 -1.2737517357 21.1558074951
-52.5332412720 -1.2734565735 20.9681262970
-52.5460166931 -1.2727806568 20.7786407471
-52.5488700867 -1.2716176510 20.5868301392
-52.5404853821 -1.2699027061 20.3923645020
-52.5212478638 -1.2676546574 20.1953163147
-52.4943466187 -1.2650300264 19.9964199066
-52.4667778015 -1.2623722553 19.7973251343
-52.4491386414 -1.2602020502 19.6005573273
-52.4528274536 -1.2590795755 19.4088573456
-52.4852905273 -1.2593705654 19.2240467072
-52.5464630127 -1.2610725164 19.0461616516
-52.6290550232 -1.2638276815 18.8735008240
-52.7217979431 -1.2670822144 18.7033824921
-52.8127403259 -1.2702487707 18.5329322815
-52.8912353516 -1.2728043795 18.3595657349
-52.9493064880 -1.2743566036 18.1813220978
-52.9829940796 -1.2747106552 17.9971981049
-52.9930992126 -1.2739052773 17.8073444366
-52.9846801758 -1.2721893787 17.6129608154
-52.9655952454 -1.2699487209 17.4159393311
-52.9445724487 -1.2676126957 17.2184123993
-52.9295082092 -1.2655693293 17.0223217010
-52.9262390137 -1.2641060352 16.8291263580
-52.9378433228 -1.2633743286 16.6396064758
-52.9645195007 -1.2633841038 16.4538402557
-53.0043373108 -1.2640403509 16.2713718414
-53.0541229248 -1.2651876211 16.0914363861
-53.1092414856 -1.2665973902 15.9128885269
-53.1627120972 -1.2679266930 15.7339868546
-53.2059173584 -1.2687510252 15.5525598526
-53.2314796448 -1.2687073946 15.3667297363
-53.2365188599 -1.2676537037 15.1757354736
-53.2240638733 -1.2657388449 14.9803075790
-53.2018585205 -1.2633440495 14.7823820114
-53.1792678833 -1.2609298229 14.5843248367
-53.1640510559 -1.2588784695 14.3881149292
-53.1607666016 -1.2574145794 14.1949319839
-53.1707725525 -1.2566050291 14.0051460266
-53.1925964355 -1.2563776970 13.8184013367
-53.2222442627 -1.2565356493 13.6336917877
-53.2541809082 -1.2568067312 13.4496030807
-53.2830429077 -1.2569264174 13.2647495270
-53.3049812317 -1.2567051649 13.0781278610
-53.3179550171 -1.2560424805 12.8891954422
-53.3213920593 -1.2549098730 12.6977853775
-53.3158874512 -1.2533366680 12.5040388107
-53.3033523560 -1.2514169216 12.3084363937
-53.2876930237 -1.2493429184 12.1119928360
-53.2755775452 -1.2474435568 11.9164562225
-53.2757568359 -1.2461500168 11.7241382599
-53.2957725525 -1.2458342314 11.5370550156
-53.3378257751 -1.2466052771 11.3558254242
-53.3973617554 -1.2482386827 11.1792812347
-53.4654045105 -1.2502919436 11.0050640106
-53.5318984985 -1.2522692680 10.8305091858
-53.5876998901 -1.2537199259 10.6531705856
