2.0410048962 -57.4782104492 24.2435283661
2.0425868034 -57.4955329895 24.0573005676
2.0396969318 -57.3954124451 23.8431167603
2.0346002579 -57.2373199463 23.6149578094
2.0292026997 -57.0712966919 23.3846950531
2.0245211124 -56.9240455627 23.1587200165
2.0213794708 -56.8172378540 22.9422836304
2.0207130909 -56.7754364014 22.7413825989
2.0228924751 -56.8084068298 22.5584964752
2.0271713734 -56.8965454102 22.3890132904
2.0321590900 -57.0033187866 22.2241535187
2.0367376804 -57.0993652344 22.0567970276
2.0403580666 -57.1702308655 21.8833980560
2.0427198410 -57.2080230713 21.7019729614
2.0435993671 -57.2068634033 21.5110206604
2.0429930687 -57.1666336060 21.3104419708
2.0410962105 -57.0924682617 21.1014270782
2.0381050110 -56.9895172119 20.8851928711
2.0342974663 -56.8650779724 20.6634922028
2.0303194523 -56.7361373901 20.4405097961
2.0270695686 -56.6263237000 20.2221202850
2.0251457691 -56.5513687134 20.0122909546
2.0245158672 -56.5104408264 19.8108749390
2.0247373581 -56.4918937683 19.6150150299
2.0253610611 -56.4839248657 19.4217815399
2.0261254311 -56.4796562195 19.2294578552
2.0269303322 -56.4764518738 19.0373859406
2.0277509689 -56.4736633301 18.8454036713
2.0285863876 -56.4712524414 18.6535015106
2.0294415951 -56.4693679810 18.4617176056
2.0303485394 -56.4688377380 18.2702636719
2.0314171314 -56.4725646973 18.0798873901
2.0329198837 -56.4877204895 17.8924350739
2.0353116989 -56.5262794495 17.7110042572
2.0390191078 -56.5994834900 17.5385360718
2.0440089703 -56.7064628601 17.3748703003
2.0495398045 -56.8277053833 17.2150173187
2.0545198917 -56.9344596863 17.0515384674
2.0582149029 -57.0073814392 16.8793773651
2.0605955124 -57.0457038879 16.6982707977
2.0620775223 -57.0603485107 16.5110092163
2.0630736351 -57.0621986389 16.3204021454
2.0637738705 -57.0562515259 16.1277370453
2.0641987324 -57.0430488586 15.9331417084
2.0643968582 -57.0238647461 15.7369403839
2.0646102428 -57.0050849915 15.5408096313
2.0652050972 -56.9963493347 15.3473052979
2.0663783550 -57.0028533936 15.1578273773
2.0680062771 -57.0213432312 14.9715356827
2.0698664188 -57.0459556580 14.7868890762
2.0719532967 -57.0765380859 14.6038579941
2.0744655132 -57.1183471680 14.4238615036
2.0774796009 -57.1733932495 14.2474594116
2.0807077885 -57.2340927124 14.0726375580
2.0836429596 -57.2870674133 13.8957910538
2.0859148502 -57.3225631714 13.7142677307
2.0874562263 -57.3387870789 13.5275497437
2.0883438587 -57.3377761841 13.3361539841
2.0885760784 -57.3194770813 13.1400356293
2.0880737305 -57.2817878723 12.9385881424
2.0869059563 -57.2265396118 12.7322769165
2.0854587555 -57.1639099121 12.5238609314
2.0842866898 -57.1085281372 12.3173484802
2.0837714672 -57.0704689026 12.1155281067
2.0839755535 -57.0513877869 11.9188871384
2.0848462582 -57.0498886108 11.7270755768
2.0865557194 -57.0705299377 11.5413904190
2.0896391869 -57.1274452209 11.3657999039
2.0946760178 -57.2359313965 11.2046318054
2.1016080379 -57.3944625854 11.0575551987
2.1093428135 -57.5742225647 10.9166002274
2.1162657738 -57.7325668335 10.7698488235
2.1212704182 -57.8402786255 10.6090517044
2.1242296696 -57.8939895630 10.4331655502
2.1255354881 -57.9040336609 10.2450103760
2.1253755093 -57.8753623962 10.0459022522
2.1235086918 -57.8016014099 9.8339662552
2.1197237968 -57.6771583557 9.6075305939
2.1145570278 -57.5161857605 9.3705282211
2.1095459461 -57.3592910767 9.1344804764
2.1066274643 -57.2576789856 8.9140329361
2.1071078777 -57.2458534241 8.7191753387
2.1110064983 -57.3243675232 8.5502319336
2.1171588898 -57.4624595642 8.3985166550
2.1238839626 -57.6157073975 8.2513294220
2.1297552586 -57.7464027405 8.0978012085
2.1340339184 -57.8350181580 7.9322333336
2.1366176605 -57.8788375854 7.7537612915
2.1377122402 -57.8832893372 7.5638813972
2.1375811100 -57.8553276062 7.3645482063
2.1365489960 -57.8035316467 7.1582069397
2.1350650787 -57.7397842407 6.9482903481
2.1335306168 -57.6746788025 6.7378859520
2.1319694519 -57.6088638306 6.5271792412
2.1300024986 -57.5322990417 6.3132143021
2.1273453236 -57.4374656677 6.0937500000
2.1244306564 -57.3357963562 5.8721361160
2.1224718094 -57.2593994141 5.6578741074
2.1227245331 -57.2415122986 5.4608812332
2.1255073547 -57.2905731201 5.2837786674
2.1298911572 -57.3820114136 5.1193609238
2.1343748569 -57.4761085510 4.9558372498
2.1378877163 -57.5445213318 4.7847261429
2.1402173042 -57.5816154480 4.6042900085
2.1417109966 -57.5965919495 4.4172358513
2.1427917480 -57.6006317139 4.2268934250
2.1437206268 -57.6006469727 4.0353288651
2.1446068287 -57.5995368958 3.8434097767
2.1454849243 -57.5982055664 3.6514110565
2.1463637352 -57.5968933105 3.4594037533
2.1472432613 -57.5956001282 3.2673873901
2.1481068134 -57.5938758850 3.0752265453
2.1488952637 -57.5901679993 2.8824439049
2.1494681835 -57.5807418823 2.6878943443
2.1495957375 -57.5595092773 2.4896976948
2.1490633488 -57.5207939148 2.2860872746
2.1478879452 -57.4650344849 2.0771648884
2.1464421749 -57.4020881653 1.8659446239
2.1452887058 -57.3468894958 1.6570296288
2.1448552608 -57.3107566833 1.4539438486
2.1452965736 -57.2978019714 1.2579973936
2.1466259956 -57.3083877563 1.0693479776
2.1488237381 -57.3419990540 0.8878759742
2.1517136097 -57.3939628601 0.7121670246
2.1547958851 -57.4510345459 0.5381077528
2.1573193073 -57.4932937622 0.3594608009
2.1585674286 -57.5017395020 0.1702281535
-42.6770553589 -21.4274024963 92.5956878662
-42.6964683533 -21.4350795746 92.4060516357
-42.7454338074 -21.4560394287 92.2172012329
-42.8435134888 -21.4990787506 92.0297088623
-43.0089607239 -21.5724029541 91.8441848755
-43.2479667664 -21.6787948608 91.6609420776
-43.5483665466 -21.8127880096 91.4797744751
-43.8809051514 -21.9612293243 91.2999496460
-44.2083778381 -22.1073951721 91.1204071045
-44.4989585876 -22.2369823456 90.9401702881
-44.7344551086 -22.3418064117 90.7585830688
-44.9090232849 -22.4192409515 90.5753402710
-45.0253677368 -22.4705009460 90.3904113770
-45.0936813354 -22.5001716614 90.2040176392
-45.1301383972 -22.5155200958 90.0166168213
-45.1532821655 -22.5248832703 89.8287887573
-45.1816940308 -22.5366134644 89.6411743164
-45.2318191528 -22.5581092834 89.4543609619
-45.3079757690 -22.5913066864 89.2685699463
-45.3870353699 -22.6258068085 89.0829772949
-45.4212455750 -22.6401481628 88.8957672119
-45.3755569458 -22.6185665131 88.7054748535
-45.2689590454 -22.5695991516 88.5126953125
-45.1694335938 -22.5238113403 88.3200378418
-45.1431465149 -22.5109500885 88.1302413940
-45.2117958069 -22.5407733917 87.9443511963
-45.3527297974 -22.6030960083 87.7616043091
-45.5277862549 -22.6807632446 87.5805053711
-45.7110252380 -22.7621097565 87.3999938965
-45.8949432373 -22.8437633514 87.2197494507
-46.0711822510 -22.9219646454 87.0393905640
-46.2087211609 -22.9827671051 86.8574981689
-46.2632217407 -23.0062332153 86.6719131470
-46.2156181335 -22.9837913513 86.4815826416
-46.0962791443 -22.9290924072 86.2877426147
-45.9655532837 -22.8692722321 86.0931701660
-45.8736839294 -22.8269233704 85.9003219604
-45.8425941467 -22.8119049072 85.7103652954
-45.8765106201 -22.8261146545 85.5236358643
-45.9735527039 -22.8687114716 85.3401794434
-46.1209259033 -22.9339389801 85.1594619751
-46.2910118103 -23.0093803406 84.9801254272
-46.4580802917 -23.0834674835 84.8008422852
-46.6185646057 -23.1545944214 84.6214218140
-46.7816467285 -23.2268924713 84.4423522949
-46.9377861023 -23.2960662842 84.2631072998
-47.0459403992 -23.3436660767 84.0813751221
-47.0543670654 -23.3464183807 83.8941192627
-46.9337882996 -23.2911586761 83.6994628906
-46.7025375366 -23.1861286163 83.4981994629
-46.4304809570 -23.0627460480 83.2942123413
-46.2093200684 -22.9622497559 83.0928649902
-46.1019287109 -22.9129161835 82.8980407715
-46.1111602783 -22.9160270691 82.7101516724
-46.1922340393 -22.9514465332 82.5266799927
-46.2929077148 -22.9956817627 82.3445205688
-46.3894348145 -23.0380516052 82.1622314453
-46.4959602356 -23.0849189758 81.9806900024
-46.6426048279 -23.1498298645 81.8018646240
-46.8376502991 -23.2365112305 81.6263656616
-47.0469665527 -23.3296089172 81.4520568848
-47.2154541016 -23.4043483734 81.2753219604
-47.3098945618 -23.4457855225 81.0938415527
-47.3354988098 -23.4562644958 80.9078216553
-47.3131675720 -23.4451847076 80.7185440063
-47.2523803711 -23.4168090820 80.5265731812
-47.1528015137 -23.3709850311 80.3318099976
-47.0291442871 -23.3143310547 80.1351928711
-46.9254684448 -23.2666625977 79.9398193359
-46.8933258057 -23.2511672974 79.7494201660
-46.9502563477 -23.2757339478 79.5654220581
-47.0631752014 -23.3254833221 79.3855743408
-47.1739997864 -23.3742923737 79.2057189941
-47.2356109619 -23.4009666443 79.0223388672
-47.2247390747 -23.3950405121 78.8335800171
-47.1372451782 -23.3546485901 78.6389846802
-46.9879074097 -23.2864379883 78.4395217896
-46.8130302429 -23.2067394257 78.2378692627
-46.6578254700 -23.1358852386 78.0374984741
-46.5516738892 -23.0870971680 77.8407516479
-46.4959564209 -23.0609951019 77.6478500366
-46.4741630554 -23.0501499176 77.4575729370
-46.4686965942 -23.0466499329 77.2685699463
-46.4689254761 -23.0457134247 77.0800094604
-46.4703483582 -23.0453128815 76.8915328979
-46.4714508057 -23.0447654724 76.7030181885
-46.4718284607 -23.0438938141 76.5144348145
-46.4716110229 -23.0427570343 76.3257827759
-46.4713897705 -23.0416145325 76.1371231079
-46.4720382690 -23.0408649445 75.9485244751
-46.4748878479 -23.0411052704 75.7601089478
-46.4828414917 -23.0436401367 75.5721206665
-46.5024795532 -23.0514335632 75.3851547241
-46.5448684692 -23.0694618225 75.2002105713
-46.6204833984 -23.1024360657 75.0182571411
-46.7283134460 -23.1499042511 74.8392868042
-46.8494148254 -23.2033443451 74.6616439819
-46.9555740356 -23.2500610352 74.4828033447
-47.0265846252 -23.2809677124 74.3008728027
-47.0582160950 -23.2941589355 74.1153869629
-47.0557098389 -23.2919902802 73.9267654419
-47.0254554749 -23.2773380280 73.7355270386
-46.9749870300 -23.2535934448 73.5423278809
-46.9162406921 -23.2261219025 73.3482589722
-46.8625526428 -23.2009258270 73.1545791626
-46.8202857971 -23.1808681488 72.9619140625
-46.7855339050 -23.1641921997 72.7699127197
-46.7518882751 -23.1480121613 72.5779495239
-46.7241363525 -23.1344852448 72.3865203857
-46.7242622375 -23.1334991455 72.1977996826
-46.7776565552 -23.1564807892 72.0143814087
-46.8848190308 -23.2036552429 71.8364257813
-47.0063285828 -23.2572841644 71.6600646973
-47.0847625732 -23.2915325165 71.4794616699
-47.0887260437 -23.2922763824 71.2913208008
-47.0361480713 -23.2675762177 71.0973281860
-46.9757194519 -23.2393455505 70.9024353027
-46.9487915039 -23.2261886597 70.7109603882
-46.9664230347 -23.2330799103 70.5241241455
-47.0138969421 -23.2533988953 70.3404541016
-47.0712699890 -23.2781734467 70.1579055786
-47.1327247620 -23.3047847748 69.9758529663
-47.2120132446 -23.3394222260 69.7958068848
-47.3291893005 -23.3911056519 69.6199722290
-47.4868736267 -23.4610195160 69.4487152100
-47.6565551758 -23.5363349915 69.2789840698
-47.7911415100 -23.5958576202 69.1055908203
-47.8535156250 -23.6228847504 68.9243164063
-47.8340606689 -23.6130924225 68.7339324951
-47.7466850281 -23.5727329254 68.5358428955
-47.6165618896 -23.5131378174 68.3327713013
-47.4727821350 -23.4473972321 68.1279449463
-47.3439254761 -23.3883686066 67.9246215820
-47.2512321472 -23.3456134796 67.7252960205
-47.2037734985 -23.3232135773 67.5310821533
-47.2030715942 -23.3218574524 67.3422698975
-47.2519493103 -23.3428115845 67.1592712402
-47.3524131775 -23.3869800568 66.9824371338
-47.4881134033 -23.4470100403 66.8099212646
-47.6110534668 -23.5012950897 66.6360473633
-47.6580047607 -23.5213832855 66.4531860352
-47.5927009583 -23.4909534454 66.2567749023
-47.4367904663 -23.4197444916 66.0492324829
-47.2583312988 -23.3383865356 65.8386917114
-47.1264686584 -23.2779998779 65.6336441040
-47.0713043213 -23.2521305084 65.4378967285
-47.0794296265 -23.2547435760 65.2499389648
-47.1206436157 -23.2722492218 65.0661315918
-47.1779670715 -23.2970046997 64.8843917847
-47.2578849792 -23.3319301605 64.7055816650
-47.3755226135 -23.3838348389 64.5316619873
-47.5264968872 -23.4507427216 64.3621673584
-47.6683082581 -23.5135269165 64.1916885376
-47.7328186035 -23.5415210724 64.0113906860
-47.6683502197 -23.5114631653 63.8143920898
-47.4826507568 -23.4268379211 63.6014442444
-47.2500648499 -23.3211097717 63.3820686340
-47.0680313110 -23.2381305695 63.1690330505
-46.9933204651 -23.2034606934 62.9699935913
-47.0139160156 -23.2116851807 62.7835578918
-47.0762634277 -23.2387046814 62.6027412415
-47.1309471130 -23.2622737885 62.4209632874
-47.1531791687 -23.2712364197 62.2348480225
-47.1354408264 -23.2622089386 62.0433044434
-47.0784492493 -23.2355098724 61.8463516235
-46.9957809448 -23.1972541809 61.6457710266
-46.9198951721 -23.1620502472 61.4460029602
-46.8897705078 -23.1474437714 61.2524795532
-46.9234352112 -23.1615524292 61.0678138733
-47.0034446716 -23.1965217590 60.8896827698
-47.0920600891 -23.2353687286 60.7128677368
-47.1593437195 -23.2646121979 60.5331344604
-47.1961441040 -23.2801322937 60.3491401672
-47.2062911987 -23.2836570740 60.1613693237
-47.1939735413 -23.2770671844 59.9703674316
-47.1605453491 -23.2609729767 59.7762870789
-47.1108360291 -23.2375488281 59.5797843933
-47.0590667725 -23.2131977081 59.3829002380
-47.0255699158 -23.1970729828 59.1886100769
-47.0254325867 -23.1959648132 58.9991722107
-47.0587005615 -23.2098979950 58.8146629333
-47.1106452942 -23.2322368622 58.6329650879
-47.1617088318 -23.2541790009 58.4511909485
-47.1986351013 -23.2697582245 58.2673568726
-47.2175178528 -23.2772140503 58.0808410645
-47.2179298401 -23.2763538361 57.8915443420
-47.1958351135 -23.2653617859 57.6988105774
-47.1434745789 -23.2407417297 57.5014076233
-47.0577278137 -23.2010917664 57.2987976074
-46.9494857788 -23.1513099670 57.0925903320
-46.8433532715 -23.1024799347 56.8865432739
-46.7664833069 -23.0668239594 56.6848945618
-46.7385749817 -23.0532093048 56.4907722473
-46.7715415955 -23.0670051575 56.3061485291
-46.8702125549 -23.1103839874 56.1319160461
-47.0241508484 -23.1786460876 55.9665565491
-47.2008628845 -23.2571659088 55.8050155640
-47.3579330444 -23.3268413544 55.6405677795
-47.4679679871 -23.3753395081 55.4687843323
-47.5305175781 -23.4024581909 55.2894897461
-47.5610733032 -23.4151706696 55.1050949097
-47.5704612732 -23.4183521271 54.9172935486
-47.5509109497 -23.4085044861 54.7247695923
-47.4798202515 -23.3754482269 54.5237617493
-47.3453102112 -23.3138351440 54.3122100830
-47.1760368347 -23.2365646362 54.0947189331
-47.0405158997 -23.1744937897 53.8825798035
-47.0083656311 -23.1589698792 53.6874618530
-47.1084213257 -23.2029762268 53.5143966675
-47.3164558411 -23.2956066132 53.3595962524
-47.5722122192 -23.4097290039 53.2131156921
-47.8082084656 -23.5149555206 53.0636291504
-47.9739074707 -23.5885276794 52.9025039673
-48.0424499512 -23.6183471680 52.7250099182
-48.0017051697 -23.5989570618 52.5288619995
-47.8505706787 -23.5298500061 52.3136482239
-47.6151161194 -23.4227733612 52.0836448669
-47.3621101379 -23.3077888489 51.8502578735
-47.1741256714 -23.2220859528 51.6278343201
-47.0954666138 -23.1856155396 51.4242553711
-47.1026725769 -23.1878108978 51.2356262207
-47.1294212341 -23.1988105774 51.0504417419
-47.1174507141 -23.1923694611 50.8584289551
-47.0498619080 -23.1608810425 50.6565055847
-46.9505615234 -23.1151123047 50.4488220215
-46.8604431152 -23.0734767914 50.2426338196
-46.8111610413 -23.0502319336 50.0436477661
-46.8130340576 -23.0500259399 49.8538055420
-46.8587684631 -23.0695743561 49.6718978882
-46.9331588745 -23.1020259857 49.4952468872
-47.0209617615 -23.1405220032 49.3211364746
-47.1099014282 -23.1795291901 49.1473388672
-47.1896629333 -23.2144050598 48.9719657898
-47.2517433167 -23.2413177490 48.7934303284
-47.2918510437 -23.2583312988 48.6108932495
-47.3101730347 -23.2655372620 48.4243507385
-47.3063659668 -23.2627716064 48.2336921692
-47.2747573853 -23.2474861145 48.0378074646
-47.2080993652 -23.2164154053 47.8352737427
-47.1098060608 -23.1710910797 47.6266708374
-47.0023727417 -23.1216506958 47.4161834717
-46.9192581177 -23.0831642151 47.2101593018
-46.8845176697 -23.0664653778 47.0132369995
-46.8992958069 -23.0720710754 46.8257331848
-46.9468917847 -23.0924587250 46.6445426941
-47.0106163025 -23.1201133728 46.4665145874
-47.0891990662 -23.1544589996 46.2914390564
-47.1968193054 -23.2018871307 46.1220970154
-47.3469238281 -23.2684516907 45.9611740112
-47.5329284668 -23.3511886597 45.8074684143
-47.7224769592 -23.4355239868 45.6547012329
-47.8708801270 -23.5013256073 45.4940795898
-47.9445762634 -23.5334758759 45.3188819885
-47.9381446838 -23.5295314789 45.1278762817
-47.8726882935 -23.4989967346 44.9251022339
-47.7790679932 -23.4557743073 44.7165985107
-47.6823005676 -23.4111347198 44.5073165894
-47.5990905762 -23.3726005554 44.3006210327
-47.5446777344 -23.3470382690 44.0996055603
-47.5347938538 -23.3415355682 43.9075202942
-47.5753135681 -23.3587417603 43.7256546021
-47.6465644836 -23.3897895813 43.5500984192
-47.6979675293 -23.4118976593 43.3705635071
-47.6682128906 -23.3974456787 43.1744308472
-47.5283508301 -23.3333854675 42.9555587769
-47.3126983643 -23.2351799011 42.7208137512
-47.0998306274 -23.1382293701 42.4863357544
-46.9575233459 -23.0730628967 42.2662315369
-46.9067649841 -23.0491409302 42.0650291443
-46.9302062988 -23.0586509705 41.8792877197
-47.0008125305 -23.0894088745 41.7034759521
-47.1002922058 -23.1331748962 41.5338401794
-47.2152137756 -23.1839008331 41.3675918579
-47.3183288574 -23.2293071747 41.1989898682
-47.3633842468 -23.2485580444 41.0181503296
-47.3150825500 -23.2257423401 40.8174171448
-47.1872596741 -23.1670989990 40.5995635986
-47.0393028259 -23.0993843079 40.3771896362
-46.9318847656 -23.0499305725 40.1633453369
-46.8935928345 -23.0316257477 39.9642944336
-46.9243431091 -23.0444278717 39.7801666260
-47.0115051270 -23.0826473236 39.6083526611
-47.1346435547 -23.1370773315 39.4445114136
-47.2640647888 -23.1943397522 39.2821998596
-47.3663330078 -23.2393684387 39.1140899658
-47.4154739380 -23.2604598999 38.9343872070
-47.4005699158 -23.2526931763 38.7405738831
-47.3272743225 -23.2186126709 38.5337638855
-47.2173767090 -23.1680412292 38.3186874390
-47.1073150635 -23.1173915863 38.1034126282
-47.0389518738 -23.0855331421 37.8973121643
-47.0414123535 -23.0855884552 37.7070198059
-47.1160697937 -23.1181774139 37.5329971313
-47.2381515503 -23.1721363068 37.3697853088
-47.3738632202 -23.2322387695 37.2098197937
-47.4976005554 -23.2869453430 37.0473060608
-47.5965690613 -23.3304939270 36.8793029785
-47.6662826538 -23.3608551025 36.7047233582
-47.7061691284 -23.3777790070 36.5233840942
-47.7161712646 -23.3812351227 36.3352012634
-47.6920890808 -23.3693313599 36.1391487122
-47.6250305176 -23.3380584717 35.9330940247
-47.5120162964 -23.2860755920 35.7162551880
-47.3716773987 -23.2217769623 35.4928779602
-47.2457962036 -23.1639919281 35.2726707458
-47.1770706177 -23.1319656372 35.0656776428
-47.1812858582 -23.1328125000 34.8757247925
-47.2402725220 -23.1583423615 34.6986846924
-47.3182487488 -23.1924304962 34.5262069702
-47.3811912537 -23.2197437286 34.3502540588
-47.4043197632 -23.2291126251 34.1649055481
-47.3725433350 -23.2137393951 33.9664764404
-47.2857475281 -23.1735668182 33.7548179626
-47.1664199829 -23.1187305450 33.5352210999
-47.0539054871 -23.0669631958 33.3170852661
-46.9843177795 -23.0345458984 33.1091423035
-46.9756698608 -23.0295925140 32.9158439636
-47.0277748108 -23.0520210266 32.7372741699
-47.1259269714 -23.0952053070 32.5699691772
-47.2433319092 -23.1470680237 32.4074935913
-47.3506889343 -23.1944007874 32.2427062988
-47.4321517944 -23.2300643921 32.0716972351
-47.4924468994 -23.2561855316 31.8955745697
-47.5472755432 -23.2798461914 31.7181739807
-47.6069030762 -23.3056678772 31.5420246124
-47.6671829224 -23.3317871094 31.3661079407
-47.7135391235 -23.3516273499 31.1867942810
-47.7317657471 -23.3587875366 31.0005054474
-47.7164611816 -23.3508358002 30.8058319092
-47.6737403870 -23.3305244446 30.6042385101
-47.6187934875 -23.3047027588 30.3994960785
-47.5681953430 -23.2808418274 30.1957607269
-47.5298042297 -23.2624816895 29.9950313568
-47.4972801208 -23.2467632294 29.7957267761
-47.4534683228 -23.2259597778 29.5934906006
-47.3815498352 -23.1924858093 29.3840045929
-47.2788772583 -23.1451454163 29.1665306091
-47.1636352539 -23.0921382904 28.9456748962
-47.0661430359 -23.0471324921 28.7292137146
-47.0121498108 -23.0217361450 28.5238323212
-47.0140419006 -23.0215320587 28.3328266144
-47.0720901489 -23.0466423035 28.1563796997
-47.1749534607 -23.0919570923 27.9916648865
-47.2990455627 -23.1468448639 27.8326187134
-47.4160003662 -23.1985130310 27.6718635559
-47.5050315857 -23.2375946045 27.5039348602
-47.5564041138 -23.2596988678 27.3262157440
-47.5649833679 -23.2625102997 27.1372699738
-47.5263862610 -23.2440528870 26.9358501434
-47.4413833618 -23.2046756744 26.7220630646
-47.3227424622 -23.1501312256 26.4992046356
-47.1962585449 -23.0920486450 26.2740783691
-47.0917091370 -23.0438556671 26.0546226501
-47.0300445557 -23.0149955750 25.8464946747
-47.0196990967 -23.0092735291 25.6520500183
-47.0644340515 -23.0283851624 25.4724102020
-47.1692352295 -23.0745773315 25.3090343475
-47.3333129883 -23.1474971771 25.1618347168
-47.5357131958 -23.2376956940 25.0252494812
-47.7317047119 -23.3250083923 24.8871898651
-47.8715476990 -23.3870048523 24.7340774536
-47.9289054871 -23.4118118286 24.5585937500
-47.9119415283 -23.4031066895 24.3628005981
-47.8491287231 -23.3737297058 24.1543693542
-47.7692985535 -23.3366794586 23.9411487579
-47.6933097839 -23.3013591766 23.7288665771
-47.6342277527 -23.2736625671 23.5211448669
-47.5972061157 -23.2559127808 23.3194541931
-47.5795898438 -23.2469120026 23.1230983734
-47.5744895935 -23.2435550690 22.9302005768
-47.5753097534 -23.2428665161 22.7389354706
-47.5778541565 -23.2429580688 22.5481433868
-47.5800933838 -23.2429103851 22.3572559357
-47.5813598633 -23.2424221039 22.1660842896
-47.5817680359 -23.2415504456 21.9746589661
-47.5818481445 -23.2405281067 21.7831287384
-47.5822601318 -23.2396564484 21.5916786194
-47.5838165283 -23.2392997742 21.4005432129
-47.5881271362 -23.2401866913 21.2101821899
-47.5989990234 -23.2440319061 21.0216903687
-47.6234588623 -23.2540035248 20.8370971680
-47.6701507568 -23.2740039825 20.6589145660
-47.7438621521 -23.3061866760 20.4885692596
-47.8390159607 -23.3480396271 20.3245048523
-47.9374618530 -23.3913803101 20.1615142822
-48.0136489868 -23.4246807098 19.9921894073
-48.0458068848 -23.4381275177 19.8101501465
-48.0280342102 -23.4290542603 19.6135807037
-47.9754142761 -23.4042682648 19.4067916870
-47.9166564941 -23.3767108917 19.1981143951
-47.8774757385 -23.3579826355 18.9950942993
-47.8667984009 -23.3521099091 18.8003959656
-47.8763389587 -23.3553543091 18.6116371155
-47.8919639587 -23.3613433838 18.4246768951
-47.9046325684 -23.3660011292 18.2368507385
-47.9125976563 -23.3685340881 18.0476303101
-47.9174919128 -23.3696842194 17.8574924469
-47.9208641052 -23.3701477051 17.6668949127
-47.9232940674 -23.3701858521 17.4760074615
-47.9249534607 -23.3698768616 17.2848796844
-47.9260673523 -23.3693199158 17.0935764313
-47.9270401001 -23.3687000275 16.9022178650
-47.9282569885 -23.3681926727 16.7109241486
-47.9299621582 -23.3679027557 16.5197639465
-47.9321594238 -23.3678359985 16.3287448883
-47.9346618652 -23.3679046631 16.1378078461
-47.9371566772 -23.3679714203 15.9468584061
-47.9393043518 -23.3678817749 15.7557945251
-47.9406623840 -23.3674373627 15.5644779205
-47.9404258728 -23.3662700653 15.3726606369
-47.9375381470 -23.3639087677 15.1800146103
-47.9327430725 -23.3606891632 14.9867639542
-47.9334869385 -23.3599643707 14.7952051163
-47.9572181702 -23.3696098328 14.6107549667
-48.0238113403 -23.3985900879 14.4396324158
-48.1369972229 -23.4485893250 14.2830905914
-48.2734794617 -23.5090980530 14.1339588165
-48.3962860107 -23.5634384155 13.9807300568
-48.4795646667 -23.5999488831 13.8152770996
-48.5178260803 -23.6161518097 13.6357936859
-48.5137634277 -23.6132621765 13.4430322647
-48.4637870789 -23.5896587372 13.2357711792
-48.3598251343 -23.5417003632 13.0113630295
-48.2063522339 -23.4714088440 12.7711133957
-48.0322113037 -23.3917903900 12.5240726471
-47.8788375854 -23.3215389252 12.2833833694
-47.7741088867 -23.2732295990 12.0579767227
-47.7192497253 -23.2474212646 11.8483495712
-47.6991424561 -23.2372894287 11.6497631073
-47.7007217407 -23.2369422913 11.4580965042
-47.7239875793 -23.2463760376 11.2733945847
-47.7819671631 -23.2714729309 11.0999031067
-47.8896446228 -23.3189926147 10.9425382614
-48.0455970764 -23.3882904053 10.8009414673
-48.2218017578 -23.4667282104 10.6661214828
-48.3768959045 -23.5356445313 10.5246725082
-48.4822120667 -23.5821018219 10.3672046661
-48.5328826904 -23.6039028168 10.1920232773
-48.5351028442 -23.6038475037 10.0010433197
-48.4889945984 -23.5819854736 9.7942008972
-48.3884925842 -23.5355796814 9.5694017410
-48.2383613586 -23.4667835236 9.3281021118
-48.0670356750 -23.3884220123 9.0795822144
-47.9164657593 -23.3194217682 8.8376731873
-47.8183860779 -23.2741088867 8.6129426956
-47.7835540771 -23.2573280334 8.4090709686
-47.8096733093 -23.2680530548 8.2254304886
-47.8861732483 -23.3015098572 8.0586194992
-47.9843978882 -23.3447685242 7.8991661072
-48.0552597046 -23.3756809235 7.7306704521
-48.0565338135 -23.3751964569 7.5389003754
-47.9878921509 -23.3431606293 7.3235979080
-47.8902587891 -23.2980422974 7.0984115601
-47.8089065552 -23.2602729797 6.8785762787
-47.7640953064 -23.2389888763 6.6709828377
-47.7549972534 -23.2338199615 6.4754281044
-47.7806358337 -23.2443275452 6.2916564941
-47.8508262634 -23.2749385834 6.1230821609
-47.9757804871 -23.3302631378 5.9732866287
-48.1434745789 -23.4048748016 5.8382716179
-48.3106117249 -23.4792366028 5.7032885551
-48.4258689880 -23.5301895142 5.5507097244
-48.4666175842 -23.5475158691 5.3726372719
-48.4506835938 -23.5392665863 5.1750640869
-48.4154548645 -23.5223064423 4.9707865715
-48.3922271729 -23.5107631683 4.7706031799
-48.3998451233 -23.5131397247 4.5810751915
-48.4522933960 -23.5357494354 4.4071302414
-48.5601158142 -23.5833473206 4.2525362968
-48.7182235718 -23.6536426544 4.1156339645
-48.8959274292 -23.7327804565 3.9857926369
-49.0474853516 -23.8001213074 3.8470261097
-49.1355514526 -23.8388080597 3.6861631870
-49.1436958313 -23.8414249420 3.4972894192
-49.0740623474 -23.8089389801 3.2809917927
-48.9446334839 -23.7494659424 3.0434582233
-48.7880783081 -23.6777477264 2.7961282730
-48.6413803101 -23.6104774475 2.5520610809
-48.5293960571 -23.5588741302 2.3201107979
-48.4578399658 -23.5255165100 2.1023867130
-48.4192695618 -23.5070457458 1.8963173628
-48.4022560120 -23.4983062744 1.6978877783
-48.3970031738 -23.4948711395 1.5036327839
-48.3970794678 -23.4938449860 1.3112709522
-48.3990097046 -23.4936542511 1.1195620298
-48.4010963440 -23.4935340881 0.9278998971
-48.4024658203 -23.4930877686 0.7359677553
-48.4026222229 -23.4920978546 0.5435863137
-48.4007873535 -23.4902057648 0.3504695594
-48.3944702148 -23.4862918854 0.1557106525
-5.6193628311 -55.1818695068 92.3074340820
-5.6225242615 -55.2261085510 92.1211090088
-5.6286268234 -55.3022918701 91.9354476929
-5.6342253685 -55.3729972839 91.7497558594
-5.6346368790 -55.3873558044 91.5629730225
-5.6275081635 -55.3197898865 91.3744430542
-5.6155071259 -55.1993026733 91.1846618652
-5.6049952507 -55.0950050354 90.9950866699
-5.6018309593 -55.0705223083 90.8072204590
-5.6073179245 -55.1400184631 90.6215438843
-5.6163239479 -55.2477264404 90.4368667603
-5.6194658279 -55.2917442322 90.2507171631
-5.6100435257 -55.1992950439 90.0611267090
-5.5905475616 -54.9974441528 89.8685607910
-5.5712075233 -54.7972984314 89.6757812500
-5.5614838600 -54.7015991211 89.4856033325
-5.5638108253 -54.7367782593 89.2989501953
-5.5749135017 -54.8672523499 89.1150436401
-5.5907077789 -55.0486640930 88.9327697754
-5.6095218658 -55.2628593445 88.7516708374
-5.6326699257 -55.5241012573 88.5722427368
-5.6627817154 -55.8609390259 88.3954544067
-5.7000856400 -56.2758445740 88.2215194702
-5.7396311760 -56.7150650024 88.0488510132
-5.7734494209 -57.0920753479 87.8746566772
-5.7961158752 -57.3479919434 87.6968765259
-5.8077244759 -57.4838485718 87.5153198242
-5.8119544983 -57.5395927429 87.3311386108
-5.8125829697 -57.5562324524 87.1456527710
-5.8116998672 -57.5564689636 86.9595794678
-5.8095874786 -57.5433578491 86.7730102539
-5.8049082756 -57.5023880005 86.5853881836
-5.7950043678 -57.4047164917 86.3955764771
-5.7772979736 -57.2223548889 86.2024154663
-5.7519054413 -56.9565849304 86.0057830811
-5.7231793404 -56.6546554565 85.8074035645
-5.6976408958 -56.3873481750 85.6100311279
-5.6797266006 -56.2027893066 85.4156723022
-5.6696295738 -56.1030807495 85.2245788574
-5.6647858620 -56.0603866577 85.0357208252
-5.6624755859 -56.0451889038 84.8479690552
-5.6610794067 -56.0399131775 84.6606140137
-5.6599493027 -56.0375251770 84.4733581543
-5.6589112282 -56.0361289978 84.2861404419
-5.6579518318 -56.0355949402 84.0989456177
-5.6571426392 -56.0366897583 83.9118041992
-5.6567392349 -56.0421867371 83.7248611450
-5.6573691368 -56.0588989258 83.5384368896
-5.6600861549 -56.0982437134 83.3530807495
-5.6658692360 -56.1708564758 83.1693496704
-5.6745572090 -56.2749748230 82.9872131348
-5.6841406822 -56.3888053894 82.8056716919
-5.6914205551 -56.4776382446 82.6230087280
-5.6936812401 -56.5120239258 82.4377136230
-5.6901211739 -56.4832725525 82.2492446899
-5.6824622154 -56.4100570679 82.0584487915
-5.6745710373 -56.3343353271 81.8674240112
-5.6706662178 -56.3018531799 81.6785659790
-5.6726770401 -56.3335380554 81.4930648804
-5.6790051460 -56.4120292664 81.3101043701
-5.6860160828 -56.4979286194 81.1276321411
-5.6906523705 -56.5580749512 80.9438323975
-5.6915616989 -56.5777969360 80.7578506470
-5.6884083748 -56.5534629822 80.5694046021
-5.6811566353 -56.4846954346 80.3783950806
-5.6704821587 -56.3788223267 80.1851654053
-5.6583876610 -56.2575531006 79.9909057617
-5.6475963593 -56.1504287720 79.7973175049
-5.6401391029 -56.0794525146 79.6057205200
-5.6369047165 -56.0542716980 79.4167633057
-5.6387143135 -56.0837707520 79.2310638428
-5.6472287178 -56.1859550476 79.0498199463
-5.6635389328 -56.3726425171 78.8738861084
-5.6849079132 -56.6141624451 78.7015762329
-5.7038235664 -56.8290672302 78.5278701782
-5.7125320435 -56.9333229065 78.3474044800
-5.7092394829 -56.9074897766 78.1587295532
-5.6987671852 -56.8038406372 77.9649887085
-5.6871356964 -56.6876335144 77.7702865601
-5.6767344475 -56.5847663879 77.5763168335
-5.6666994095 -56.4858779907 77.3824691772
-5.6566309929 -56.3866310120 77.1884689331
-5.6494979858 -56.3192100525 76.9964904785
-5.6512532234 -56.3481063843 76.8109817505
-5.6671137810 -56.5298538208 76.6360092163
-5.6968278885 -56.8617095947 76.4716567993
-5.7330884933 -57.2644844055 76.3126602173
-5.7654609680 -57.6250991821 76.1511535645
-5.7864603996 -57.8624649048 75.9813003540
-5.7937636375 -57.9514198303 75.8010635376
-5.7875647545 -57.8940887451 75.6103363037
-5.7680635452 -57.6926422119 75.4090042114
-5.7369108200 -57.3649826050 75.1981277466
-5.7003517151 -56.9787750244 74.9824981689
-5.6691589355 -56.6507263184 74.7707443237
-5.6542067528 -56.4986305237 74.5718460083
-5.6610455513 -56.5825843811 74.3907012939
-5.6869010925 -56.8725204468 74.2254257202
-5.7217926979 -57.2603149414 74.0680389404
-5.7537288666 -57.6160812378 73.9086227417
-5.7747006416 -57.8530654907 73.7403030396
-5.7825760841 -57.9481964111 73.5610504150
-5.7785301208 -57.9142074585 73.3716125488
-5.7647738457 -57.7750625610 73.1736907959
-5.7454881668 -57.5760498047 72.9707412720
-5.7278532982 -57.3949241638 72.7690048218
-5.7191104889 -57.3100967407 72.5749359131
-5.7215933800 -57.3468399048 72.3908004761
-5.7315673828 -57.4646949768 72.2134475708
-5.7430205345 -57.5985527039 72.0375671387
-5.7516837120 -57.7021980286 71.8592834473
-5.7554802895 -57.7531471252 71.6766281128
-5.7526340485 -57.7321739197 71.4878692627
-5.7410659790 -57.6167793274 71.2909164429
-5.7205958366 -57.4050102234 71.0854492188
-5.6951804161 -57.1397247314 70.8750305176
-5.6714682579 -56.8928947449 70.6659011841
-5.6545605659 -56.7197380066 70.4630050659
-5.6457190514 -56.6339073181 70.2676773071
-5.6440219879 -56.6254158020 70.0791854858
-5.6490464211 -56.6896820068 69.8972549438
-5.6611361504 -56.8304138184 69.7223510742
-5.6791410446 -57.0351638794 69.5534820557
-5.6987318993 -57.2570648193 69.3864288330
-5.7140779495 -57.4330101013 69.2153625488
-5.7216763496 -57.5250968933 69.0366516113
-5.7223024368 -57.5417251587 68.8509445190
-5.7193546295 -57.5196800232 68.6615753174
-5.7159185410 -57.4923477173 68.4716720581
-5.7133498192 -57.4744071960 68.2826156616
-5.7117075920 -57.4664993286 68.0944976807
-5.7107415199 -57.4659004211 67.9070663452
-5.7105026245 -57.4731712341 67.7203903198
-5.7114586830 -57.4933738708 67.5349884033
-5.7141013145 -57.5318222046 67.3513946533
-5.7180504799 -57.5844078064 67.1692504883
-5.7210774422 -57.6270065308 66.9861526489
-5.7191610336 -57.6161270142 66.7977142334
-5.7085261345 -57.5109367371 66.5996780396
-5.6887726784 -57.3071136475 66.3914566040
-5.6640796661 -57.0498733521 66.1774902344
-5.6404247284 -56.8038749695 65.9643630981
-5.6211738586 -56.6055297852 65.7558746338
-5.6056594849 -56.4476127625 65.5513458252
-5.5917921066 -56.3075218201 65.3484878540
-5.5791964531 -56.1811943054 65.1469039917
-5.5696878433 -56.0882606506 64.9487075806
-5.5655164719 -56.0530548096 64.7565460205
-5.5676007271 -56.0854988098 64.5715942383
-5.5748267174 -56.1735496521 64.3926773071
-5.5844049454 -56.2870254517 64.2166137695
-5.5932998657 -56.3931159973 64.0398712158
-5.6001687050 -56.4772834778 63.8608398438
-5.6064925194 -56.5555572510 63.6812438965
-5.6159977913 -56.6682281494 63.5055503845
-5.6323409081 -56.8548164368 63.3382339478
-5.6559944153 -57.1204338074 63.1800003052
-5.6827874184 -57.4199790955 63.0259056091
-5.7062191963 -57.6831665039 62.8680381775
-5.7217235565 -57.8606338501 62.7006988525
-5.7284913063 -57.9436492920 62.5227279663
-5.7274742126 -57.9425086975 62.3351478577
-5.7186765671 -57.8572654724 62.1378059387
-5.7011332512 -57.6774902344 61.9293365479
-5.6755623817 -57.4109573364 61.7104797363
-5.6462693214 -57.1042098999 61.4865531921
-5.6192560196 -56.8221282959 61.2651634216
-5.5981707573 -56.6041297913 61.0510368347
-5.5828557014 -56.4485054016 60.8440895081
-5.5718970299 -56.3399772644 60.6426010132
-5.5653195381 -56.2788009644 60.4466819763
-5.5639929771 -56.2743721008 60.2575645447
-5.5672411919 -56.3193855286 60.0744552612
-5.5723457336 -56.3844490051 59.8938484192
-5.5764923096 -56.4391593933 59.7120323181
-5.5784506798 -56.4702262878 59.5273437500
-5.5783238411 -56.4787597656 59.3398780823
-5.5762739182 -56.4665145874 59.1498146057
-5.5717902184 -56.4279785156 58.9564208984
-5.5641050339 -56.3548507690 58.7586059570
-5.5533623695 -56.2487030029 58.5564994812
-5.5413565636 -56.1289176941 58.3525161743
-5.5308179855 -56.0249862671 58.1504058838
-5.5238590240 -55.9597358704 57.9531326294
-5.5212187767 -55.9411354065 57.7617950439
-5.5226964951 -55.9670219421 57.5761985779
-5.5276756287 -56.0307273865 57.3955497742
-5.5350055695 -56.1198196411 57.2182960510
-5.5427098274 -56.2129478455 57.0416679382
-5.5483136177 -56.2833900452 56.8621406555
-5.5501036644 -56.3126335144 56.6772117615
-5.5489482880 -56.3100700378 56.4880638123
-5.5492734909 -56.3234977722 56.3010406494
-5.5573148727 -56.4202499390 56.1252441406
-5.5767784119 -56.6403350830 55.9662399292
-5.6054363251 -56.9596939087 55.8209762573
-5.6362705231 -57.3025360107 55.6792945862
-5.6621389389 -57.5917320251 55.5306625366
-5.6795110703 -57.7891807556 55.3697319031
-5.6888055801 -57.8993988037 55.1969680786
-5.6924438477 -57.9485435486 55.0158386230
-5.6927213669 -57.9614067078 54.8296966553
-5.6905097961 -57.9473991394 54.6397895813
-5.6848258972 -57.8959007263 54.4445800781
-5.6733331680 -57.7817001343 54.2404327393
-5.6542577744 -57.5856590271 54.0245170593
-5.6292285919 -57.3253631592 53.7991905212
-5.6046848297 -57.0703201294 53.5742874146
-5.5895195007 -56.9165267944 53.3636169434
-5.5899291039 -56.9308471680 53.1770248413
-5.6051921844 -57.1054840088 53.0136756897
-5.6275677681 -57.3568725586 52.8617057800
-5.6463279724 -57.5692253113 52.7043190002
-5.6529016495 -57.6500511169 52.5278701782
-5.6439852715 -57.5637054443 52.3268623352
-5.6221299171 -57.3377380371 52.1050682068
-5.5944142342 -57.0485496521 51.8735961914
-5.5690484047 -56.7847328186 51.6455421448
-5.5512838364 -56.6029548645 51.4294471741
-5.5419263840 -56.5119018555 51.2267723083
-5.5394353867 -56.4949417114 51.0351676941
-5.5427312851 -56.5404205322 50.8529968262
-5.5517225266 -56.6473464966 50.6802291870
-5.5656123161 -56.8071060181 50.5156555176
-5.5814805031 -56.9882049561 50.3545379639
-5.5951938629 -57.1460456848 50.1900444031
-5.6036748886 -57.2474365234 50.0169982910
-5.6058535576 -57.2808303833 49.8334999084
-5.6016774178 -57.2456779480 49.6393432617
-5.5913753510 -57.1444511414 49.4347877502
-5.5765089989 -56.9939994812 49.2223625183
-5.5614004135 -56.8409461975 49.0093307495
-5.5524392128 -56.7542114258 48.8066062927
-5.5549550056 -56.7912559509 48.6234359741
-5.5697760582 -56.9610061646 48.4614753723
-5.5918931961 -57.2094383240 48.3123130798
-5.6122832298 -57.4392280579 48.1604423523
-5.6219925880 -57.5538253784 47.9902496338
-5.6162357330 -57.5016326904 47.7931594849
-5.5965547562 -57.2993049622 47.5715827942
-5.5699853897 -57.0227127075 47.3376235962
-5.5451312065 -56.7646331787 47.1063461304
-5.5274767876 -56.5841979980 46.8875122070
-5.5175719261 -56.4873275757 46.6822395325
-5.5129151344 -56.4470481873 46.4862136841
-5.5107674599 -56.4338188171 46.2946205139
-5.5094814301 -56.4298858643 46.1045494080
-5.5083932877 -56.4280853271 45.9148178101
-5.5073223114 -56.4264640808 45.7251052856
-5.5062403679 -56.4247360229 45.5353584290
-5.5051412582 -56.4228134155 45.3455657959
-5.5040144920 -56.4205970764 45.1557044983
-5.5028476715 -56.4179534912 44.9657592773
-5.5016427040 -56.4148941040 44.7757263184
-5.5004425049 -56.4118919373 44.5856857300
-5.4994130135 -56.4107284546 44.3959465027
-5.4990720749 -56.4169845581 44.2074775696
-5.5007033348 -56.4444961548 44.0226898193
-5.5066232681 -56.5182266235 43.8459777832
-5.5194621086 -56.6665115356 43.6823730469
-5.5400638580 -56.8984375000 43.5336074829
-5.5654902458 -57.1823387146 43.3942604065
-5.5896306038 -57.4523620605 43.2527961731
-5.6065378189 -57.6444358826 43.0978355408
-5.6134471893 -57.7287750244 42.9239349365
-5.6110367775 -57.7126960754 42.7322044373
-5.6018247604 -57.6233482361 42.5273246765
-5.5889296532 -57.4943122864 42.3151931763
-5.5759429932 -57.3643112183 42.1027145386
-5.5668883324 -57.2766761780 41.8977317810
-5.5650458336 -57.2667350769 41.7067298889
-5.5709266663 -57.3399925232 41.5308532715
-5.5812482834 -57.4610824585 41.3637962341
-5.5904765129 -57.5703849792 41.1947097778
-5.5940876007 -57.6191825867 41.0146179199
-5.5908398628 -57.5941047668 40.8209381104
-5.5823607445 -57.5126800537 40.6167869568
-5.5709953308 -57.4001808167 40.4067459106
-5.5580615997 -57.2707939148 40.1934089661
-5.5437378883 -57.1264495850 39.9771080017
-5.5281448364 -56.9684486389 39.7580528259
-5.5122280121 -56.8069648743 39.5381393433
-5.4975867271 -56.6592292786 39.3206138611
-5.4856667519 -56.5408134460 39.1084442139
-5.4771356583 -56.4588890076 38.9030570984
-5.4717416763 -56.4107513428 38.7039985657
-5.4686126709 -56.3870010376 38.5095291138
-5.4667563438 -56.3769607544 38.3176498413
-5.4654483795 -56.3728218079 38.1268844604
-5.4643139839 -56.3705558777 37.9364624023
-5.4632139206 -56.3686561584 37.7460975647
-5.4621143341 -56.3667678833 37.5557174683
-5.4610204697 -56.3649368286 37.3653335571
-5.4599452019 -56.3633041382 37.1749763489
-5.4589004517 -56.3620033264 36.9846687317
-5.4578938484 -56.3611183167 36.7944259644
-5.4569249153 -56.3606338501 36.6042518616
-5.4559803009 -56.3604125977 36.4141159058
-5.4550366402 -56.3602066040 36.2239685059
-5.4540662766 -56.3597106934 36.0337524414
-5.4530453682 -56.3586769104 35.8434181213
-5.4519634247 -56.3569755554 35.6529350281
-5.4508266449 -56.3546943665 35.4623184204
-5.4496569633 -56.3520545959 35.2716140747
-5.4484810829 -56.3493537903 35.0808830261
-5.4473209381 -56.3468208313 34.8901710510
-5.4461908340 -56.3446083069 34.6995086670
-5.4450993538 -56.3428153992 34.5089187622
-5.4440526962 -56.3415069580 34.3184089661
-5.4430522919 -56.3406982422 34.1279907227
-5.4420952797 -56.3403549194 33.9376525879
-5.4411706924 -56.3403587341 33.7473754883
-5.4402632713 -56.3405456543 33.5571212769
-5.4393553734 -56.3407325745 33.3668556213
-5.4384298325 -56.3407363892 33.1765403748
-5.4374747276 -56.3404121399 32.9861450195
-5.4364824295 -56.3396949768 32.7956542969
-5.4354557991 -56.3386077881 32.6050682068
-5.4344015121 -56.3372230530 32.4144096375
-5.4333300591 -56.3356513977 32.2236976624
-5.4322509766 -56.3340034485 32.0329551697
-5.4311752319 -56.3323898315 31.8422031403
-5.4301118851 -56.3309097290 31.6514663696
-5.4290652275 -56.3296127319 31.4607543945
-5.4280352592 -56.3284950256 31.2700653076
-5.4270181656 -56.3275146484 31.0793933868
-5.4260153770 -56.3266906738 30.8887424469
-5.4250612259 -56.3263893127 30.6981887817
-5.4243469238 -56.3286628723 30.5081825256
-5.4245414734 -56.3407173157 30.3202953339
-5.4272971153 -56.3803024292 30.1384143829
-5.4353685379 -56.4770393372 29.9690723419
-5.4513392448 -56.6586990356 29.8184661865
-5.4749441147 -56.9224205017 29.6861209869
-5.5014457703 -57.2172622681 29.5609531403
-5.5236086845 -57.4654464722 29.4258136749
-5.5359368324 -57.6078987122 29.2675094604
-5.5372385979 -57.6318130493 29.0830020905
-5.5300431252 -57.5643882751 28.8781375885
-5.5184173584 -57.4493484497 28.6625270844
-5.5056028366 -57.3215408325 28.4439010620
-5.4923944473 -57.1895065308 28.2241554260
-5.4775924683 -57.0403594971 28.0003776550
-5.4605994225 -56.8676719666 27.7710800171
-5.4436798096 -56.6957817078 27.5417404175
-5.4312500954 -56.5721588135 27.3231506348
-5.4267196655 -56.5334243774 27.1237468719
-5.4298543930 -56.5770721436 26.9431114197
-5.4368019104 -56.6616859436 26.7719058990
-5.4423637390 -56.7314033508 26.5973701477
-5.4426984787 -56.7449531555 26.4099655151
-5.4368577003 -56.6921501160 26.2072353363
-5.4266929626 -56.5928955078 25.9936695099
-5.4154911041 -56.4825019836 25.7773818970
-5.4061126709 -56.3917045593 25.5655097961
-5.3997507095 -56.3333244324 25.3610820770
-5.3960075378 -56.3030776978 25.1631565094
-5.3938465118 -56.2898368835 24.9691715240
-5.3924121857 -56.2843971252 24.7769927979
-5.3912549019 -56.2819366455 24.5854988098
-5.3902101517 -56.2806816101 24.3942756653
-5.3892292976 -56.2801170349 24.2031993866
-5.3882923126 -56.2800254822 24.0122241974
-5.3873791695 -56.2801895142 23.8212966919
-5.3864698410 -56.2803993225 23.6303672791
-5.3855581284 -56.2805824280 23.4394187927
-5.3846764565 -56.2810859680 23.2485370636
-5.3840107918 -56.2839050293 23.0582008362
-5.3841915131 -56.2958259583 22.8700504303
-5.3866748810 -56.3324623108 22.6878871918
-5.3935508728 -56.4162673950 22.5172004700
-5.4057841301 -56.5575981140 22.3606014252
-5.4204812050 -56.7253723145 22.2106113434
-5.4307150841 -56.8452148438 22.0490951538
-5.4304637909 -56.8524742126 21.8601150513
-5.4206809998 -56.7573966980 21.6459865570
-5.4093089104 -56.6452674866 21.4275264740
-5.4045505524 -56.6041526794 21.2264556885
-5.4082384109 -56.6537055969 21.0477676392
-5.4150867462 -56.7371902466 20.8775501251
-5.4174938202 -56.7729949951 20.6955585480
-5.4114542007 -56.7181205750 20.4909820557
-5.3989439011 -56.5938072205 20.2689628601
-5.3854379654 -56.4588050842 20.0440998077
-5.3756513596 -56.3637390137 19.8290920258
-5.3716702461 -56.3309898376 19.6296520233
-5.3739819527 -56.3657722473 19.4472103119
-5.3825855255 -56.4680900574 19.2818927765
-5.3963809013 -56.6261100769 19.1308193207
-5.4122657776 -56.8065490723 18.9856319427
-5.4261531830 -56.9655380249 18.8351840973
-5.4353618622 -57.0743179321 18.6720867157
-5.4397988319 -57.1318855286 18.4959907532
-5.4409937859 -57.1546592712 18.3110179901
-5.4404582977 -57.1588668823 18.1212844849
-5.4388408661 -57.1514701843 17.9285469055
-5.4359822273 -57.1307525635 17.7323417664
-5.4314727783 -57.0923309326 17.5315113068
-5.4253730774 -57.0368461609 17.3261852264
-5.4185881615 -56.9740180969 17.1188659668
-5.4124422073 -56.9180450439 16.9132480621
-5.4077639580 -56.8778266907 16.7116699219
-5.4043278694 -56.8509330750 16.5135250092
-5.4009571075 -56.8247413635 16.3155212402
-5.3959994316 -56.7815361023 16.1129856110
-5.3880815506 -56.7065773010 15.9019985199
-5.3771252632 -56.5990409851 15.6822795868
-5.3648633957 -56.4775009155 15.4586992264
-5.3539261818 -56.3701820374 15.2387390137
-5.3460979462 -56.2962112427 15.0275268555
-5.3414463997 -56.2563133240 14.8253164291
-5.3389201164 -56.2392158508 14.6291513443
-5.3374023438 -56.2329254150 14.4358549118
-5.3362245560 -56.2302856445 14.2435207367
-5.3351387978 -56.2286376953 14.0514373779
-5.3341679573 -56.2282142639 13.8596706390
-5.3335943222 -56.2320556641 13.6690464020
-5.3341026306 -56.2475013733 13.4815654755
-5.3368349075 -56.2867851257 13.3005790710
-5.3429465294 -56.3623008728 13.1295108795
-5.3526706696 -56.4765357971 12.9691104889
-5.3647270203 -56.6157760620 12.8156890869
-5.3768653870 -56.7558784485 12.6626644135
-5.3869433403 -56.8738899231 12.5037174225
-5.3934445381 -56.9535522461 12.3343257904
-5.3955860138 -56.9864807129 12.1520977020
-5.3937463760 -56.9767303467 11.9580717087
-5.3898282051 -56.9447059631 11.7578353882
-5.3866629601 -56.9207496643 11.5597925186
-5.3866553307 -56.9306449890 11.3711500168
-5.3907203674 -56.9841842651 11.1947088242
-5.3980927467 -57.0731697083 11.0282506943
-5.4068651199 -57.1771469116 10.8661012650
-5.4148235321 -57.2723960876 10.7016105652
-5.4201841354 -57.3398094177 10.5293731689
-5.4218602180 -57.3677291870 10.3460445404
-5.4192471504 -57.3496932983 10.1497201920
-5.4121456146 -57.2835578918 9.9397087097
-5.4013085365 -57.1774139404 9.7182178497
-5.3889074326 -57.0545120239 9.4918079376
-5.3777637482 -56.9450912476 9.2690849304
-5.3697342873 -56.8690414429 9.0557699203
-5.3649072647 -56.8273086548 8.8521957397
-5.3622393608 -56.8087120056 8.6552104950
-5.3606209755 -56.8013534546 8.4614295959
-5.3593912125 -56.7981643677 8.2688302994
-5.3582892418 -56.7963447571 8.0766115189
-5.3572487831 -56.7951850891 7.8845682144
-5.3562602997 -56.7945823669 7.6926732063
-5.3553147316 -56.7944374084 7.5008988380
-5.3543915749 -56.7945365906 7.3091821671
-5.3534712791 -56.7946662903 7.1174616814
-5.3525686264 -56.7949790955 6.9257831573
-5.3518667221 -56.7974472046 6.7347254753
-5.3520498276 -56.8093986511 6.5464491844
-5.3548159599 -56.8490028381 6.3663320541
-5.3629980087 -56.9466056824 6.2033953667
-5.3792643547 -57.1307716370 6.0662074089
-5.4034347534 -57.3995552063 5.9543514252
-5.4309444427 -57.7040863037 5.8534469604
-5.4550452232 -57.9720878601 5.7420191765
-5.4711022377 -58.1539573669 5.6051821709
-5.4785447121 -58.2435836792 5.4409499168
-5.4790124893 -58.2585334778 5.2544188499
-5.4736285210 -58.2108383179 5.0490665436
-5.4624547958 -58.1011657715 4.8249783516
-5.4461040497 -57.9360771179 4.5840191841
-5.4270057678 -57.7415924072 4.3339538574
-5.4083509445 -57.5518684387 4.0850782394
-5.3919701576 -57.3864936829 3.8433501720
-5.3781433105 -57.2484664917 3.6097242832
-5.3677773476 -57.1474990845 3.3872125149
-5.3638019562 -57.1149253845 3.1854572296
-5.3690557480 -57.1811370850 3.0138857365
-5.3822021484 -57.3318176270 2.8682904243
-5.3965587616 -57.4954376221 2.7268464565
-5.4044933319 -57.5903167725 2.5644228458
-5.4033427238 -57.5879745483 2.3721048832
-5.3964591026 -57.5242843628 2.1608040333
-5.3889670372 -57.4540824890 1.9473944902
-5.3836894035 -57.4075889587 1.7412443161
-5.3807039261 -57.3856163025 1.5426517725
-5.3790078163 -57.3774490356 1.3483210802
-5.3777546883 -57.3740158081 1.1554468870
-5.3764300346 -57.3698234558 0.9623178244
-5.3745732307 -57.3599357605 0.7673860788
-5.3715538979 -57.3376159668 0.5685225725
-5.3666672707 -57.2953147888 0.3633314073
-5.3594746590 -57.2283554077 0.1502977610
-46.4271659851 -16.0652790070 91.8694915771
-46.3904457092 -16.0532646179 91.6791915894
-46.3166313171 -16.0301151276 91.4878158569
-46.2131729126 -15.9980688095 91.2954940796
-46.1035804749 -15.9641809464 91.1028594971
