-19.4608669281 37.7948265076 4.9198975563
-19.4791584015 37.8372726440 4.7346172333
-19.4994487762 37.8838005066 4.5507707596
-19.5206432343 37.9321784973 4.3676056862
-19.5415668488 37.9799957275 4.1843042374
-19.5611915588 38.0251617432 4.0001473427
-19.5789337158 38.0664787292 3.8147201538
-19.5944423676 38.1032295227 3.6277675629
-19.6069545746 38.1338615417 3.4387440681
-19.6151924133 38.1557617188 3.2467355728
-19.6182003021 38.1669807434 3.0510478020
-19.6163692474 38.1683120728 2.8519337177
-19.6117305756 38.1639099121 2.6508152485
-19.6072082520 38.1597442627 2.4497575760
-19.6052570343 38.1608276367 2.2505097389
-19.6070232391 38.1695098877 2.0539038181
-19.6127395630 38.1862602234 1.8601197004
-19.6226081848 38.2114906311 1.6693204641
-19.6371116638 38.2461814880 1.4818693399
-19.6565742493 38.2910079956 1.2980228662
-19.6806049347 38.3451576233 1.1175183058
-19.7077388763 38.4056472778 0.9393179417
-19.7353725433 38.4671478271 0.7615490556
-19.7602176666 38.5229606628 0.5818306804
-19.7795772552 38.5675659180 0.3981888592
-19.7927417755 38.5995178223 0.2100841105
-19.8013725281 38.6222114563 0.0186998397
-6.8122577667 35.6554908752 80.6787643433
-6.8064227104 35.6296463013 80.4791564941
-6.7981276512 35.5861244202 80.2784271240
-6.7889738083 35.5364418030 80.0772399902
-6.7803740501 35.4907417297 79.8762283325
-6.7731118202 35.4546585083 79.6757583618
-6.7673673630 35.4294815063 79.4759140015
-6.7629618645 35.4139328003 79.2766494751
-6.7595167160 35.4052810669 79.0777893066
-6.7565054893 35.3997459412 78.8791198730
-6.7533645630 35.3932800293 78.6803588867
-6.7496614456 35.3827819824 78.4813156128
-6.7452287674 35.3670501709 78.2818832397
-6.7401909828 35.3469696045 78.0821304321
-6.7348675728 35.3248405457 77.8821868896
-6.7296185493 35.3032531738 77.6822433472
-6.7247471809 35.2843780518 77.4824523926
-6.7204823494 35.2698631287 77.2829284668
-6.7169389725 35.2605247498 77.0837402344
-6.7140655518 35.2560043335 76.8848724365
-6.7116870880 35.2550354004 76.6862411499
-6.7096171379 35.2562828064 76.4877624512
-6.7077546120 35.2590217590 76.2893753052
-6.7061371803 35.2635192871 76.0911102295
-6.7049913406 35.2714004517 75.8930969238
-6.7047362328 35.2856788635 75.6955566406
-6.7057790756 35.3092689514 75.4987335205
-6.7080626488 35.3417587280 75.3026046753
-6.7107224464 35.3769493103 75.1067199707
-6.7123026848 35.4043884277 74.9102554321
-6.7114429474 35.4143218994 74.7124328613
-6.7075290680 35.4023437500 74.5128707886
-6.7009949684 35.3715667725 74.3117675781
-6.6931948662 35.3317146301 74.1098861694
-6.6857953072 35.2947425842 73.9081726074
-6.6799588203 35.2689895630 73.7073135376
-6.6759200096 35.2561264038 73.5074768066
-6.6732220650 35.2528877258 73.3084106445
-6.6713070869 35.2552680969 73.1098022461
-6.6699452400 35.2616119385 72.9115142822
-6.6691923141 35.2723236084 72.7135848999
-6.6690406799 35.2873458862 72.5160369873
-6.6692638397 35.3050575256 72.3187179565
-6.6695609093 35.3232994080 72.1214523315
-6.6696491241 35.3400421143 71.9240722656
-6.6692209244 35.3530807495 71.7263641357
-6.6680555344 35.3608322144 71.5281982422
-6.6661987305 35.3636322021 71.3295745850
-6.6638207436 35.3626937866 71.1306076050
-6.6609082222 35.3579254150 70.9312820435
-6.6573324203 35.3484077454 70.7314910889
-6.6532211304 35.3350524902 70.5313339233
-6.6490478516 35.3212547302 70.3310928345
-6.6453237534 35.3106765747 70.1311264038
-6.6423258781 35.3053092957 69.9316253662
-6.6401138306 35.3055763245 69.7326278687
-6.6386389732 35.3111190796 69.5341262817
-6.6377635002 35.3209609985 69.3360290527
-6.6373100281 35.3338279724 69.1382217407
-6.6372327805 35.3493881226 68.9406814575
-6.6376900673 35.3687744141 68.7435150146
-6.6388220787 35.3929977417 68.5468368530
-6.6404347420 35.4206619263 68.3505172729
-6.6419668198 35.4477462769 68.1541595459
-6.6427373886 35.4693717957 67.9572753906
-6.6421356201 35.4811744690 67.7594146729
-6.6396193504 35.4792594910 67.5601577759
-6.6347823143 35.4607276917 67.3591918945
-6.6276917458 35.4260635376 67.1565246582
-6.6192445755 35.3816909790 66.9527969360
-6.6110754013 35.3393135071 66.7492065430
-6.6049427986 35.3115234375 66.5470733643
-6.6020116806 35.3066596985 66.3473052979
-6.6024427414 35.3258590698 66.1500778198
-6.6054019928 35.3631629944 65.9547805786
-6.6095085144 35.4086799622 65.7604064941
-6.6135692596 35.4538612366 65.5660324097
-6.6171331406 35.4954795837 65.3713226318
-6.6204447746 35.5352935791 65.1764526367
-6.6238903999 35.5760612488 64.9817199707
-6.6274347305 35.6175346375 64.7871017456
-6.6304821968 35.6554489136 64.5921325684
-6.6322331429 35.6840858459 64.3961563110
-6.6322312355 35.7001724243 64.1987915039
-6.6306395531 35.7048873901 64.0001525879
-6.6280822754 35.7026901245 63.8007202148
-6.6252689362 35.6986694336 63.6010589600
-6.6227426529 35.6967010498 63.4016151428
-6.6208772659 35.6994590759 63.2027015686
-6.6199712753 35.7090835571 63.0045776367
-6.6202120781 35.7269134521 62.8074073792
-6.6214685440 35.7520027161 62.6110992432
-6.6231613159 35.7802085876 62.4151763916
-6.6244707108 35.8056716919 62.2189483643
-6.6247472763 35.8237533569 62.0218582153
-6.6237602234 35.8327941895 61.8236961365
-6.6216464043 35.8337783813 61.6245574951
-6.6187362671 35.8290710449 61.4247131348
-6.6154227257 35.8214797974 61.2244987488
-6.6120762825 35.8136558533 61.0242347717
-6.6089797020 35.8076210022 60.8241653442
-6.6063199043 35.8047065735 60.6244583130
-6.6042838097 35.8062591553 60.4252929688
-6.6032276154 35.8148078918 60.2269859314
-6.6037406921 35.8345794678 60.0300903320
-6.6063680649 35.8694610596 59.8351135254
-6.6110191345 35.9188041687 59.6420021057
-6.6166276932 35.9749832153 59.4498138428
-6.6216449738 36.0269317627 59.2571411133
-6.6250019073 36.0670127869 59.0629882813
-6.6265645027 36.0942687988 58.8672103882
-6.6267676353 36.1118125916 58.6701927185
-6.6260347366 36.1226654053 58.4723052979
-6.6245365143 36.1280517578 58.2737007141
-6.6222705841 36.1279525757 58.0743637085
-6.6191844940 36.1219978333 57.8742370605
-6.6151914597 36.1095695496 57.6732254028
-6.6101250648 36.0894699097 57.4711532593
-6.6038465500 36.0607185364 57.2678794861
-6.5966320038 36.0252876282 57.0636520386
-6.5895299911 35.9906616211 56.8594741821
-6.5841522217 35.9683609009 56.6569213867
-6.5818171501 35.9677848816 56.4573059082
-6.5826725960 35.9899902344 56.2608108521
-6.5855369568 36.0265464783 56.0663185120
-6.5886106491 36.0645904541 55.8720664978
-6.5904870033 36.0940818787 55.6766548157
-6.5906801224 36.1115570068 55.4795799255
-6.5894236565 36.1186828613 55.2810516357
-6.5871820450 36.1187744141 55.0815238953
-6.5843534470 36.1146812439 54.8813858032
-6.5812163353 36.1083869934 54.6809158325
-6.5779500008 36.1011657715 54.4802894592
-6.5746107101 36.0934333801 54.2795677185
-6.5711336136 36.0847129822 54.0786781311
-6.5674872398 36.0747947693 53.8775901794
-6.5639691353 36.0657882690 53.6766090393
-6.5612697601 36.0626258850 53.4764556885
-6.5600066185 36.0697174072 53.2777976990
-6.5600986481 36.0864715576 53.0805664063
-6.5607056618 36.1069030762 52.8838844299
-6.5607919693 36.1236190796 52.6866607666
-6.5596685410 36.1317024231 52.4881553650
-6.5571417809 36.1297760010 52.2881355286
-6.5534505844 36.1195487976 52.0868415833
-6.5491566658 36.1050224304 51.8848724365
-6.5449056625 36.0908012390 51.6829147339
-6.5411200523 36.0799064636 51.4814376831
-6.5378789902 36.0728950500 51.2805252075
-6.5350503922 36.0688285828 51.0800476074
-6.5325112343 36.0668258667 50.8798675537
-6.5302643776 36.0669097900 50.6799964905
-6.5284571648 36.0701293945 50.4806022644
-6.5273423195 36.0782852173 50.2819709778
-6.5271511078 36.0930252075 50.0843772888
-6.5278792381 36.1143226624 49.8878211975
-6.5291290283 36.1393318176 49.6918678284
-6.5302219391 36.1632270813 49.4957542419
-6.5305304527 36.1815261841 49.2987632751
-6.5297317505 36.1919364929 49.1005134583
-6.5278472900 36.1946067810 48.9010124207
-6.5252165794 36.1919593811 48.7006416321
-6.5224771500 36.1885414124 48.5001258850
-6.5203628540 36.1895713806 48.3003158569
-6.5192866325 36.1980056763 48.1017112732
-6.5190920830 36.2127265930 47.9041366577
-6.5192847252 36.2301979065 47.7070198059
-6.5194892883 36.2477569580 47.5099258423
-6.5196986198 36.2653465271 47.3128433228
-6.5202026367 36.2850379944 47.1161231995
-6.5213923454 36.3096122742 46.9202308655
-6.5235757828 36.3412628174 46.7255477905
-6.5268568993 36.3807296753 46.5322151184
-6.5311107635 36.4271240234 46.3400878906
-6.5360360146 36.4782981873 46.1488227844
-6.5411748886 36.5309829712 45.9578704834
-6.5459260941 36.5809059143 45.7664947510
-6.5496745110 36.6236877441 45.5739364624
-6.5519809723 36.6561889648 45.3796463013
-6.5526328087 36.6769180298 45.1833381653
-6.5516085625 36.6857032776 44.9849624634
-6.5490999222 36.6839256287 44.7847404480
-6.5456237793 36.6752624512 44.5832939148
-6.5420188904 36.6656837463 44.3816566467
-6.5391387939 36.6612663269 44.1809120178
-6.5373620987 36.6647033691 43.9815330505
-6.5363669395 36.6737060547 43.7831382751
-6.5354528427 36.6832885742 43.5848464966
-6.5341310501 36.6899642944 43.3860282898
-6.5324645042 36.6941871643 43.1867637634
-6.5309681892 36.6996231079 42.9877128601
-6.5302181244 36.7103729248 42.7896156311
-6.5304303169 36.7279624939 42.5927581787
-6.5313024521 36.7502517700 42.3967704773
-6.5323076248 36.7734870911 42.2009696960
-6.5332202911 36.7960624695 42.0050621033
-6.5343976021 36.8205184937 41.8095130920
-6.5365324020 36.8517837524 41.6152458191
-6.5400481224 36.8928718567 41.4228248596
-6.5445675850 36.9410972595 41.2317733765
-6.5489196777 36.9881248474 41.0405426025
-6.5517587662 37.0243911743 40.8473434448
-6.5523343086 37.0445556641 40.6511421204
-6.5508213043 37.0498619080 40.4521522522
-6.5480494499 37.0462226868 40.2514572144
-6.5449171066 37.0400238037 40.0502548218
-6.5419163704 37.0347557068 39.8492126465
-6.5390505791 37.0304565430 39.6483306885
-6.5360798836 37.0254058838 39.4472885132
-6.5327973366 37.0181427002 39.2457962036
-6.5291562080 37.0083351135 39.0437927246
-6.5252370834 36.9965476990 38.8413734436
-6.5211558342 36.9836158752 38.6387062073
-6.5170526505 36.9705276489 38.4359741211
-6.5132250786 36.9594001770 38.2336006165
-6.5102643967 36.9544410706 38.0324058533
-6.5089449883 36.9611396790 37.8334884644
-6.5098581314 36.9837112427 37.6377067566
-6.5130496025 37.0224647522 37.4451522827
-6.5179009438 37.0730133057 37.2549781799
-6.5233898163 37.1280860901 37.0657577515
-6.5286655426 37.1816444397 36.8762931824
-6.5335130692 37.2321510315 36.6862678528
-6.5382466316 37.2818450928 36.4961280823
-6.5431170464 37.3325080872 36.3062362671
-6.5478668213 37.3823089600 36.1162185669
-6.5518145561 37.4264106750 35.9250946045
-6.5542111397 37.4594917297 35.7317581177
-6.5545220375 37.4777526855 35.5354156494
-6.5526638031 37.4806175232 35.3359184265
-6.5491490364 37.4717140198 35.1339874268
-6.5448784828 37.4574432373 34.9309196472
-6.5406775475 37.4436721802 34.7279205322
-6.5370182991 37.4337463379 34.5256919861
-6.5340852737 37.4289817810 34.3245162964
-6.5319738388 37.4300537109 34.1245384216
-6.5307765007 37.4376144409 33.9259109497
-6.5304913521 37.4516525269 33.7286415100
-6.5308418274 37.4701995850 33.5323295593
-6.5312252045 37.4889793396 33.3360786438
-6.5310435295 37.5037498474 33.1389808655
-6.5303015709 37.5145416260 32.9410438538
-6.5298166275 37.5271606445 32.7434959412
-6.5304989815 37.5480613708 32.5477256775
-6.5321683884 37.5759620667 32.3534736633
-6.5332937241 37.6000061035 32.1584129333
-6.5322127342 37.6083908081 31.9599781036
-6.5286402702 37.5990982056 31.7577037811
-6.5239367485 37.5817832947 31.5536594391
-6.5200171471 37.5700302124 31.3507919312
-6.5180945396 37.5724525452 31.1509971619
-6.5183682442 37.5904502869 30.9546127319
-6.5205321312 37.6218566895 30.7611904144
-6.5242199898 37.6640739441 30.5701808929
-6.5290179253 37.7141571045 30.3809547424
-6.5343937874 37.7683372498 30.1926879883
-6.5397853851 37.8226242065 30.0045013428
-6.5446591377 37.8732337952 29.8155479431
-6.5484890938 37.9164390564 29.6249847412
-6.5508766174 37.9494132996 29.4321651459
-6.5518202782 37.9721450806 29.2370662689
-6.5518226624 37.9882049561 29.0404739380
-6.5516943932 38.0033340454 28.8436775208
-6.5521817207 38.0228271484 28.6478767395
-6.5536346436 38.0491676331 28.4536495209
-6.5559010506 38.0812721252 28.2607574463
-6.5585255623 38.1159133911 28.0684757233
-6.5610680580 38.1499671936 27.8760890961
-6.5632257462 38.1812934875 27.6831016541
-6.5647768974 38.2083206177 27.4891490936
-6.5655584335 38.2298927307 27.2939491272
-6.5655026436 38.2455253601 27.0973854065
-6.5646553040 38.2555503845 26.8995189667
-6.5631952286 38.2612380981 26.7006378174
-6.5614318848 38.2647705078 26.5012454987
-6.5597019196 38.2685470581 26.3019008636
-6.5582180023 38.2740592957 26.1029548645
-6.5570030212 38.2814826965 25.9044551849
-6.5559587479 38.2901191711 25.7062358856
-6.5549750328 38.2991790771 25.5081157684
-6.5539865494 38.3082084656 25.3099842072
-6.5529737473 38.3170661926 25.1118106842
-6.5519423485 38.3257865906 24.9136009216
-6.5509276390 38.3346328735 24.7154178619
-6.5500330925 38.3443260193 24.5174369812
-6.5494632721 38.3563194275 24.3200092316
-6.5495452881 38.3729324341 24.1236991882
-6.5507097244 38.3972015381 23.9292564392
-6.5533752441 38.4321022034 23.7374191284
-6.5576848984 38.4786415100 23.5484504700
-6.5632281303 38.5339088440 23.3616619110
-6.5691180229 38.5916252136 23.1755332947
-6.5744976997 38.6457252502 22.9885749817
-6.5789766312 38.6934471130 22.8000984192
-6.5825319290 38.7346267700 22.6100521088
-6.5851087570 38.7688789368 22.4183273315
-6.5864982605 38.7947235107 22.2245445251
-6.5865554810 38.8111381531 22.0284290314
-6.5853872299 38.8188781738 21.8301544189
-6.5833449364 38.8204345703 21.6303291321
-6.5809478760 38.8194847107 21.4298591614
-6.5787391663 38.8198661804 21.2297096252
-6.5770564079 38.8239669800 21.0304870605
-6.5759248734 38.8319740295 20.8322410583
-6.5752449036 38.8431739807 20.6348018646
-6.5750784874 38.8580055237 20.4382877350
-6.5757598877 38.8788337708 20.2433071136
-6.5778112411 38.9093513489 20.0508155823
-6.5817198753 38.9530067444 19.8617134094
-6.5875902176 39.0105285645 19.6762180328
-6.5948243141 39.0776939392 19.4932651520
-6.6022157669 39.1459655762 19.3106708527
-6.6085562706 39.2067985535 19.1262245178
-6.6133174896 39.2564582825 18.9389438629
-6.6167988777 39.2970695496 18.7493591309
-6.6195549965 39.3325462341 18.5584735870
-6.6215600967 39.3627090454 18.3662300110
-6.6220064163 39.3818511963 18.1711235046
-6.6201667786 39.3848304749 17.9717826843
-6.6164155006 39.3743019104 17.7688732147
-6.6121492386 39.3601303101 17.5649738312
-6.6087460518 39.3520622253 17.3626594543
-6.6068248749 39.3544731140 17.1630973816
-6.6063361168 39.3670082092 16.9662170410
-6.6069664955 39.3874549866 16.7714481354
-6.6084251404 39.4137458801 16.5782546997
-6.6106033325 39.4451255798 16.3864421844
-6.6136221886 39.4824447632 16.1962490082
-6.6176762581 39.5270729065 16.0080604553
-6.6227712631 39.5790557861 15.8218965530
-6.6286134720 39.6363105774 15.6372117996
-6.6347346306 39.6955299377 15.4531211853
-6.6406807899 39.7535133362 15.2687549591
-6.6460447311 39.8073730469 15.0833272934
-6.6504039764 39.8541336060 14.8960161209
-6.6533899307 39.8911895752 14.7060956955
-6.6549043655 39.9178504944 14.5133581161
-6.6552476883 39.9362411499 14.3183660507
-6.6550283432 39.9506530762 14.1222877502
-6.6549859047 39.9663200378 13.9265584946
-6.6558141708 39.9881286621 13.7325382233
-6.6579799652 40.0193862915 13.5411529541
-6.6616239548 40.0610771179 13.3526964188
-6.6666536331 40.1125450134 13.1670064926
-6.6729097366 40.1726722717 12.9837875366
-6.6801962852 40.2400627136 12.8026685715
-6.6881995201 40.3125114441 12.6230401993
-6.6964783669 40.3868980408 12.4440383911
-6.7045226097 40.4596214294 12.2646493912
-6.7117648125 40.5266761780 12.0837373734
-6.7175898552 40.5837249756 11.9000616074
-6.7215037346 40.6272811890 11.7126150131
-6.7234354019 40.6568450928 11.5212268829
-6.7238836288 40.6759376526 11.3268756866
-6.7237634659 40.6910209656 11.1313886642
-6.7240295410 40.7088317871 10.9366874695
-6.7252779007 40.7335700989 10.7439851761
-6.7275629044 40.7656173706 10.5534057617
-6.7305674553 40.8027420044 10.3643178940
-6.7339115143 40.8422546387 10.1759548187
-6.7372407913 40.8816680908 9.9875993729
-6.7401299477 40.9179687500 9.7983770370
-6.7421312332 40.9480018616 9.6073627472
-6.7430300713 40.9702644348 9.4141054153
-6.7430105209 40.9860420227 9.2189674377
-6.7425613403 40.9987945557 9.0229482651
-6.7422571182 41.0125656128 8.8272304535
-6.7425193787 41.0303306580 8.6326932907
-6.7434039116 41.0524864197 8.4394578934
-6.7445263863 41.0763168335 8.2467346191
-6.7452650070 41.0974388123 8.0532236099
-6.7451095581 41.1122550964 7.8578538895
-6.7438921928 41.1195869446 7.6602616310
-6.7418742180 41.1212768555 7.4609823227
-6.7398281097 41.1227684021 7.2616310120
-6.7390041351 41.1328735352 7.0648488998
-6.7407193184 41.1608772278 6.8734369278
-6.7456960678 41.2118644714 6.6889615059
-6.7536702156 41.2839736938 6.5109062195
-6.7635354996 41.3694038391 6.3369536400
-6.7738232613 41.4578018188 6.1639976501
-6.7832255363 41.5399551392 5.9892454147
-6.7909417152 41.6102180481 5.8109717369
-6.7967562675 41.6670761108 5.6286892891
-6.8008518219 41.7118225098 5.4427671432
-6.8035583496 41.7467765808 5.2538938522
-6.8052792549 41.7747840881 5.0629210472
-6.8065700531 41.7997627258 4.8710384369
-6.8080558777 41.8261108398 4.6795964241
-6.8100872040 41.8563003540 4.4893603325
-6.8124885559 41.8890953064 4.2999539375
-6.8147459030 41.9208717346 4.1102609634
-6.8164839745 41.9489898682 3.9194586277
-6.8177771568 41.9739761353 3.7277035713
-6.8190784454 41.9990119934 3.5359830856
-6.8209066391 42.0277595520 3.3454401493
-6.8235597610 42.0623168945 3.1567387581
-6.8270626068 42.1028518677 2.9699451923
-6.8313932419 42.1492118835 2.7850210667
-6.8366818428 42.2023124695 2.6022660732
-6.8429975510 42.2626380920 2.4218473434
-6.8498702049 42.3268775940 2.2427320480
-6.8562145233 42.3873977661 2.0625054836
-6.8609328270 42.4364662170 1.8787052631
-6.8636021614 42.4711074829 1.6903626919
-6.8645606041 42.4937057495 1.4982088804
-6.8644518852 42.5087928772 1.3036693335
-6.8637866974 42.5199623108 1.1078810692
-6.8628187180 42.5290069580 0.9114103317
-6.8616309166 42.5364990234 0.7144383192
-6.8602390289 42.5425605774 0.5170003772
-6.8586788177 42.5474319458 0.3191722631
-6.8570952415 42.5521469116 0.1212851778
4.4504771233 35.5029563904 80.4495697021
4.4504795074 35.4902801514 80.2504501343
4.4491910934 35.4703369141 80.0508575439
4.4478311539 35.4499931335 79.8511886597
4.4475584030 35.4357604980 79.6518783569
4.4490771294 35.4316101074 79.4531784058
4.4526810646 35.4391975403 79.2552185059
4.4583854675 35.4586029053 79.0580291748
4.4657778740 35.4875144958 78.8614807129
4.4738664627 35.5203437805 78.6652145386
4.4813227654 35.5496177673 78.4687347412
4.4870152473 35.5689620972 78.2716064453
4.4904603958 35.5756568909 78.0736236572
4.4919104576 35.5711174011 77.8748626709
4.4920787811 35.5593605042 77.6755828857
4.4917879105 35.5450172424 77.4760818481
4.4918022156 35.5323905945 77.2766799927
4.4927959442 35.5252761841 77.0776443481
4.4952964783 35.5266456604 76.8791961670
4.4995636940 35.5379638672 76.6814651489
4.5054721832 35.5585250854 76.4844131470
4.5124287605 35.5849876404 76.2878112793
4.5194468498 35.6118011475 76.0912551880
4.5254731178 35.6330261230 75.8943023682
4.5297651291 35.6444854736 75.6966171265
4.5320181847 35.6444625854 75.4980545044
4.5322685242 35.6331558228 75.2985992432
4.5308809280 35.6126174927 75.0984039307
4.5286145210 35.5871276855 74.8977813721
4.5264902115 35.5624389648 74.6971664429
4.5254530907 35.5438690186 74.4970092773
4.5261397362 35.5350074768 74.2975845337
4.5288162231 35.5373611450 74.0990524292
4.5332922935 35.5498504639 73.9013442993
4.5388622284 35.5685043335 73.7041397095
4.5445451736 35.5877914429 73.5070037842
4.5495333672 35.6031723022 73.3095474243
4.5534234047 35.6123580933 73.1115798950
4.5560617447 35.6144943237 72.9130096436
4.5573182106 35.6088371277 72.7137603760
4.5571112633 35.5949325562 72.5137786865
4.5556879044 35.5741691589 72.3131713867
4.5537815094 35.5506858826 72.1122817993
4.5523257256 35.5297317505 71.9115753174
4.5519542694 35.5148925781 71.7113800049
4.5528068542 35.5069503784 71.5117568970
4.5547547340 35.5051803589 71.3126754761
4.5576963425 35.5090141296 71.1140823364
4.5616388321 35.5184860229 70.9160003662
4.5665688515 35.5335311890 70.7184295654
4.5722112656 35.5525932312 70.5212326050
4.5777978897 35.5713386536 70.3240203857
4.5821685791 35.5832290649 70.1261749268
4.5844078064 35.5830993652 69.9271926880
4.5845327377 35.5710449219 69.7270660400
4.5834918022 35.5524139404 69.5262832642
4.5824732780 35.5339088440 69.3254699707
4.5822777748 35.5200424194 69.1250686646
4.5832200050 35.5125923157 68.9252700806
4.5853738785 35.5119743347 68.7261199951
4.5888247490 35.5186691284 68.5276718140
4.5937886238 35.5339012146 68.3300781250
4.6005201340 35.5591011047 68.1334838867
4.6089587212 35.5939407349 67.9378890991
4.6183681488 35.6342506409 67.7428741455
4.6274032593 35.6724548340 67.5476837158
4.6347107887 35.7009162903 67.3515319824
4.6395101547 35.7152290344 67.1539382935
4.6416592598 35.7145805359 66.9547882080
4.6414237022 35.7004776001 66.7542190552
4.6394066811 35.6763229370 66.5525512695
4.6365556717 35.6474533081 66.3503494263
4.6339006424 35.6196899414 66.1482086182
4.6321535110 35.5970497131 65.9465789795
4.6315479279 35.5808448792 65.7455902100
4.6319518089 35.5703392029 65.5451965332
4.6330604553 35.5638084412 65.3451995850
4.6345696449 35.5595359802 65.1454391479
4.6362915039 35.5564651489 64.9457855225
4.6381931305 35.5544090271 64.7462310791
4.6403789520 35.5539550781 64.5468368530
4.6430306435 35.5561256409 64.3477325439
4.6462869644 35.5617141724 64.1489944458
4.6501131058 35.5705184937 63.9506187439
4.6542940140 35.5813255310 63.7524719238
4.6585559845 35.5925941467 63.5543785095
4.6626095772 35.6026802063 63.3561477661
4.6660795212 35.6094741821 63.1575355530
4.6685380936 35.6105537415 62.9582481384
4.6697545052 35.6046180725 62.7581291199
4.6700024605 35.5932159424 62.5573425293
4.6701645851 35.5813179016 62.3564682007
4.6714410782 35.5757179260 62.1563186646
4.6747837067 35.5817909241 61.9575462341
4.6804218292 35.6008262634 61.7603378296
4.6877737045 35.6295433044 61.5643119812
4.6957578659 35.6618309021 61.3687438965
4.7032980919 35.6916160583 61.1729011536
4.7097959518 35.7155113220 60.9763526917
4.7153377533 35.7340049744 60.7791557312
4.7205286026 35.7505226135 60.5817222595
4.7260165215 35.7687149048 60.3845062256
4.7319717407 35.7895469666 60.1876335144
4.7378659248 35.8100395203 59.9907302856
4.7427415848 35.8247718811 59.7931098938
4.7457957268 35.8292160034 59.5941810608
4.7468886375 35.8225708008 59.3938179016
4.7467269897 35.8088378906 59.1925201416
4.7466754913 35.7957267761 58.9912757874
4.7481756210 35.7913818359 58.7911415100
4.7520179749 35.8002700806 58.5927200317
4.7580146790 35.8213386536 58.3958969116
4.7653617859 35.8500442505 58.2000999451
4.7732534409 35.8818283081 58.0047340393
4.7811179161 35.9134597778 57.8093757629
4.7884798050 35.9422531128 57.6136627197
4.7949128151 35.9657974243 57.4172668457
4.8001966476 35.9828453064 57.2200088501
4.8043947220 35.9937515259 57.0219268799
4.8077254295 35.9997520447 56.8231697083
4.8104023933 36.0020599365 56.6239051819
4.8125967979 36.0016365051 56.4242515564
4.8144683838 35.9993858337 56.2243309021
4.8161783218 35.9962196350 56.0242652893
4.8178358078 35.9927597046 55.8241424561
4.8194322586 35.9889488220 55.6239547729
4.8208684921 35.9842338562 55.4236183167
4.8221621513 35.9787101746 55.2231483459
4.8236517906 35.9742927551 55.0228195190
4.8259520531 35.9744567871 54.8231239319
4.8297038078 35.9828376770 54.6245956421
4.8353619576 36.0019989014 54.4276199341
4.8429832458 36.0322685242 54.2322692871
4.8519830704 36.0703392029 54.0380783081
4.8611683846 36.1094627380 53.8440742493
4.8693027496 36.1426429749 53.6492385864
4.8757376671 36.1662025452 53.4530105591
4.8805313110 36.1804809570 53.2554244995
4.8842067719 36.1884307861 53.0569038391
4.8876643181 36.1951522827 52.8581924438
4.8921895027 36.2079086304 52.6603851318
4.8990430832 36.2338447571 52.4645652771
4.9086370468 36.2752952576 52.2711143494
4.9199800491 36.3266410828 52.0792083740
4.9309687614 36.3759880066 51.8870506287
4.9393820763 36.4107666016 51.6927108765
4.9438877106 36.4234199524 51.4949951172
4.9444322586 36.4136505127 51.2938156128
4.9419932365 36.3869895935 51.0899887085
4.9380779266 36.3519668579 50.8848114014
4.9342417717 36.3173942566 50.6796455383
4.9316563606 36.2898941040 50.4755363464
4.9308085442 36.2722282410 50.2729301453
4.9315237999 36.2634124756 50.0716896057
4.9332885742 36.2605400085 49.8713684082
4.9355955124 36.2607345581 49.6715202332
4.9380941391 36.2620162964 49.4718322754
4.9405527115 36.2630653381 49.2720985413
4.9427495003 36.2626342773 49.0721092224
4.9443945885 36.2590789795 48.8716049194
4.9451680183 36.2505836487 48.6702728271
4.9449739456 36.2366065979 48.4680252075
4.9443449974 36.2201652527 48.2653388977
4.9446492195 36.2090072632 48.0634880066
4.9477009773 36.2134132385 47.8641853333
4.9548287392 36.2409057617 47.6687126160
4.9660015106 36.2913208008 47.4770812988
4.9796710014 36.3558807373 47.2878684998
4.9934916496 36.4213066101 47.0988731384
5.0054292679 36.4760627747 46.9081459045
5.0144853592 36.5144996643 46.7147140503
5.0206990242 36.5368270874 46.5185813904
5.0246720314 36.5464591980 46.3202972412
5.0270729065 36.5471839905 46.1204872131
5.0283532143 36.5415573120 45.9195747375
5.0287318230 36.5308189392 45.7177581787
5.0283875465 36.5159797668 45.5152053833
5.0276503563 36.4989128113 45.3122329712
5.0269560814 36.4820861816 45.1092681885
5.0266280174 36.4673347473 44.9066314697
5.0267734528 36.4552650452 44.7044334412
5.0273766518 36.4457893372 44.5026626587
5.0284304619 36.4388656616 44.3013191223
5.0299763680 36.4347267151 44.1004486084
5.0321102142 36.4339218140 43.9001541138
5.0350217819 36.4375305176 43.7006340027
5.0390138626 36.4472618103 43.5022087097
5.0443415642 36.4645652771 43.3051414490
5.0508618355 36.4886322021 43.1093101501
5.0577487946 36.5147781372 42.9138755798
5.0636391640 36.5352783203 42.7174263000
5.0672249794 36.5427093506 42.5186080933
5.0678925514 36.5335845947 42.3167457581
5.0659666061 36.5097503662 42.1121520996
5.0624971390 36.4771614075 41.9058952332
5.0588922501 36.4437980652 41.6994438171
5.0566220284 36.4180030823 41.4943389893
5.0568809509 36.4065513611 41.2918663025
5.0601639748 36.4122543335 41.0925827026
5.0661478043 36.4332771301 40.8961677551
5.0741472244 36.4657363892 40.7019233704
5.0837950706 36.5075492859 40.5094795227
5.0952801704 36.5597915649 40.3190536499
5.1089358330 36.6243515015 40.1310310364
5.1245794296 36.7001953125 39.9452323914
5.1411695480 36.7814178467 39.7605514526
5.1570467949 36.8586006165 39.5751838684
5.1706280708 36.9227561951 39.3873863220
5.1811456680 36.9695320129 39.1962928772
5.1889634132 37.0009880066 39.0022659302
5.1952757835 37.0239028931 38.8066024780
5.2014627457 37.0461044312 38.6108169556
5.2084918022 37.0730857849 38.4159812927
5.2165307999 37.1058044434 38.2223014832
5.2248759270 37.1402587891 38.0289916992
5.2322888374 37.1694259644 37.8346633911
5.2375745773 37.1865196228 37.6379585266
5.2399888039 37.1873092651 37.4380111694
5.2393403053 37.1707115173 37.2345695496
5.2359733582 37.1386718750 37.0279960632
5.2306985855 37.0958023071 36.8191833496
5.2245917320 37.0481987000 36.6093482971
5.2187738419 37.0022315979 36.3997688293
5.2143211365 36.9640121460 36.1916923523
5.2121715546 36.9388694763 35.9862213135
5.2129135132 36.9301452637 35.7840614319
5.2166695595 36.9385375977 35.5853958130
5.2231698036 36.9625167847 35.3899383545
5.2318410873 36.9988288879 35.1970405579
5.2418742180 37.0428771973 35.0057868958
5.2524409294 37.0899620056 34.8152008057
5.2629303932 37.1366081238 34.6245765686
5.2728943825 37.1802749634 34.4333724976
5.2818012238 37.2179374695 34.2409515381
5.2890763283 37.2463302612 34.0466156006
5.2944788933 37.2640876770 33.8500595093
5.2983255386 37.2730026245 33.6516380310
5.3012881279 37.2768974304 33.4521484375
5.3040032387 37.2793846130 33.2523536682
5.3068413734 37.2825660706 33.0526962280
5.3099288940 37.2871665955 32.8533325195
5.3133087158 37.2934303284 32.6543197632
5.3171067238 37.3020668030 32.4558143616
5.3215823174 37.3145599365 32.2581367493
5.3269777298 37.3322753906 32.0615997314
5.3332176208 37.3547935486 31.8661136627
5.3397641182 37.3790550232 31.6710262299
5.3458685875 37.4008064270 31.4754047394
5.3510351181 37.4172248840 31.2786293030
5.3552403450 37.4281806946 31.0806579590
5.3587746620 37.4353218079 30.8818473816
5.3619613647 37.4404830933 30.6825942993
5.3650088310 37.4448585510 30.4831581116
5.3680191040 37.4490165710 30.2836666107
5.3710365295 37.4532165527 30.0841770172
5.3740854263 37.4575958252 29.8847198486
5.3771829605 37.4622497559 29.6853160858
5.3803462982 37.4672813416 29.4859886169
5.3836054802 37.4728546143 29.2867794037
5.3870105743 37.4792556763 29.0877494812
5.3906517029 37.4869995117 28.8890209198
5.3946809769 37.4969520569 28.6907920837
5.3992710114 37.5100936890 28.4932918549
5.4044165611 37.5263977051 28.2965202332
5.4096636772 37.5432739258 28.0998878479
5.4141740799 37.5559654236 27.9022979736
5.4174065590 37.5613861084 27.7030315399
5.4198603630 37.5623741150 27.5027332306
5.4229607582 37.5670433044 27.3032760620
5.4280943871 37.5832786560 27.1065082550
5.4358482361 37.6144256592 26.9132308960
5.4460988045 37.6597785950 26.7233104706
5.4584174156 37.7168998718 26.5362014771
5.4721565247 37.7821121216 26.3510589600
5.4864292145 37.8503646851 26.1667041779
5.5003919601 37.9168586731 25.9820079803
5.5135865211 37.9789848328 25.7963485718
5.5259103775 38.0361633301 25.6095752716
5.5373258591 38.0881729126 25.4216289520
5.5476093292 38.1337394714 25.2321929932
5.5562725067 38.1700897217 25.0405902863
5.5627322197 38.1938934326 24.8460006714
5.5667471886 38.2037849426 24.6480693817
5.5688443184 38.2027587891 24.4474925995
5.5703115463 38.1981430054 24.2460327148
5.5725922585 38.1981620789 24.0456790924
5.5764317513 38.2070503235 23.8474788666
5.5814809799 38.2228279114 23.6509609222
5.5867171288 38.2396697998 23.4547119141
5.5912322998 38.2524108887 23.2574615479
5.5946607590 38.2589607239 23.0586891174
5.5970435143 38.2595558167 22.8584384918
5.5985426903 38.2551155090 22.6569271088
5.5994372368 38.2472343445 22.4545421600
5.6004576683 38.2400665283 22.2523117065
5.6030116081 38.2416305542 22.0522403717
5.6087512970 38.2613410950 21.8567008972
5.6185598373 38.3042297363 21.6669960022
5.6318850517 38.3671569824 21.4823780060
5.6472001076 38.4414215088 21.3006896973
5.6631813049 38.5194854736 21.1200466156
5.6794004440 38.5989112854 20.9398345947
5.6959152222 38.6800308228 20.7601451874
5.7123651505 38.7607841492 20.5804519653
5.7276291847 38.8347892761 20.3991260529
5.7403807640 38.8944778442 20.2142124176
5.7499170303 38.9358482361 20.0246582031
5.7565088272 38.9604454041 19.8308219910
5.7611670494 38.9740219116 19.6341571808
5.7651515007 38.9837608337 19.4365043640
5.7695002556 38.9955749512 19.2393894196
5.7746648788 39.0120391846 19.0434856415
5.7804064751 39.0317916870 18.8484477997
5.7860932350 39.0512351990 18.6533412933
5.7912139893 39.0674514771 18.4574012756
5.7956724167 39.0798912048 18.2604770660
5.7996973991 39.0898628235 18.0629043579
5.8035979271 39.0991249084 17.8651447296
5.8075895309 39.1089019775 17.6675186157
5.8117461205 39.1196250916 17.4701442719
5.8160371780 39.1311073303 17.2729740143
5.8203873634 39.1429328918 17.0758934021
5.8247365952 39.1547508240 16.8788146973
5.8290691376 39.1664772034 16.6817131042
5.8334188461 39.1782989502 16.4846382141
5.8378725052 39.1907157898 16.2877273560
5.8426437378 39.2049407959 16.0913047791
5.8481864929 39.2235679626 15.8960809708
5.8551883698 39.2505187988 15.7031240463
5.8642702103 39.2893333435 15.5134143829
5.8756384850 39.3411941528 15.3272972107
5.8891348839 39.4051971436 15.1445493698
5.9046816826 39.4809036255 14.9650764465
5.9224743843 39.5694274902 14.7892055511
5.9425172806 39.6707954407 14.6169691086
5.9639821053 39.7802848816 14.4470901489
5.9851188660 39.8879089355 14.2768259048
6.0038657188 39.9819068909 14.1029119492
6.0187110901 40.0536460876 13.9229259491
6.0292596817 40.1008720398 13.7361965179
6.0362062454 40.1275520325 13.5437822342
6.0408082008 40.1408462524 13.3476476669
6.0442600250 40.1475753784 13.1496763229
6.0473589897 40.1522941589 12.9511356354
6.0505170822 40.1573486328 12.7526826859
6.0539426804 40.1639289856 12.5546531677
6.0578455925 40.1732368469 12.3573904037
6.0625662804 40.1872100830 12.1614494324
6.0685033798 40.2081298828 11.9674863815
6.0758094788 40.2368621826 11.7757644653
6.0841026306 40.2712326050 11.5856742859
6.0925512314 40.3064918518 11.3958702087
6.1003098488 40.3378181458 11.2049703598
6.1069054604 40.3624992371 11.0121889114
6.1123538017 40.3806381226 10.8175401688
6.1170954704 40.3947334290 10.6217365265
6.1217713356 40.4084625244 10.4258289337
6.1268377304 40.4244155884 10.2305736542
6.1322541237 40.4423675537 10.0359058380
6.1375846863 40.4598350525 9.8411054611
6.1424193382 40.4744682312 9.6454877853
6.1466698647 40.4857635498 9.4489002228
6.1505537033 40.4949684143 9.2516994476
6.1544508934 40.5042457581 9.0545196533
6.1588220596 40.5162315369 8.8581361771
6.1641736031 40.5338172913 8.6634082794
6.1710190773 40.5599403381 8.4712152481
6.1798381805 40.5973396301 8.2823867798
6.1909236908 40.6476898193 8.0974416733
6.2040939331 40.7099571228 7.9160985947
6.2185716629 40.7796974182 7.7370533943
6.2333369255 40.8510856628 7.5585780144
6.2476463318 40.9198722839 7.3794031143
6.2611560822 40.9840965271 7.1989340782
6.2736535072 41.0425415039 7.0167932510
6.2848167419 41.0933647156 6.8324170113
6.2942323685 41.1342010498 6.6450738907
6.3016290665 41.1635017395 6.4542746544
6.3071746826 41.1822242737 6.2602877617
6.3115453720 41.1942291260 6.0642685890
6.3156814575 41.2048950195 5.8678426743
6.3204369545 41.2191009521 5.6724996567
6.3263874054 41.2401390076 5.4792537689
6.3338360786 41.2697448730 5.2886514664
6.3428850174 41.3085021973 5.1008892059
6.3534226418 41.3557701111 4.9157872200
6.3650512695 41.4092826843 4.7326622009
6.3771610260 41.4655494690 4.5504460335
6.3891854286 41.5213279724 4.3681392670
6.4008264542 41.5749206543 4.1852111816
6.4120492935 41.6261253357 4.0015969276
6.4229116440 41.6752700806 3.8173928261
6.4334316254 41.7224655151 3.6326286793
6.4435458183 41.7673377991 3.4471852779
6.4530982971 41.8090019226 3.2607796192
6.4619607925 41.8467216492 3.0731728077
6.4702520370 41.8811798096 2.8845729828
6.4783458710 41.9145088196 2.6956481934
6.4865145683 41.9482650757 2.5068891048
6.4945988655 41.9815406799 2.3180086613
6.5021257401 42.0116310120 2.1281447411
6.5087208748 42.0363922119 1.9366085529
6.5143556595 42.0556602478 1.7433377504
6.5192604065 42.0707511902 1.5487413406
6.5237021446 42.0831909180 1.3533030748
6.5278396606 42.0938949585 1.1573081017
6.5316896439 42.1029472351 0.9607840180
6.5351834297 42.1099662781 0.7636016011
6.5382866859 42.1147499084 0.5656923056
6.5411510468 42.1181640625 0.3673325181
6.5442800522 42.1230926514 0.1694551408
15.1775665283 32.3363876343 80.2475967407
15.1837902069 32.3433380127 80.0497360229
15.1915988922 32.3532562256 79.8520889282
15.1975336075 32.3596649170 79.6541900635
15.2004690170 32.3604469299 79.4558792114
15.2019166946 32.3584442139 79.2573623657
15.2038764954 32.3573989868 79.0589065552
15.2068490982 32.3582496643 78.8605728149
15.2102088928 32.3598289490 78.6622772217
15.2138042450 32.3618507385 78.4640045166
15.2182722092 32.3655052185 78.2658538818
15.2238998413 32.3713340759 78.0678558350
15.2299928665 32.3780364990 77.8699264526
15.2353878021 32.3834304810 77.6718902588
15.2389516830 32.3853912354 77.4735794067
15.2395200729 32.3817329407 77.2748184204
15.2360639572 32.3705291748 77.0754318237
15.2285919189 32.3517951965 76.8754119873
15.2189388275 32.3289680481 76.6750183105
15.2103538513 32.3081436157 76.4747467041
15.2060689926 32.2953834534 76.2751007080
15.2080030441 32.2942810059 76.0763931274
15.2163858414 32.3052749634 75.8787002563
15.2303218842 32.3266868591 75.6818847656
15.2490844727 32.3571472168 75.4858703613
15.2730674744 32.3973999023 75.2907257080
15.3027391434 32.4483222961 75.0965576172
15.3357334137 32.5054779053 74.9029998779
15.3655834198 32.5567359924 74.7089843750
15.3850669861 32.5885543823 74.5133056641
15.3916759491 32.5962257385 74.3154830933
15.3892507553 32.5869522095 74.1161193848
15.3839893341 32.5723571777 73.9162521362
15.3793048859 32.5588455200 73.7164459229
15.3744754791 32.5450592041 73.5165863037
15.3672809601 32.5268363953 73.3162841797
15.3571462631 32.5030975342 73.1154174805
15.3459463120 32.4773597717 72.9143218994
15.3366565704 32.4552001953 72.7135162354
15.3318643570 32.4414825439 72.5134811401
15.3333454132 32.4395294189 72.3145523071
15.3419427872 32.4509277344 72.1169128418
15.3567600250 32.4739913940 71.9204254150
15.3744649887 32.5024757385 71.7245025635
15.3903379440 32.5275230408 71.5282592773
15.4006481171 32.5421333313 71.3309860229
15.4042530060 32.5441665649 71.1324539185
15.4024858475 32.5361175537 70.9328842163
15.3980531693 32.5230674744 70.7327804565
15.3936891556 32.5101470947 70.5326538086
15.3910150528 32.5003967285 70.3328323364
15.3901863098 32.4941062927 70.1333465576
15.3903961182 32.4897651672 69.9340362549
15.3905439377 32.4853096008 69.7347030640
15.3896551132 32.4789047241 69.5351486206
15.3873081207 32.4697685242 69.3352661133
15.3841753006 32.4591484070 69.1352081299
15.3819122314 32.4501686096 68.9352951050
15.3819351196 32.4454727173 68.7358322144
15.3842840195 32.4451408386 68.5368347168
15.3882331848 32.4478149414 68.3381500244
15.3939466476 32.4537963867 68.1398315430
15.4027404785 32.4655609131 67.9421615601
15.4153823853 32.4845466614 67.7453155518
15.4305305481 32.5082359314 67.5490188599
15.4452972412 32.5312118530 67.3526611328
15.4573411942 32.5490760803 67.1557312012
15.4662008286 32.5609626770 66.9581222534
15.4728498459 32.5687026978 66.7600326538
15.4785070419 32.5745811462 66.5617294312
15.4840517044 32.5802459717 66.3633880615
15.4901933670 32.5870361328 66.1651840210
15.4977588654 32.5964965820 65.9672927856
15.5074491501 32.6099433899 65.7698898315
15.5190534592 32.6269836426 65.5729217529
15.5309028625 32.6444854736 65.3760223389
15.5405550003 32.6578636169 65.1786346436
15.5464830399 32.6642494202 64.9803848267
15.5491962433 32.6646003723 64.7813873291
15.5506811142 32.6626472473 64.5820922852
15.5527963638 32.6618728638 64.3829345703
15.5560007095 32.6631469727 64.1840133667
15.5589694977 32.6639785767 63.9850311279
15.5592470169 32.6597557068 63.7853889465
15.5552225113 32.6474571228 63.5846977234
15.5481653214 32.6294631958 63.3832397461
15.5416879654 32.6125564575 63.1818847656
15.5388851166 32.6025505066 62.9813957214
15.5408535004 32.6015014648 62.7820510864
15.5476379395 32.6094932556 62.5838890076
15.5585556030 32.6252441406 62.3867492676
15.5713262558 32.6444740295 62.1900863647
15.5826311111 32.6609535217 61.9930686951
15.5898485184 32.6697540283 61.7950286865
15.5916442871 32.6683807373 61.5956115723
15.5876369476 32.6561088562 61.3946990967
15.5784635544 32.6341362000 61.1924285889
15.5658388138 32.6056823730 60.9892234802
15.5518589020 32.5746803284 60.7856140137
15.5383729935 32.5446052551 60.5820808411
15.5269842148 32.5184669495 60.3790359497
15.5189189911 32.4985694885 60.1768226624
15.5146398544 32.4857826233 59.9755668640
15.5137157440 32.4792938232 59.7751770020
15.5147809982 32.4765396118 59.5752983093
15.5154418945 32.4730262756 59.3752937317
15.5131673813 32.4640007019 59.1744766235
15.5076131821 32.4488105774 58.9727439880
15.5024442673 32.4343490601 58.7710876465
15.5041551590 32.4328041077 58.5712814331
15.5181217194 32.4542770386 58.3748359680
15.5447788239 32.4995880127 58.1819267273
15.5789985657 32.5591049194 57.9911727905
15.6133890152 32.6189422607 57.8005409241
15.6426696777 32.6691856384 57.6085472107
15.6653156281 32.7069664001 57.4147377014
15.6821336746 32.7338027954 57.2193183899
15.6943321228 32.7519607544 57.0226097107
15.7024745941 32.7625007629 56.8247528076
15.7058057785 32.7640037537 56.6255149841
15.7017498016 32.7516288757 56.4241294861
15.6866188049 32.7184486389 56.2195014954
15.6584234238 32.6607246399 56.0109977722
15.6202344894 32.5842285156 55.7994766235
15.5804719925 32.5047683716 55.5873680115
15.5487699509 32.4404525757 55.3775138855
15.5312709808 32.4028129578 55.1717796326
15.5295934677 32.3948974609 54.9706993103
15.5424900055 32.4143638611 54.7739639282
15.5665712357 32.4548416138 54.5806121826
15.5961828232 32.5057106018 54.3889808655
15.6254358292 32.5559120178 54.1972999573
15.6522722244 32.6015701294 54.0049400330
15.6803255081 32.6495132446 53.8130073547
15.7156887054 32.7111968994 53.6233825684
15.7607612610 32.7911262512 53.4368362427
15.8108320236 32.8804473877 53.2519416809
15.8569660187 32.9623756409 53.0659370422
15.8921394348 33.0237083435 52.8766059875
15.9143600464 33.0607070923 52.6832733154
15.9252958298 33.0764961243 52.4864158630
15.9278373718 33.0765151978 52.2869033813
15.9247779846 33.0660095215 52.0855979919
15.9179582596 33.0484352112 51.8830604553
15.9079122543 33.0247955322 51.6794509888
15.8951826096 32.9961128235 51.4749259949
15.8827743530 32.9680328369 51.2704544067
15.8765544891 32.9515838623 51.0679435730
15.8816537857 32.9564018250 50.8690910339
15.8979768753 32.9823188782 50.6739196777
15.9200048447 33.0189552307 50.4806518555
15.9411268234 33.0538902283 50.2871246338
15.9577741623 33.0804176331 50.0921478271
15.9697427750 33.0981521606 49.8956375122
15.9777584076 33.1084556580 49.6978149414
15.9816474915 33.1110038757 49.4986114502
15.9809236526 33.1048774719 49.2978401184
15.9764337540 33.0916786194 49.0957717896
15.9706125259 33.0759696960 48.8932189941
15.9659891129 33.0625152588 48.6910438538
15.9638481140 33.0537261963 48.4896850586
15.9642124176 33.0496444702 48.2891654968
15.9666147232 33.0493965149 48.0893287659
15.9707489014 33.0524024963 47.8900833130
15.9767637253 33.0589408875 47.6914825439
15.9852180481 33.0700683594 47.4937362671
15.9966335297 33.0867614746 47.2970275879
16.0107440948 33.1085205078 47.1012840271
16.0260868073 33.1325988770 46.9059944153
16.0405445099 33.1550140381 46.7104148865
16.0524616241 33.1726493835 46.5139465332
16.0611591339 33.1842384338 46.3163414001
16.0664787292 33.1894721985 46.1175270081
16.0680294037 33.1876182556 45.9173469543
16.0650672913 33.1772804260 45.7155227661
16.0571689606 33.1576614380 45.5118751526
16.0451583862 33.1303100586 45.3066902161
16.0314064026 33.0996818542 45.1008186340
16.0189895630 33.0715599060 44.8953781128
16.0103321075 33.0505142212 44.6912727356
16.0065269470 33.0385856628 44.4889183044
16.0077438354 33.0360984802 44.2883987427
16.0140647888 33.0432128906 44.0897636414
16.0257339478 33.0603828430 43.8931274414
16.0425453186 33.0872230530 43.6984367371
16.0631599426 33.1212158203 43.5052032471
16.0852127075 33.1579132080 43.3125495911
16.1060256958 33.1922798157 43.1194648743
16.1231765747 33.2197608948 42.9250221252
16.1349925995 33.2372131348 42.7285728455
16.1412811279 33.2442665100 42.5300140381
16.1435165405 33.2436943054 42.3298912048
16.1438903809 33.2396278381 42.1290397644
16.1442508698 33.2355308533 41.9281654358
16.1461677551 33.2343597412 41.7278747559
16.1515846252 33.2397727966 41.5289382935
16.1625499725 33.2556228638 41.3321685791
16.1797409058 33.2831802368 41.1378555298
16.2013626099 33.3190803528 40.9453201294
16.2237491608 33.3564109802 40.7531242371
16.2430686951 33.3879776001 40.5597534180
16.2567234039 33.4088897705 40.3641548157
16.2639331818 33.4176750183 40.1660003662
16.2658252716 33.4164581299 39.9657173157
16.2648830414 33.4099121094 39.7642745972
16.2635879517 33.4027023315 39.5626716614
16.2631664276 33.3971290588 39.3613967896
16.2633838654 33.3927650452 39.1603622437
16.2632884979 33.3878059387 38.9591827393
16.2623157501 33.3811988831 38.7576255798
16.2612705231 33.3744544983 38.5560150146
16.2623252869 33.3716621399 38.3552474976
16.2675189972 33.3766517639 38.1561737061
16.2769660950 33.3896446228 37.9588584900
16.2887649536 33.4070663452 37.7625274658
16.3006744385 33.4246940613 37.5662574768
16.3117637634 33.4407806396 37.3696556091
16.3229598999 33.4570693970 37.1731109619
16.3367347717 33.4782066345 36.9776611328
16.3559551239 33.5095901489 36.7845306396
16.3818588257 33.5535545349 36.5942726135
16.4124355316 33.6063117981 36.4060516357
16.4430866241 33.6592140198 36.2179260254
16.4692840576 33.7037315369 36.0279541016
16.4888134003 33.7357025146 35.8351745605
16.5020751953 33.7558860779 35.6397247314
16.5110111237 33.7679214478 35.4424247742
16.5178813934 33.7760734558 35.2442321777
16.5245857239 33.7839126587 35.0459671021
16.5325546265 33.7941322327 34.8482551575
16.5428752899 33.8087730408 34.6515731812
16.5562000275 33.8290748596 34.4562187195
16.5722866058 33.8545722961 34.2621002197
16.5897006989 33.8825683594 34.0685882568
16.6063003540 33.9090347290 33.8747444153
16.6202869415 33.9305801392 33.6797676086
16.6308879852 33.9457550049 33.4832992554
16.6383781433 33.9550743103 33.2854499817
16.6438426971 33.9605827332 33.0866889954
16.6490039825 33.9655151367 32.8877906799
16.6558589935 33.9736404419 32.6896514893
16.6658821106 33.9877281189 32.4929466248
16.6790122986 34.0076637268 32.2976570129
16.6933937073 34.0299568176 32.1029548645
16.7064514160 34.0497589111 31.9076709747
16.7165088654 34.0639114380 31.7110252380
16.7235183716 34.0723266602 31.5129890442
16.7285480499 34.0770149231 31.3140411377
16.7327880859 34.0802154541 31.1147212982
16.7369918823 34.0833473206 30.9153785706
16.7415161133 34.0870895386 30.7161769867
16.7467002869 34.0920639038 30.5172748566
16.7530956268 34.0993232727 30.3189334869
16.7612400055 34.1098747253 30.1214103699
16.7709617615 34.1233978271 29.9246330261
16.7808952332 34.1373176575 29.7279624939
16.7889003754 34.1476058960 29.5303878784
16.7932014465 34.1509208679 29.3310585022
16.7933712006 34.1464614868 29.1297569275
16.7907295227 34.1367034912 28.9270935059
16.7880783081 34.1269264221 28.7243995667
16.7887134552 34.1233367920 28.5232563019
16.7949619293 34.1303215027 28.3247966766
16.8072090149 34.1485977173 28.1292285919
16.8240432739 34.1755142212 27.9358959198
16.8432312012 34.2068595886 27.7437305450
16.8625469208 34.2384490967 27.5516605377
16.8800106049 34.2665519714 27.3587207794
16.8940982819 34.2882957458 27.1641578674
16.9044723511 34.3030509949 26.9677906036
16.9127311707 34.3138198853 26.7703914642
16.9220371246 34.3265609741 26.5735130310
16.9353542328 34.3468551636 26.3786239624
16.9535846710 34.3764076233 26.1861915588
16.9752216339 34.4123725891 25.9954853058
16.9977016449 34.4499282837 25.8052368164
17.0191535950 34.4855499268 25.6145172119
17.0390987396 34.5183334351 25.4230823517
17.0577487946 34.5486755371 25.2310295105
17.0749187469 34.5762329102 25.0382614136
17.0898361206 34.5995483398 24.8443832397
17.1019649506 34.6176109314 24.6491107941
17.1116867065 34.6311378479 24.4526290894
17.1201496124 34.6422958374 24.2555122375
17.1285991669 34.6534309387 24.0583934784
17.1378517151 34.6660728455 23.8616886139
17.1480998993 34.6805953979 23.6655025482
17.1590137482 34.6963729858 23.4696674347
17.1699447632 34.7121772766 23.2738513947
17.1801223755 34.7265701294 23.0776576996
17.1888427734 34.7382125854 22.8807125092
17.1955814362 34.7461204529 22.6827430725
17.2001037598 34.7498588562 22.4836139679
17.2025737762 34.7497253418 22.2834033966
17.2036876678 34.7470359802 22.0824680328
17.2047920227 34.7443313599 21.8815116882
17.2079334259 34.7454643250 21.6816158295
17.2157344818 34.7553710938 21.4841709137
17.2308483124 34.7790641785 21.2906074524
17.2549076080 34.8196105957 21.1018218994
17.2875118256 34.8762550354 20.9176387787
17.3263511658 34.9446563721 20.7368583679
17.3684978485 35.0192909241 20.5579357147
17.4112110138 35.0949897766 20.3794136047
