6.7883224487 -36.3996963501 69.4394683838
6.7827291489 -36.3756828308 69.2387847900
6.7772483826 -36.3524818420 69.0381317139
6.7722845078 -36.3329811096 68.8377990723
6.7678146362 -36.3170242310 68.6377792358
6.7635765076 -36.3027305603 68.4378890991
6.7593536377 -36.2885513306 68.2379760742
6.7551493645 -36.2745018005 68.0380477905
6.7512531281 -36.2626647949 67.8383102417
6.7482423782 -36.2571716309 67.6391906738
6.7467989922 -36.2629051208 67.4411926270
6.7472934723 -36.2825126648 67.2446136475
6.7494473457 -36.3140068054 67.0492782593
6.7524433136 -36.3515243530 66.8545989990
6.7554202080 -36.3889045715 66.6599349976
6.7579169273 -36.4228401184 66.4649429321
6.7598953247 -36.4530639648 66.2695846558
6.7614054680 -36.4799346924 66.0738983154
6.7623081207 -36.5024604797 65.8777618408
6.7623772621 -36.5190124512 65.6809921265
6.7616028786 -36.5295295715 65.4835815430
6.7602858543 -36.5361633301 65.2857360840
6.7588133812 -36.5416793823 65.0877685547
6.7573995590 -36.5476226807 64.8898468018
6.7560229301 -36.5538253784 64.6919403076
6.7545247078 -36.5591659546 64.4939346313
6.7527422905 -36.5624694824 64.2956848145
6.7505941391 -36.5631561279 64.0971374512
6.7481327057 -36.5616073608 63.8983230591
6.7456111908 -36.5596275330 63.6994400024
6.7435569763 -36.5609893799 63.5009269714
6.7427282333 -36.5711212158 63.3034133911
6.7438507080 -36.5952110291 63.1075210571
6.7472119331 -36.6353111267 62.9135169983
6.7523140907 -36.6878585815 62.7210083008
6.7578730583 -36.7436752319 62.5289382935
6.7623786926 -36.7919464111 62.3360328674
6.7648892403 -36.8259506226 62.1414680481
6.7653641701 -36.8453941345 61.9451904297
6.7643179893 -36.8539619446 61.7476081848
6.7622752190 -36.8554000854 61.5491600037
6.7594685555 -36.8513832092 61.3500328064
6.7557835579 -36.8410835266 61.1501159668
6.7508358955 -36.8217620850 60.9490623474
6.7442874908 -36.7910003662 60.7465553284
6.7363667488 -36.7504348755 60.5427742004
6.7280907631 -36.7073287964 60.3386077881
6.7207517624 -36.6709327698 60.1352195740
6.7151474953 -36.6469383240 59.9333343506
6.7113943100 -36.6361732483 59.7330894470
6.7093424797 -36.6375694275 59.5343627930
6.7089028358 -36.6504898071 59.3371047974
6.7099719048 -36.6741905212 59.1412391663
6.7121963501 -36.7061462402 58.9464569092
6.7149224281 -36.7416839600 58.7521667480
6.7173924446 -36.7753906250 58.5576705933
6.7188978195 -36.8022041321 58.3622970581
6.7187237740 -36.8170127869 58.1653556824
6.7161645889 -36.8147888184 57.9661636353
6.7108864784 -36.7931365967 57.7643623352
6.7033848763 -36.7556114197 57.5603904724
6.6949872971 -36.7116928101 57.3554992676
6.6871323586 -36.6716537476 57.1510620117
6.6805348396 -36.6405982971 56.9477806091
6.6750779152 -36.6176948547 56.7455596924
6.6703567505 -36.6000442505 56.5440139771
6.6661539078 -36.5861053467 56.3429412842
6.6625938416 -36.5767517090 56.1424751282
6.6601729393 -36.5755386353 55.9431152344
6.6596255302 -36.5877037048 55.7456054688
6.6614947319 -36.6171188354 55.5505180359
6.6656770706 -36.6630439758 55.3577842712
6.6713366508 -36.7195129395 55.1665840149
6.6771788597 -36.7772789001 54.9756278992
6.6818680763 -36.8268127441 54.7835578918
6.6845235825 -36.8618240356 54.5894508362
6.6852083206 -36.8827667236 54.3933448792
6.6850786209 -36.8978996277 54.1964111328
6.6858320236 -36.9193344116 54.0003967285
6.6886219978 -36.9552993774 53.8065223694
6.6931986809 -37.0040130615 53.6145477295
6.6980085373 -37.0543823242 53.4228630066
6.7012252808 -37.0933837891 53.2295494080
6.7018618584 -37.1139717102 53.0335350037
6.7001514435 -37.1178169250 52.8350334167
6.6971273422 -37.1122932434 52.6351165771
6.6938929558 -37.1052703857 52.4349555969
6.6910815239 -37.1012649536 52.2352256775
6.6887621880 -37.1007690430 52.0360107422
6.6866841316 -37.1020011902 51.8370437622
6.6845836639 -37.1030693054 51.6380424500
6.6823549271 -37.1032257080 51.4388847351
6.6800732613 -37.1030044556 51.2396545410
6.6779432297 -37.1038665771 51.0405807495
6.6762552261 -37.1078834534 50.8419799805
6.6753544807 -37.1175117493 50.6442527771
6.6755404472 -37.1348876953 50.4477348328
6.6768622398 -37.1603622437 50.2525024414
6.6789908409 -37.1915893555 50.0582008362
6.6813888550 -37.2247314453 49.8642234802
6.6836552620 -37.2569351196 49.6701278687
6.6856579781 -37.2872505188 49.4757575989
6.6873188019 -37.3151359558 49.2810211182
6.6883907318 -37.3388175964 49.0856285095
6.6885371208 -37.3559036255 48.8891830444
6.6876182556 -37.3653945923 48.6915092468
6.6858129501 -37.3685760498 48.4928016663
6.6834869385 -37.3680419922 48.2934761047
6.6809906960 -37.3662948608 48.0939407349
6.6785769463 -37.3651428223 47.8944816589
6.6764173508 -37.3657951355 47.6953086853
6.6746282578 -37.3690948486 47.4965629578
6.6732745171 -37.3754959106 47.2983245850
6.6723604202 -37.3850288391 47.1006088257
6.6718444824 -37.3973960876 46.9033660889
6.6716852188 -37.4123039246 46.7065544128
6.6719164848 -37.4299926758 46.5102195740
6.6726632118 -37.4513511658 46.3145179749
6.6740098000 -37.4769859314 46.1195602417
6.6757364273 -37.5053176880 45.9250831604
6.6772203445 -37.5319252014 45.7303314209
6.6778469086 -37.5524215698 45.5345458984
6.6776638031 -37.5671577454 45.3377723694
6.6774158478 -37.5814285278 45.1409187317
6.6776752472 -37.5993118286 44.9447059631
6.6780977249 -37.6183547974 44.7486991882
6.6777591705 -37.6319770813 44.5517539978
6.6761097908 -37.6362724304 44.3531608582
6.6734628677 -37.6334648132 44.1533012390
6.6706624031 -37.6295661926 43.9532318115
6.6682934761 -37.6287460327 43.7536888123
6.6661109924 -37.6292457581 43.5543708801
6.6632947922 -37.6252403259 43.3542289734
6.6593413353 -37.6131439209 43.1526069641
6.6546030045 -37.5954627991 42.9499397278
6.6498923302 -37.5779838562 42.7472763062
6.6457648277 -37.5646553040 42.5453338623
6.6423125267 -37.5561370850 42.3442382813
6.6394624710 -37.5519027710 42.1439094543
6.6372270584 -37.5520401001 41.9443626404
6.6357135773 -37.5573158264 41.7457542419
6.6350784302 -37.5688438416 41.5482978821
6.6355090141 -37.5879478455 41.3522529602
6.6371278763 -37.6155014038 41.1577987671
6.6397905350 -37.6504783630 40.9647560120
6.6430087090 -37.6894073486 40.7724876404
6.6461977959 -37.7281227112 40.5802192688
6.6490230560 -37.7642478943 40.3874893188
6.6513509750 -37.7968330383 40.1941223145
6.6528615952 -37.8236083984 39.9996757507
6.6530179977 -37.8407554626 39.8034019470
6.6516537666 -37.8470878601 39.6050643921
6.6493759155 -37.8469238281 39.4054679871
6.6471524239 -37.8471488953 39.2059288025
6.6456770897 -37.8526916504 39.0074119568
6.6453084946 -37.8661041260 38.8104171753
6.6463394165 -37.8894653320 38.6153678894
6.6489324570 -37.9239234924 38.4225044250
6.6527409554 -37.9670181274 38.2313728333
6.6568384171 -38.0121650696 38.0406837463
6.6601538658 -38.0517501831 37.8489418030
6.6618356705 -38.0797271729 37.6549301147
6.6610903740 -38.0904502869 37.4575080872
6.6570191383 -38.0775489807 37.2553634644
6.6492099762 -38.0380859375 37.0478706360
6.6386442184 -37.9790496826 36.8363800049
6.6276321411 -37.9168472290 36.6241607666
6.6185436249 -37.8683166504 36.4146118164
6.6126451492 -37.8424530029 36.2095832825
6.6100282669 -37.8399009705 36.0092544556
6.6101660728 -37.8569145203 35.8129043579
6.6121773720 -37.8872413635 35.6192893982
6.6147942543 -37.9218597412 35.4265785217
6.6166496277 -37.9510688782 35.2327842712
6.6169667244 -37.9693527222 35.0367546082
6.6159501076 -37.9781646729 34.8387680054
6.6144924164 -37.9838447571 34.6401290894
6.6136469841 -37.9938735962 34.4423904419
6.6143460274 -38.0148735046 34.2469482422
6.6171708107 -38.0509567261 34.0546836853
6.6219482422 -38.1008987427 33.8653678894
6.6276264191 -38.1572341919 33.6774559021
6.6329135895 -38.2107887268 33.4890136719
6.6371498108 -38.2568778992 33.2990379333
6.6404838562 -38.2965583801 33.1077384949
6.6433839798 -38.3331642151 32.9158210754
6.6462211609 -38.3693161011 32.7238388062
6.6491293907 -38.4059677124 32.5319938660
6.6519546509 -38.4420280457 32.3400573730
6.6543374062 -38.4749450684 32.1474723816
6.6559939384 -38.5027122498 31.9537982941
6.6569685936 -38.5256385803 31.7590904236
6.6576595306 -38.5465431213 31.5639591217
6.6587104797 -38.5700073242 31.3693981171
6.6608695984 -38.6013298035 31.1765804291
6.6647491455 -38.6448593140 30.9864749908
6.6704640388 -38.7013969421 30.7992858887
6.6773252487 -38.7660636902 30.6139564514
6.6839599609 -38.8291206360 30.4283370972
6.6889905930 -38.8807907104 30.2402477264
6.6918244362 -38.9168815613 30.0487289429
6.6928572655 -38.9401969910 29.8543815613
6.6930088997 -38.9572639465 29.6586437225
6.6931443214 -38.9742126465 29.4628887177
6.6937570572 -38.9945449829 29.2679061890
6.6948680878 -39.0184135437 29.0737361908
6.6960659027 -39.0428886414 28.8797225952
6.6967477798 -39.0637092590 28.6848907471
6.6964387894 -39.0775070190 28.4884662628
6.6949238777 -39.0827522278 28.2900867462
6.6921920776 -39.0793762207 28.0897178650
6.6884026527 -39.0685005188 27.8876018524
6.6838936806 -39.0525321960 27.6842803955
6.6790871620 -39.0344581604 27.4804344177
6.6743631363 -39.0169715881 27.2766895294
6.6701207161 -39.0028991699 27.0737037659
6.6668581963 -38.9957695007 26.8723068237
6.6649498940 -38.9982414246 26.6731376648
6.6642818451 -39.0095024109 26.4760246277
6.6642842293 -39.0255126953 26.2800273895
6.6644206047 -39.0424690247 26.0842628479
6.6646027565 -39.0597496033 25.8885822296
6.6651306152 -39.0794792175 25.6934909821
6.6663088799 -39.1038169861 25.4995098114
6.6681671143 -39.1329650879 25.3066940308
6.6705379486 -39.1657485962 25.1147708893
6.6733484268 -39.2016334534 24.9236221313
6.6767315865 -39.2415809631 24.7334823608
6.6808323860 -39.2866020203 24.5446071625
6.6855573654 -39.3360404968 24.3568439484
6.6905379295 -39.3872833252 24.1695671082
6.6952538490 -39.4366531372 23.9818878174
6.6991600990 -39.4802818298 23.7928562164
6.7018260956 -39.5151290894 23.6017169952
6.7031149864 -39.5402259827 23.4082183838
6.7032423019 -39.5570945740 23.2127132416
6.7026386261 -39.5687904358 23.0159416199
6.7017631531 -39.5785636902 22.8186931610
6.7010278702 -39.5893287659 22.6216907501
6.7008118629 -39.6037712097 22.4256019592
6.7014136314 -39.6239929199 22.2309570313
6.7028636932 -39.6502227783 22.0378246307
6.7047820091 -39.6797637939 21.8455429077
6.7065010071 -39.7078933716 21.6529293060
6.7074055672 -39.7302551270 21.4588851929
6.7071771622 -39.7446022034 21.2628326416
6.7058076859 -39.7508811951 21.0647430420
6.7035074234 -39.7505683899 20.8649768829
6.7006192207 -39.7460975647 20.6641387939
6.6975402832 -39.7402839661 20.4629364014
6.6946234703 -39.7356147766 20.2620067596
6.6920952797 -39.7336997986 20.0617618561
6.6900410652 -39.7351341248 19.8623600006
6.6884784698 -39.7400512695 19.6638431549
6.6874809265 -39.7489585876 19.4663505554
6.6872787476 -39.7634925842 19.2703094482
6.6882843971 -39.7865715027 19.0764904022
6.6909952164 -39.8217010498 18.8858222961
6.6957678795 -39.8714103699 18.6989860535
6.7025723457 -39.9354782104 18.5159530640
6.7108712196 -40.0101051331 18.3357563019
6.7197222710 -40.0886306763 18.1566638947
6.7280902863 -40.1637344360 17.9767589569
6.7352113724 -40.2300186157 17.7946071625
6.7407455444 -40.2850799561 17.6095600128
6.7446575165 -40.3286705017 17.4215240479
6.7471089363 -40.3619346619 17.2307853699
6.7485256195 -40.3878822327 17.0381240845
6.7496366501 -40.4116744995 16.8449077606
6.7512907982 -40.4392929077 16.6527328491
6.7541360855 -40.4753379822 16.4628391266
6.7583394051 -40.5209655762 16.2755603790
6.7634592056 -40.5730705261 16.0900707245
6.7685980797 -40.6253051758 15.9046716690
6.7727918625 -40.6708602905 15.7175130844
6.7754220963 -40.7053680420 15.5273990631
6.7764110565 -40.7282714844 15.3341541290
6.7761211395 -40.7421455383 15.1384592056
6.7751183510 -40.7509841919 14.9413909912
6.7739820480 -40.7588806152 14.7440605164
6.7732300758 -40.7694892883 14.5474720001
6.7733030319 -40.7859306335 14.3524894714
6.7745733261 -40.8108177185 14.1598491669
6.7773294449 -40.8461990356 13.9701309204
6.7816529274 -40.8926429749 13.7835159302
6.7871608734 -40.9474487305 13.5992727280
6.7929248810 -41.0040588379 13.4155883789
6.7978668213 -41.0548591614 13.2303390503
6.8013830185 -41.0955924988 13.0423212051
6.8035898209 -41.1270751953 12.8517456055
6.8050513268 -41.1532974243 12.6597166061
6.8063979149 -41.1787071228 12.4674758911
6.8080992699 -41.2066154480 12.2759628296
6.8103342056 -41.2382965088 12.0855379105
6.8129448891 -41.2726173401 11.8958911896
6.8156170845 -41.3073768616 11.7063999176
6.8182082176 -41.3415565491 11.5167732239
6.8208384514 -41.3760147095 11.3272562027
6.8236465454 -41.4117240906 11.1381282806
6.8265376091 -41.4480133057 10.9491987228
6.8292813301 -41.4832649231 10.7600030899
6.8318214417 -41.5170707703 10.5704231262
6.8343639374 -41.5508995056 10.3808774948
6.8371157646 -41.5861968994 10.1917877197
6.8399658203 -41.6221847534 10.0029306412
6.8424315453 -41.6554641724 9.8133163452
6.8438210487 -41.6811447144 9.6215143204
6.8434739113 -41.6945800781 9.4261512756
6.8411426544 -41.6940193176 9.2266893387
6.8373956680 -41.6834793091 9.0242805481
6.8335418701 -41.6721839905 8.8216238022
6.8309106827 -41.6695137024 8.6214809418
6.8301234245 -41.6798477173 8.4251651764
6.8310213089 -41.7020645142 8.2323703766
6.8331332207 -41.7328338623 8.0421295166
6.8360972404 -41.7696151733 7.8537020683
6.8397507668 -41.8112487793 7.6667566299
6.8440332413 -41.8573112488 7.4811749458
6.8489065170 -41.9075393677 7.2968850136
6.8542814255 -41.9612960815 7.1137061119
6.8599476814 -42.0171051025 6.9311995506
6.8655734062 -42.0726242065 6.7486639023
6.8708424568 -42.1256179810 6.5654239655
6.8757491112 -42.1760597229 6.3814644814
6.8808288574 -42.2277145386 6.1979250908
6.8868846893 -42.2862472534 6.0165286064
6.8942065239 -42.3536911011 5.8379106522
6.9020352364 -42.4246978760 5.6604533195
6.9089512825 -42.4892730713 5.4811058044
6.9138340950 -42.5395164490 5.2974324226
6.9164333344 -42.5736732483 5.1088666916
6.9172248840 -42.5950889587 4.9164075851
6.9169745445 -42.6091728210 4.7216982841
6.9164633751 -42.6214103699 4.5264244080
6.9163780212 -42.6366539001 4.3320817947
6.9172034264 -42.6583061218 4.1397352219
6.9190497398 -42.6871490479 3.9496409893
6.9215931892 -42.7208976746 3.7610995770
6.9242944717 -42.7557601929 3.5729351044
6.9268131256 -42.7893257141 3.3843967915
6.9292621613 -42.8224029541 3.1957342625
6.9320735931 -42.8580322266 3.0079026222
6.9355406761 -42.8982696533 2.8215551376
6.9394140244 -42.9413719177 2.6361491680
6.9429817200 -42.9823112488 2.4501020908
6.9456038475 -43.0165977478 2.2619836330
6.9471879005 -43.0435676575 2.0715725422
6.9481749535 -43.0663414001 1.8798451424
6.9492206573 -43.0895233154 1.6882642508
6.9509487152 -43.1175079346 1.4982334375
6.9538316727 -43.1536140442 1.3108265400
6.9580020905 -43.1987800598 1.1263599396
6.9630422592 -43.2500648499 0.9439049363
6.9680857658 -43.3013648987 0.7615080476
6.9723525047 -43.3471946716 0.5773974657
6.9757161140 -43.3866691589 0.3912752569
6.9788179398 -43.4242973328 0.2045925558
6.9826774597 -43.4672584534 0.0196754225
-4.7262310982 -37.0546302795 80.5439987183
-4.7251963615 -37.0361785889 80.3455123901
-4.7226037979 -37.0089607239 80.1464462280
-4.7204747200 -36.9843482971 79.9474868774
-4.7202343941 -36.9703636169 79.7491683960
-4.7222719193 -36.9691963196 79.5516357422
-4.7262244225 -36.9788055420 79.3547821045
-4.7316265106 -36.9965744019 79.1584625244
-4.7383222580 -37.0216255188 78.9626312256
-4.7462277412 -37.0534896851 78.7672729492
-4.7547645569 -37.0889053345 78.5721817017
-4.7626895905 -37.1208801270 78.3768920898
-4.7686443329 -37.1417655945 78.1808624268
-4.7719860077 -37.1479415894 77.9838333130
-4.7731289864 -37.1417350769 77.7859420776
-4.7731347084 -37.1291275024 77.5875701904
-4.7730245590 -37.1158638000 77.3891296387
-4.7733922005 -37.1052894592 77.1908493042
-4.7743587494 -37.0980834961 76.9927825928
-4.7756195068 -37.0925331116 76.7948226929
-4.7765259743 -37.0849876404 76.5966873169
-4.7762866020 -37.0709877014 76.3980560303
-4.7743072510 -37.0471878052 76.1986541748
-4.7705183029 -37.0131912231 75.9984436035
-4.7654652596 -36.9720726013 75.7976379395
-4.7600798607 -36.9290733337 75.5966186523
-4.7553372383 -36.8896942139 75.3958129883
-4.7520647049 -36.8585891724 75.1955947876
-4.7508764267 -36.8392257690 74.9962387085
-4.7521042824 -36.8334732056 74.7979278564
-4.7557835579 -36.8415260315 74.6007003784
-4.7617120743 -36.8622512817 74.4044876099
-4.7694778442 -36.8933296204 74.2091293335
-4.7784476280 -36.9311981201 74.0143585205
-4.7878847122 -36.9716949463 73.8198318481
-4.7971310616 -37.0111236572 73.6252593994
-4.8056769371 -37.0466079712 73.4303970337
-4.8131566048 -37.0760841370 73.2350540161
-4.8193964958 -37.0985755920 73.0391464233
-4.8244519234 -37.1143913269 72.8426818848
-4.8285212517 -37.1246490479 72.6457366943
-4.8318390846 -37.1306724548 72.4484329224
-4.8346300125 -37.1337280273 72.2508621216
-4.8371195793 -37.1350784302 72.0531311035
-4.8395462036 -37.1360778809 71.8553543091
-4.8421978951 -37.1383438110 71.6576843262
-4.8454127312 -37.1437835693 71.4602890015
-4.8494563103 -37.1538963318 71.2633056641
-4.8542666435 -37.1683311462 71.0667266846
-4.8592858315 -37.1839447021 70.8702545166
-4.8636460304 -37.1958427429 70.6734466553
-4.8666057587 -37.1998443604 70.4759063721
-4.8678932190 -37.1944160461 70.2774658203
-4.8677887917 -37.1811332703 70.0782699585
-4.8669834137 -37.1638984680 69.8786697388
-4.8662548065 -37.1470947266 69.6790695190
-4.8661036491 -37.1335449219 69.4797515869
-4.8666229248 -37.1237754822 69.2807693481
-4.8676676750 -37.1169700623 69.0820541382
-4.8691101074 -37.1124038696 68.8835296631
-4.8709764481 -37.1102256775 68.6852340698
-4.8734655380 -37.1115608215 68.4872665405
-4.8768672943 -37.1180458069 68.2898025513
-4.8813757896 -37.1307754517 68.0929641724
-4.8868217468 -37.1487922668 67.8966674805
-4.8925724030 -37.1685256958 67.7005538940
-4.8978080750 -37.1853561401 67.5041580200
-4.9019994736 -37.1962966919 67.3071594238
-4.9051370621 -37.2012901306 67.1095428467
-4.9075598717 -37.2022476196 66.9114913940
-4.9096641541 -37.2014083862 66.7132492065
-4.9117665291 -37.2005577087 66.5149841309
-4.9141283035 -37.2011718750 66.3168640137
-4.9170064926 -37.2046966553 66.1190414429
-4.9205956459 -37.2122344971 65.9216461182
-4.9247884750 -37.2231826782 65.7246170044
-4.9288811684 -37.2335586548 65.5275268555
-4.9316339493 -37.2363777161 65.3296051025
-4.9319982529 -37.2257118225 65.1301803589
-4.9300284386 -37.2018661499 64.9292678833
-4.9270014763 -37.1720542908 64.7276458740
-4.9245281219 -37.1453590393 64.5263290405
-4.9235463142 -37.1270828247 64.3259048462
-4.9240813255 -37.1173706055 64.1264266968
-4.9256920815 -37.1137275696 63.9276161194
-4.9279975891 -37.1140098572 63.7292366028
-4.9309144020 -37.1177406311 63.5312423706
-4.9345374107 -37.1254577637 63.3337020874
-4.9388241768 -37.1369247437 63.1365966797
-4.9433865547 -37.1499481201 62.9396781921
-4.9476675987 -37.1613883972 62.7425765991
-4.9513564110 -37.1694755554 62.5450744629
-4.9545664787 -37.1748619080 62.3472518921
-4.9576148987 -37.1793327332 62.1493072510
-4.9606614113 -37.1837959290 61.9513587952
-4.9635448456 -37.1873359680 61.7532920837
-4.9659056664 -37.1879234314 61.5548515320
-4.9674329758 -37.1837997437 61.3558273315
-4.9680309296 -37.1744270325 61.1561317444
-4.9678387642 -37.1605873108 60.9558601379
-4.9672212601 -37.1443405151 60.7552604675
-4.9667215347 -37.1287574768 60.5547065735
-4.9669094086 -37.1170616150 60.3546104431
-4.9682397842 -37.1118164063 60.1553039551
-4.9710540771 -37.1149559021 59.9570388794
-4.9755835533 -37.1277885437 59.7600021362
-4.9818005562 -37.1501579285 59.5641975403
-4.9893260002 -37.1799240112 59.3693580627
-4.9977021217 -37.2144966125 59.1751670837
-5.0068545341 -37.2534599304 58.9815826416
-5.0171532631 -37.2989082336 58.7888793945
-5.0288577080 -37.3523025513 58.5972671509
-5.0415344238 -37.4111976624 58.4064369202
-5.0541648865 -37.4698333740 58.2156372070
-5.0658221245 -37.5229721069 58.0241622925
-5.0761890411 -37.5688209534 57.8317642212
-5.0855102539 -37.6087570190 57.6386184692
-5.0941362381 -37.6447677612 57.4449768066
-5.1019959450 -37.6764488220 57.2507820129
-5.1083540916 -37.6996383667 57.0554504395
-5.1121010780 -37.7080650330 56.8581123352
-5.1124482155 -37.6972656250 56.6581192017
-5.1096668243 -37.6687736511 56.4556465149
-5.1053452492 -37.6315650940 56.2519111633
-5.1016931534 -37.5981407166 56.0486450195
-5.1002745628 -37.5773468018 55.8470954895
-5.1013493538 -37.5706520081 55.6474952698
-5.1043148041 -37.5746498108 55.4493904114
-5.1085124016 -37.5856132507 55.2522735596
-5.1135797501 -37.6015014648 55.0558547974
-5.1193103790 -37.6211433411 54.8599891663
-5.1254391670 -37.6430320740 54.6644554138
-5.1316504478 -37.6653938293 54.4690055847
-5.1377377510 -37.6870536804 54.2734718323
-5.1436896324 -37.7079467773 54.0778388977
-5.1495928764 -37.7285652161 53.8821792603
-5.1554317474 -37.7488212585 53.6864776611
-5.1609964371 -37.7675285339 53.4905624390
-5.1660461426 -37.7833213806 53.2942237854
-5.1705322266 -37.7959251404 53.0974121094
-5.1746029854 -37.8061790466 52.9002532959
-5.1784310341 -37.8150558472 52.7028884888
-5.1820902824 -37.8229789734 52.5053749084
-5.1855616570 -37.8298416138 52.3076972961
-5.1887884140 -37.8353157043 52.1098060608
-5.1917123795 -37.8390769958 51.9116439819
-5.1942877769 -37.8408660889 51.7131690979
-5.1964735985 -37.8404464722 51.5143470764
-5.1982159615 -37.8375167847 51.3151168823
-5.1994733810 -37.8318405151 51.1154403687
-5.2003493309 -37.8240013123 50.9154090881
-5.2012224197 -37.8161468506 50.7153511047
-5.2026281357 -37.8113059998 50.5157432556
-5.2048654556 -37.8111724854 50.3168640137
-5.2077755928 -37.8148498535 50.1185760498
-5.2109951973 -37.8202781677 49.9205627441
-5.2143988609 -37.8267440796 49.7227058411
-5.2182240486 -37.8356018066 49.5252304077
-5.2228021622 -37.8487205505 49.3284416199
-5.2281522751 -37.8662147522 49.1323661804
-5.2337946892 -37.8853645325 48.9365692139
-5.2389745712 -37.9018936157 48.7403564453
-5.2431097031 -37.9125061035 48.5431785583
-5.2460255623 -37.9162139893 48.3448638916
-5.2477984428 -37.9134445190 48.1454696655
-5.2484769821 -37.9044723511 47.9450302124
-5.2480430603 -37.8891983032 47.7435112000
-5.2466502190 -37.8684883118 47.5410537720
-5.2448124886 -37.8452568054 47.3381309509
-5.2432084084 -37.8233451843 47.1353874207
-5.2423033714 -37.8053932190 46.9332733154
-5.2422766685 -37.7924156189 46.7319679260
-5.2433118820 -37.7854499817 46.5316581726
-5.2457208633 -37.7862739563 46.3326606750
-5.2496347427 -37.7956199646 46.1351165771
-5.2546982765 -37.8114852905 45.9386940002
-5.2602267265 -37.8299865723 45.7427368164
-5.2656173706 -37.8477058411 45.5466537476
-5.2706055641 -37.8631439209 45.3501815796
-5.2752923965 -37.8768768311 45.1534156799
-5.2800912857 -37.8912429810 44.9567680359
-5.2856154442 -37.9097213745 44.7608528137
-5.2924385071 -37.9355659485 44.5662498474
-5.3007750511 -37.9699897766 44.3731918335
-5.3102874756 -38.0110816956 44.1813507080
-5.3201808929 -38.0543403625 43.9899406433
-5.3294682503 -38.0941619873 43.7979545593
-5.3372597694 -38.1255073547 43.6044769287
-5.3431553841 -38.1460990906 43.4090843201
-5.3475751877 -38.1583251953 43.2121849060
-5.3515672684 -38.1681289673 43.0148468018
-5.3560581207 -38.1807556152 42.8180236816
-5.3612833023 -38.1975517273 42.6219673157
-5.3669300079 -38.2167358398 42.4263610840
-5.3726449013 -38.2363090515 42.2308387756
-5.3782830238 -38.2554473877 42.0352478027
-5.3837437630 -38.2735786438 41.8394813538
-5.3887553215 -38.2891654968 41.6432456970
-5.3929605484 -38.3001747131 41.4461631775
-5.3962373734 -38.3059196472 41.2480926514
-5.3988637924 -38.3079757690 41.0493202209
-5.4013662338 -38.3093261719 40.8504028320
-5.4042797089 -38.3130073547 40.6519165039
-5.4080629349 -38.3216209412 40.4543609619
-5.4131226540 -38.3374824524 40.2581901550
-5.4197769165 -38.3623924255 40.0637626648
-5.4280295372 -38.3963699341 39.8710937500
-5.4372415543 -38.4357948303 39.6795120239
-5.4460225105 -38.4727783203 39.4874954224
-5.4526305199 -38.4974288940 39.2931137085
-5.4557781219 -38.5024414063 39.0949211121
-5.4553556442 -38.4871902466 38.8927574158
-5.4525785446 -38.4585723877 38.6879386902
-5.4494204521 -38.4277877808 38.4826431274
-5.4476289749 -38.4047584534 38.2788238525
-5.4479351044 -38.3936309814 38.0773239136
-5.4499979019 -38.3924789429 37.8777770996
-5.4530372620 -38.3968658447 37.6793251038
-5.4565100670 -38.4037170410 37.4813575745
-5.4603462219 -38.4126281738 37.2837982178
-5.4648056030 -38.4250793457 37.0869483948
-5.4701986313 -38.4428329468 36.8911743164
-5.4765796661 -38.4661979675 36.6965484619
-5.4835805893 -38.4930839539 36.5026550293
-5.4905862808 -38.5199966431 36.3087882996
-5.4971427917 -38.5443572998 36.1144218445
-5.5031943321 -38.5658569336 35.9194831848
-5.5088996887 -38.5853881836 35.7241554260
-5.5142073631 -38.6026649475 35.5283737183
-5.5186409950 -38.6149711609 35.3315734863
-5.5216298103 -38.6190757751 35.1330680847
-5.5231800079 -38.6150054932 34.9328498840
-5.5242347717 -38.6081199646 34.7320251465
-5.5263447762 -38.6072273254 34.5324363708
-5.5309767723 -38.6206626892 34.3358459473
-5.5390124321 -38.6534347534 34.1433448792
-5.5504975319 -38.7058105469 33.9550209045
-5.5644850731 -38.7724075317 33.7697753906
-5.5791425705 -38.8428192139 33.5854110718
-5.5924000740 -38.9052772522 33.3994255066
-5.6028504372 -38.9517860413 33.2100906372
-5.6102046967 -38.9807052612 33.0170211792
-5.6150135994 -38.9951591492 32.8208580017
-5.6180481911 -38.9995269775 32.6225166321
-5.6199030876 -38.9971923828 32.4227142334
-5.6210589409 -38.9908828735 32.2220306396
-5.6222333908 -38.9846763611 32.0213508606
-5.6245522499 -38.9849739075 31.8220710754
-5.6291570663 -38.9982681274 31.6256294250
-5.6364998817 -39.0271224976 31.4326190948
-5.6459732056 -39.0680961609 31.2423076630
-5.6561126709 -39.1128616333 31.0528755188
-5.6650524139 -39.1508026123 30.8619728088
-5.6710629463 -39.1720924377 30.6673965454
-5.6732473373 -39.1716270447 30.4679775238
-5.6721158028 -39.1523056030 30.2643184662
-5.6694002151 -39.1239738464 30.0585975647
-5.6670937538 -39.0979652405 29.8533515930
-5.6665778160 -39.0821380615 29.6503582001
-5.6685242653 -39.0803146362 29.4505043030
-5.6732420921 -39.0942497253 29.2542152405
-5.6807336807 -39.1239624023 29.0615272522
-5.6904172897 -39.1661415100 28.8717117310
-5.7011275291 -39.2141647339 28.6832771301
-5.7116899490 -39.2613525391 28.4946994781
-5.7215809822 -39.3047256470 28.3052902222
-5.7311053276 -39.3460121155 28.1154422760
-5.7410655022 -39.3897819519 27.9262084961
-5.7521653175 -39.4400367737 27.7385253906
-5.7643857002 -39.4966735840 27.5523815155
-5.7767534256 -39.5541534424 27.3664932251
-5.7878513336 -39.6044044495 27.1789741516
-5.7967033386 -39.6418838501 26.9885044098
-5.8032011986 -39.6659698486 26.7949142456
-5.8078088760 -39.6792984009 26.5988025665
-5.8110623360 -39.6849212646 26.4008655548
-5.8133792877 -39.6852149963 26.2016601563
-5.8152656555 -39.6830520630 26.0018558502
-5.8176207542 -39.6835632324 25.8026733398
-5.8216295242 -39.6934814453 25.6057319641
-5.8279895782 -39.7167854309 25.4120025635
-5.8361768723 -39.7504920959 25.2207965851
-5.8447756767 -39.7865409851 25.0301856995
-5.8526897430 -39.8186950684 24.8386669159
-5.8599395752 -39.8470726013 24.6462574005
-5.8673181534 -39.8761825562 24.4540519714
-5.8754677773 -39.9096832275 24.2629413605
-5.8843145370 -39.9471549988 24.0728321075
-5.8932390213 -39.9850730896 23.8828659058
-5.9016532898 -40.0200881958 23.6922245026
-5.9094419479 -40.0515403748 23.5007343292
-5.9170017242 -40.0816955566 23.3089523315
-5.9249706268 -40.1141777039 23.1177730560
-5.9338364601 -40.1517715454 22.9278926849
-5.9436960220 -40.1950263977 22.7394580841
-5.9543018341 -40.2425346375 22.5521278381
-5.9652719498 -40.2921257019 22.3653678894
-5.9762153625 -40.3415641785 22.1786212921
-5.9867281914 -40.3885536194 21.9913101196
-5.9963097572 -40.4302406311 21.8027057648
-6.0042605400 -40.4626426697 21.6117916107
-6.0097460747 -40.4809951782 21.4173450470
-6.0121197701 -40.4816246033 21.2183990479
-6.0114088058 -40.4646759033 21.0149574280
-6.0087666512 -40.4367179871 20.8086662292
-6.0064911842 -40.4108467102 20.6028614044
-6.0070943832 -40.4013786316 20.4012241364
-6.0117669106 -40.4150962830 20.2055339813
-6.0196251869 -40.4469757080 20.0145378113
-6.0285882950 -40.4851455688 19.8252010345
-6.0369577408 -40.5199394226 19.6350212097
-6.0442004204 -40.5483131409 19.4432029724
-6.0505971909 -40.5718650818 19.2501525879
-6.0565686226 -40.5929946899 19.0564842224
-6.0623216629 -40.6128807068 18.8625049591
-6.0678105354 -40.6312599182 18.6681423187
-6.0728063583 -40.6468276978 18.4730491638
-6.0770387650 -40.6580467224 18.2768135071
-6.0804362297 -40.6645050049 18.0793190002
-6.0833520889 -40.6682167053 17.8810920715
-6.0866475105 -40.6740913391 17.6834316254
-6.0915117264 -40.6889114380 17.4881515503
-6.0989375114 -40.7183380127 17.2967815399
-6.1090183258 -40.7629089355 17.1094932556
-6.1206789017 -40.8164901733 16.9246711731
-6.1322913170 -40.8698005676 16.7398319244
-6.1426906586 -40.9161987305 16.5531826019
-6.1516466141 -40.9543647766 16.3643531799
-6.1595916748 -40.9867668152 16.1739959717
-6.1671528816 -41.0169830322 15.9830751419
-6.1748847961 -41.0481719971 15.7924442291
-6.1832461357 -41.0829544067 15.6028223038
-6.1926946640 -41.1239433289 15.4149312973
-6.2036724091 -41.1736564636 15.2294750214
-6.2164096832 -41.2334098816 15.0468311310
-6.2307238579 -41.3021659851 14.8667345047
-6.2459306717 -41.3760223389 14.6881227493
-6.2609243393 -41.4486656189 14.5092582703
-6.2746143341 -41.5138778687 14.3284111023
-6.2865147591 -41.5688781738 14.1447935104
-6.2968697548 -41.6150665283 13.9587755203
-6.3062090874 -41.6554603577 13.7711830139
-6.3149552345 -41.6924705505 13.5826816559
-6.3234391212 -41.7279853821 13.3937959671
-6.3319444656 -41.7636299133 13.2049779892
-6.3404641151 -41.7993545532 13.0162162781
-6.3484435081 -41.8319969177 12.8266162872
-6.3549427986 -41.8561935425 12.6346502304
-6.3591957092 -41.8675689697 12.4390592575
-6.3611268997 -41.8656883240 12.2396936417
-6.3614540100 -41.8546485901 12.0376987457
-6.3613357544 -41.8410644531 11.8349475861
-6.3618807793 -41.8312683105 11.6332511902
-6.3638887405 -41.8298187256 11.4339284897
-6.3677988052 -41.8392333984 11.2377195358
-6.3736085892 -41.8594932556 11.0446424484
-6.3808097839 -41.8876991272 10.8538770676
-6.3886451721 -41.9195327759 10.6641864777
-6.3966345787 -41.9522399902 10.4747791290
-6.4048867226 -41.9864578247 10.2858400345
-6.4138984680 -42.0250129700 10.0981979370
-6.4239883423 -42.0697250366 9.9123964310
-6.4348464012 -42.1188316345 9.7279272079
-6.4456210136 -42.1674652100 9.5433692932
-6.4555277824 -42.2111434937 9.3574018478
-6.4644060135 -42.2489471436 9.1697444916
-6.4727530479 -42.2837219238 8.9812259674
-6.4813699722 -42.3200378418 8.7931966782
-6.4909558296 -42.3618927002 8.6068477631
-6.5017552376 -42.4106864929 8.4226055145
-6.5133366585 -42.4639472961 8.2397480011
-6.5247941017 -42.5165061951 8.0567350388
-6.5353808403 -42.5640907288 7.8722872734
-6.5449938774 -42.6061172485 7.6862177849
-6.5539927483 -42.6446342468 7.4991335869
-6.5625414848 -42.6805839539 7.3113112450
-6.5701761246 -42.7113075256 7.1219425201
-6.5760183334 -42.7317924500 6.9294972420
-6.5794296265 -42.7383804321 6.7328457832
-6.5805277824 -42.7317504883 6.5321664810
-6.5801973343 -42.7169456482 6.3289737701
-6.5796365738 -42.7008285522 6.1253461838
-6.5798573494 -42.6891746521 5.9230518341
-6.5815339088 -42.6858406067 5.7232828140
-6.5852155685 -42.6939697266 5.5270218849
-6.5914793015 -42.7168617249 5.3353080750
-6.6007080078 -42.7567062378 5.1488480568
-6.6126885414 -42.8122901917 4.9672970772
-6.6265053749 -42.8783760071 4.7890639305
-6.6408767700 -42.9476394653 4.6118907928
-6.6546192169 -43.0133132935 4.4336752892
-6.6669545174 -43.0709419250 4.2530221939
-6.6776089668 -43.1189613342 4.0694255829
-6.6867461205 -43.1583099365 3.8831593990
-6.6947832108 -43.1913642883 3.6949546337
-6.7021470070 -43.2205734253 3.5055694580
-6.7090430260 -43.2471046448 3.3153648376
-6.7153630257 -43.2703399658 3.1241405010
-6.7208800316 -43.2889862061 2.9314794540
-6.7255816460 -43.3029708862 2.7373490334
-6.7297883034 -43.3141212463 2.5423231125
-6.7339391708 -43.3249511719 2.3471972942
-6.7382864952 -43.3369064331 2.1524307728
-6.7427554131 -43.3495597839 1.9578896761
-6.7470350266 -43.3611259460 1.7630035877
-6.7508206367 -43.3698692322 1.5672121048
-6.7541108131 -43.3757781982 1.3705064058
-6.7574172020 -43.3817749023 1.1738241911
-6.7617402077 -43.3935890198 0.9790168405
-6.7682118416 -43.4177055359 0.7881947756
-6.7774748802 -43.4577980042 0.6025756001
-6.7891778946 -43.5118598938 0.4215377271
-6.8021035194 -43.5729217529 0.2428376377
-6.8149943352 -43.6337890625 0.0641405880
-15.9688329697 -33.8244476318 80.5469818115
-15.9730291367 -33.8276214600 80.3499221802
-15.9815530777 -33.8389053345 80.1534194946
-15.9952735901 -33.8599357605 79.9576034546
-16.0125694275 -33.8876686096 79.7622833252
-16.0302352905 -33.9160919189 79.5670318604
-16.0452308655 -33.9395103455 79.3714523315
-16.0558528900 -33.9547348022 79.1753005981
-16.0621643066 -33.9618759155 78.9785537720
-16.0656394958 -33.9636955261 78.7814178467
-16.0682163239 -33.9638328552 78.5841445923
-16.0714225769 -33.9651489258 78.3869476318
-16.0760307312 -33.9690971375 78.1899414063
-16.0820713043 -33.9757308960 77.9931335449
-16.0889129639 -33.9838638306 77.7964401245
-16.0954303741 -33.9913902283 77.5997009277
-16.1003417969 -33.9959030151 77.4027252197
-16.1025924683 -33.9954261780 77.2053375244
-16.1016159058 -33.9888992310 77.0074539185
-16.0974617004 -33.9764099121 76.8090667725
-16.0909481049 -33.9594993591 76.6102828979
-16.0838394165 -33.9414710999 76.4113693237
-16.0785732269 -33.9268951416 76.2127075195
-16.0773105621 -33.9198265076 76.0146408081
-16.0809955597 -33.9220390320 75.8173446655
-16.0893211365 -33.9329528809 75.6207885742
-16.1013889313 -33.9508819580 75.4248352051
-16.1161975861 -33.9739570618 75.2293472290
-16.1325740814 -33.9999732971 75.0341339111
-16.1487312317 -34.0255737305 74.8389129639
-16.1620693207 -34.0458908081 74.6432418823
-16.1700401306 -34.0561408997 74.4466857910
-16.1717910767 -34.0547256470 74.2490692139
-16.1690292358 -34.0448455811 74.0506744385
-16.1648979187 -34.0323905945 73.8520126343
-16.1618385315 -34.0219497681 73.6535110474
-16.1604290009 -34.0146064758 73.4552688599
-16.1598892212 -34.0088882446 73.2571563721
-16.1592941284 -34.0030708313 73.0590133667
-16.1583290100 -33.9965553284 72.8607864380
-16.1573410034 -33.9899978638 72.6625289917
-16.1570549011 -33.9847564697 72.4643859863
-16.1582584381 -33.9823074341 72.2664871216
-16.1614551544 -33.9836006165 72.0689468384
-16.1666641235 -33.9886665344 71.8717727661
-16.1734695435 -33.9967269897 71.6748886108
-16.1813850403 -34.0068702698 71.4782104492
-16.1902828217 -34.0188560486 71.2817306519
-16.2005729675 -34.0334587097 71.0855102539
-16.2128200531 -34.0517272949 70.8896865845
-16.2268772125 -34.0733909607 70.6942214966
-16.2413196564 -34.0957832336 70.4988479614
-16.2540168762 -34.1148986816 70.3031539917
-16.2633934021 -34.1277885437 70.1068191528
-16.2691802979 -34.1339378357 69.9097747803
-16.2721309662 -34.1347656250 69.7121582031
-16.2733516693 -34.1323471069 69.5141830444
-16.2738189697 -34.1285171509 69.3160400391
-16.2741661072 -34.1244583130 69.1178512573
-16.2745780945 -34.1205215454 68.9196548462
-16.2747612000 -34.1161575317 68.7213973999
-16.2740440369 -34.1100997925 68.5229339600
-16.2715759277 -34.1007614136 68.3240814209
-16.2666625977 -34.0868263245 68.1246871948
-16.2593364716 -34.0683708191 67.9247512817
-16.2511920929 -34.0483703613 67.7246017456
-16.2456932068 -34.0333404541 67.5249786377
-16.2471008301 -34.0312690735 67.3268127441
-16.2583198547 -34.0476074219 67.1307754517
-16.2793979645 -34.0824508667 66.9369125366
-16.3077526093 -34.1309585571 66.7446899414
-16.3394393921 -34.1857185364 66.5532684326
-16.3702754974 -34.2388801575 66.3617172241
-16.3965549469 -34.2834930420 66.1692123413
-16.4157352448 -34.3147811890 65.9751510620
-16.4270343781 -34.3312797546 65.7793273926
-16.4314441681 -34.3348426819 65.5819473267
-16.4309940338 -34.3292846680 65.3834381104
-16.4277019501 -34.3183937073 65.1842498779
-16.4227657318 -34.3044166565 64.9846572876
-16.4162006378 -34.2873764038 64.7846450806
-16.4070377350 -34.2654609680 64.5839843750
-16.3939552307 -34.2361869812 64.3823547363
-16.3761253357 -34.1979980469 64.1795425415
-16.3539962769 -34.1517410278 63.9756355286
-16.3301010132 -34.1021614075 63.7712249756
-16.3093528748 -34.0584907532 63.5674934387
-16.2976818085 -34.0318603516 63.3658943176
-16.2991352081 -34.0298652649 63.1674575806
-16.3136005402 -34.0523033142 62.9722099304
-16.3369998932 -34.0915107727 62.7791900635
-16.3635082245 -34.1365623474 62.5869903564
-16.3882236481 -34.1782455444 62.3943901062
-16.4089050293 -34.2123565674 62.2008247375
-16.4262733459 -34.2402458191 62.0064620972
-16.4427947998 -34.2665481567 61.8119087219
-16.4605579376 -34.2951774597 61.6176986694
-16.4794635773 -34.3259582520 61.4238090515
-16.4971790314 -34.3544998169 61.2296447754
-16.5109939575 -34.3757247925 61.0344963074
-16.5197925568 -34.3875236511 60.8380584717
-16.5243663788 -34.3913955688 60.6405181885
-16.5262355804 -34.3901863098 60.4422607422
-16.5263385773 -34.3856544495 60.2435188293
-16.5243301392 -34.3771667480 60.0441970825
-16.5186042786 -34.3616867065 59.8438568115
-16.5071620941 -34.3354759216 59.6419448853
-16.4893894196 -34.2973785400 59.4382743835
-16.4674701691 -34.2514877319 59.2334060669
-16.4459362030 -34.2063179016 59.0285720825
-16.4295616150 -34.1708412170 58.8250694275
-16.4213027954 -34.1506004333 58.6237449646
-16.4215259552 -34.1462898254 58.4247283936
-16.4286060333 -34.1548576355 58.2276000977
-16.4402294159 -34.1719627380 58.0317420959
-16.4543533325 -34.1937637329 57.8366012573
-16.4692344666 -34.2169837952 57.6416893005
-16.4833068848 -34.2386856079 57.4465713501
-16.4955844879 -34.2570228577 57.2509613037
-16.5061569214 -34.2721519470 57.0548782349
-16.5161113739 -34.2861213684 56.8586235046
-16.5270271301 -34.3018951416 56.6626548767
-16.5402526855 -34.3220138550 56.4673690796
-16.5559921265 -34.3468513489 56.2728347778
-16.5726680756 -34.3734474182 56.0785942078
-16.5873775482 -34.3963508606 55.8838043213
-16.5975112915 -34.4106597900 55.6876792908
-16.6023693085 -34.4150581360 55.4899978638
-16.6033859253 -34.4122390747 55.2911605835
-16.6028842926 -34.4065628052 55.0918540955
-16.6025924683 -34.4012870789 54.8925895691
-16.6031780243 -34.3976554871 54.6935729980
-16.6045913696 -34.3955802917 54.4947891235
-16.6064929962 -34.3944206238 54.2961387634
-16.6083259583 -34.3931312561 54.0974540710
-16.6093120575 -34.3902511597 53.8984909058
-16.6087512970 -34.3844642639 53.6990356445
-16.6066741943 -34.3758277893 53.4990921021
-16.6042079926 -34.3664627075 53.2989997864
-16.6029720306 -34.3594055176 53.0992660522
-16.6039562225 -34.3565177917 52.9002113342
-16.6071052551 -34.3576965332 52.7018241882
-16.6119346619 -34.3620376587 52.5039558411
-16.6183452606 -34.3693504333 52.3065910339
-16.6266517639 -34.3802223206 52.1098251343
-16.6368618011 -34.3946762085 51.9136810303
-16.6480979919 -34.4110527039 51.7178726196
-16.6589832306 -34.4267730713 51.5219612122
-16.6687126160 -34.4403190613 51.3256835938
-16.6777553558 -34.4525794983 51.1291923523
-16.6876258850 -34.4663925171 50.9329757690
-16.6999626160 -34.4848403931 50.7375793457
-16.7155170441 -34.5093345642 50.5432586670
-16.7335777283 -34.5385437012 50.3497962952
-16.7522678375 -34.5689353943 50.1565742493
-16.7693614960 -34.5963287354 49.9628486633
-16.7829914093 -34.6172103882 49.7679862976
-16.7921180725 -34.6296272278 49.5716171265
-16.7968502045 -34.6337852478 49.3737716675
-16.7985000610 -34.6321487427 49.1748657227
-16.7991046906 -34.6285476685 48.9755897522
-16.8005390167 -34.6265068054 48.7765846252
-16.8039093018 -34.6281013489 48.5782279968
-16.8095073700 -34.6338882446 48.3806304932
-16.8169288635 -34.6431007385 48.1836624146
-16.8248786926 -34.6533050537 47.9868774414
-16.8313541412 -34.6607360840 47.7895812988
-16.8349266052 -34.6627120972 47.5912666321
-16.8362827301 -34.6605224609 47.3921585083
-16.8382186890 -34.6594200134 47.1932411194
-16.8437595367 -34.6650962830 46.9955902100
-16.8537807465 -34.6791954041 46.7995338440
-16.8660507202 -34.6975250244 46.6042861938
-16.8771972656 -34.7137413025 46.4086532593
-16.8864479065 -34.7263908386 46.2123451233
-16.8968429565 -34.7411918640 46.0164566040
-16.9118843079 -34.7647323608 45.8222656250
-16.9315547943 -34.7969779968 45.6297836304
-16.9521446228 -34.8309516907 45.4376716614
-16.9692611694 -34.8583946228 45.2443237305
-16.9805488586 -34.8748779297 45.0488510132
-16.9860897064 -34.8805541992 44.8512649536
-16.9871196747 -34.8777503967 44.6520004272
-16.9851779938 -34.8693580627 44.4516143799
-16.9825515747 -34.8596763611 44.2509460449
-16.9825153351 -34.8548622131 44.0512237549
-16.9882602692 -34.8609237671 43.8536605835
-17.0015487671 -34.8811683655 43.6589431763
-17.0219364166 -34.9147682190 43.4669380188
-17.0466518402 -34.9565048218 43.2766151428
-17.0714092255 -34.9983253479 43.0863571167
-17.0923805237 -35.0330200195 42.8946952820
-17.1079025269 -35.0574684143 42.7009773254
-17.1184463501 -35.0725593567 42.5053558350
-17.1252555847 -35.0806236267 42.3083000183
-17.1291503906 -35.0832061768 42.1101074219
-17.1302661896 -35.0805625916 41.9108238220
-17.1285877228 -35.0726585388 41.7104263306
-17.1248264313 -35.0608406067 41.5091896057
-17.1209964752 -35.0488929749 41.3078994751
-17.1201038361 -35.0424652100 41.1077384949
-17.1250648499 -35.0470542908 40.9098815918
-17.1375312805 -35.0657539368 40.7150039673
-17.1569347382 -35.0975074768 40.5229187012
-17.1803302765 -35.1367759705 40.3324661255
-17.2036857605 -35.1759643555 40.1420440674
-17.2239532471 -35.2093429565 39.9504165649
-17.2401790619 -35.2351226807 39.7571868896
-17.2529983521 -35.2544937134 39.5625991821
-17.2636146545 -35.2697219849 39.3671302795
-17.2733116150 -35.2832221985 39.1712913513
-17.2834491730 -35.2975463867 38.9756431580
-17.2955303192 -35.3155288696 38.7808036804
-17.3110256195 -35.3399391174 38.5873870850
-17.3309154510 -35.3726158142 38.3958168030
-17.3550586700 -35.4132957458 38.2060508728
-17.3817958832 -35.4588546753 38.0174140930
-17.4082450867 -35.5038757324 37.8287086487
-17.4314002991 -35.5427017212 37.6386718750
-17.4492397308 -35.5715217590 37.4464416504
-17.4608173370 -35.5885658264 37.2515945435
-17.4658145905 -35.5932235718 37.0539665222
-17.4647808075 -35.5865325928 36.8537635803
-17.4597225189 -35.5722732544 36.6518287659
-17.4536418915 -35.5560798645 36.4494171143
-17.4491577148 -35.5428962708 36.2476577759
-17.4477729797 -35.5355453491 36.0472030640
-17.4500999451 -35.5351791382 35.8483314514
-17.4560947418 -35.5417098999 35.6510353088
-17.4646205902 -35.5530090332 35.4548377991
-17.4730796814 -35.5641784668 35.2586135864
-17.4781417847 -35.5689582825 35.0609092712
-17.4775295258 -35.5630569458 34.8607063293
-17.4712352753 -35.5464630127 34.6579780579
-17.4611377716 -35.5227088928 34.4535369873
-17.4496974945 -35.4964256287 34.2484550476
-17.4390640259 -35.4716606140 34.0436782837
-17.4308071136 -35.4513664246 33.8399162292
-17.4259090424 -35.4373931885 33.6376152039
-17.4250164032 -35.4309577942 33.4370765686
-17.4288902283 -35.4334983826 33.2386589050
-17.4383773804 -35.4466018677 33.0427665710
-17.4535522461 -35.4704132080 32.8494567871
-17.4728851318 -35.5020484924 32.6580543518
-17.4935989380 -35.5362892151 32.4673194885
-17.5131511688 -35.5683403015 32.2760848999
-17.5306148529 -35.5964622498 32.0839309692
-17.5470638275 -35.6226730347 31.8913402557
-17.5648155212 -35.6513404846 31.6993732452
-17.5858192444 -35.6861267090 31.5089397430
-17.6101093292 -35.7271041870 31.3200664520
-17.6357307434 -35.7705841064 31.1318588257
-17.6603374481 -35.8121604919 30.9432296753
-17.6827869415 -35.8496742249 30.7536392212
-17.7030868530 -35.8831443787 30.5630817413
-17.7213783264 -35.9128303528 30.3716182709
-17.7376461029 -35.9387092590 30.1792278290
-17.7524108887 -35.9617576599 29.9861545563
-17.7671642303 -35.9847831726 29.7930946350
-17.7836818695 -36.0111312866 29.6008968353
-17.8027667999 -36.0423164368 29.4099483490
-17.8235397339 -36.0766792297 29.2198410034
-17.8437652588 -36.1100158691 29.0295085907
-17.8606624603 -36.1370811462 28.8376102448
-17.8717098236 -36.1531333923 28.6429157257
-17.8756561279 -36.1558151245 28.4447975159
-17.8734092712 -36.1468315125 28.2436637878
-17.8676757813 -36.1312828064 28.0408077240
-17.8614101410 -36.1147308350 27.8376579285
-17.8565998077 -36.1009216309 27.6351833344
-17.8542709351 -36.0917778015 27.4338951111
-17.8550319672 -36.0884590149 27.2341003418
-17.8593463898 -36.0918273926 27.0360431671
-17.8674907684 -36.1024131775 26.8398742676
-17.8795471191 -36.1203651428 26.6456489563
-17.8954982758 -36.1456527710 26.4533767700
-17.9152278900 -36.1780586243 26.2630119324
-17.9382686615 -36.2167015076 26.0743389130
-17.9637107849 -36.2598686218 25.8869152069
-17.9907360077 -36.3060150146 25.7003364563
-18.0190086365 -36.3545188904 25.5144424438
-18.0479507446 -36.4042778015 25.3289451599
-18.0756473541 -36.4516983032 25.1428756714
-18.0992374420 -36.4913787842 24.9547748566
-18.1166133881 -36.5193634033 24.7635498047
-18.1274223328 -36.5349731445 24.5689983368
-18.1325073242 -36.5397987366 24.3715209961
-18.1330184937 -36.5360107422 24.1716899872
-18.1303958893 -36.5263137817 23.9702243805
-18.1269130707 -36.5149993896 23.7682876587
-18.1255817413 -36.5077362061 23.5674381256
-18.1286830902 -36.5088272095 23.3688678741
-18.1362056732 -36.5182456970 23.1725883484
-18.1460247040 -36.5319862366 22.9775104523
-18.1557445526 -36.5455436707 22.7823886871
-18.1641750336 -36.5566749573 22.5865974426
-18.1713542938 -36.5654449463 22.3901500702
-18.1778869629 -36.5729942322 22.1933612823
-18.1846446991 -36.5809745789 21.9966926575
-18.1928424835 -36.5916633606 21.8007869720
-18.2038154602 -36.6075820923 21.6063594818
-18.2182064056 -36.6299438477 21.4137630463
-18.2352333069 -36.6572685242 21.2225971222
-18.2529888153 -36.6859703064 21.0318489075
-18.2695770264 -36.7124748230 20.8405036926
-18.2838954926 -36.7346992493 20.6479606628
-18.2955055237 -36.7518234253 20.4539775848
-18.3042526245 -36.7635498047 20.2584552765
-18.3101615906 -36.7699317932 20.0613994598
-18.3135662079 -36.7715873718 19.8629760742
-18.3152141571 -36.7699394226 19.6635856628
-18.3163223267 -36.7672691345 19.4638862610
-18.3185806274 -36.7667694092 19.2648010254
-18.3241024017 -36.7724151611 19.0674953461
-18.3351154327 -36.7884101868 18.8732089996
-18.3534317017 -36.8181724548 18.6829681396
-18.3800029755 -36.8634986877 18.4973297119
-18.4144897461 -36.9237365723 18.3161354065
-18.4542922974 -36.9940032959 18.1379737854
-18.4936561584 -37.0634422302 17.9596576691
-18.5249023438 -37.1175842285 17.7768936157
-18.5423545837 -37.1457214355 17.5864620209
-18.5460033417 -37.1478462219 17.3883075714
-18.5416221619 -37.1348304749 17.1856193542
-18.5372447968 -37.1218261719 16.9829025269
-18.5391120911 -37.1205863953 16.7836875916
-18.5496730804 -37.1357421875 16.5893917084
-18.5677604675 -37.1650772095 16.3993835449
-18.5897998810 -37.2018699646 16.2116603851
-18.6118125916 -37.2386093140 16.0239620209
-18.6315670013 -37.2710990906 15.8350133896
-18.6495647430 -37.3002700806 15.6450901031
-18.6682529449 -37.3307456970 15.4555940628
-18.6902885437 -37.3675346375 15.2680606842
-18.7167778015 -37.4127197266 15.0831451416
-18.7462577820 -37.4635467529 14.9000158310
-18.7752227783 -37.5134010315 14.7166481018
-18.8000545502 -37.5554656982 14.5309343338
-18.8189182281 -37.5862808228 14.3417863846
-18.8322391510 -37.6066436768 14.1494274139
-18.8419246674 -37.6201515198 13.9549531937
-18.8503818512 -37.6313476563 13.7597637177
-18.8600978851 -37.6449089050 13.5653200150
-18.8735542297 -37.6655311584 13.3730945587
-18.8926982880 -37.6968765259 13.1842527390
-18.9176807404 -37.7392311096 12.9989080429
-18.9462013245 -37.7882575989 12.8157167435
