-1.6837366819 50.7909584045 56.5322265625
-1.6870125532 50.8426399231 56.3465042114
-1.6895223856 50.8762741089 56.1586189270
-1.6910582781 50.8869667053 55.9679298401
-1.6914434433 50.8705329895 55.7738838196
-1.6905906200 50.8249206543 55.5761680603
-1.6885906458 50.7522583008 55.3750038147
-1.6857721806 50.6602859497 55.1713104248
-1.6826100349 50.5601959229 54.9664726257
-1.6794908047 50.4611015320 54.7616310120
-1.6765475273 50.3661384583 54.5571899414
-1.6737346649 50.2742347717 54.3530158997
-1.6710833311 50.1861228943 54.1492118835
-1.6689140797 50.1093673706 53.9467620850
-1.6677758694 50.0569190979 53.7473716736
-1.6680710316 50.0382690430 53.5523262024
-1.6697021723 50.0511360168 53.3613853455
-1.6721518040 50.0833129883 53.1729965210
-1.6749227047 50.1230697632 52.9856414795
-1.6778513193 50.1665573120 52.7988204956
-1.6810319424 50.2159957886 52.6128387451
-1.6845633984 50.2737236023 52.4280204773
-1.6884299517 50.3393630981 52.2443313599
-1.6925569773 50.4111671448 52.0615425110
-1.6968525648 50.4869537354 51.8793754578
-1.7011227608 50.5621566772 51.6972122192
-1.7049973011 50.6280288696 51.5138473511
-1.7080237865 50.6738815308 51.3277931213
-1.7098670006 50.6918029785 51.1379165649
-1.7104269266 50.6794242859 50.9438362122
-1.7098110914 50.6392669678 50.7458572388
-1.7082358599 50.5764465332 50.5446357727
-1.7059290409 50.4963302612 50.3408966064
-1.7030599117 50.4029197693 50.1351699829
-1.6997259855 50.2985076904 49.9277572632
-1.6960284710 50.1854934692 49.7189826965
-1.6922376156 50.0702514648 49.5097465515
-1.6889338493 49.9665031433 49.3020133972
-1.6868990660 49.8927192688 49.0984764099
-1.6866705418 49.8616180420 48.9010314941
-1.6881232262 49.8702468872 48.7093315125
-1.6905863285 49.9027557373 48.5211257935
-1.6934157610 49.9439315796 48.3342247009
-1.6964141130 49.9891090393 48.1479530334
-1.6997542381 50.0423698425 47.9629249573
-1.7036250830 50.1081886292 47.7798194885
-1.7079579830 50.1849403381 47.5984153748
-1.7124233246 50.2648391724 47.4175643921
-1.7166517973 50.3391494751 47.2359619141
-1.7204439640 50.4031448364 47.0528793335
-1.7237540483 50.4557495117 46.8681373596
-1.7265068293 50.4951744080 46.6814422607
-1.7284882069 50.5163536072 46.4919929504
-1.7294360399 50.5130844116 46.2988090515
-1.7292227745 50.4823341370 46.1013755798
-1.7279335260 50.4261169434 45.8999557495
-1.7257697582 50.3491935730 45.6952400208
-1.7229046822 50.2556571960 45.4878349304
-1.7194635868 50.1484680176 45.2781677246
-1.7156480551 50.0323982239 45.0669708252
-1.7118501663 49.9167251587 44.8556823730
-1.7086030245 49.8140716553 44.6463088989
-1.7063862085 49.7357940674 44.4406776428
-1.7054592371 49.6880531311 44.2398147583
-1.7058486938 49.6714744568 44.0438766479
-1.7074481249 49.6835479736 43.8525161743
-1.7100895643 49.7203025818 43.6651420593
-1.7135143280 49.7756195068 43.4808082581
-1.7173222303 49.8400192261 43.2980117798
-1.7210320234 49.9021034241 43.1149024963
-1.7242604494 49.9527893066 42.9299926758
-1.7268795967 49.9890480042 42.7427635193
-1.7290217876 50.0140113831 42.5537071228
-1.7309464216 50.0338134766 42.3638153076
-1.7328741550 50.0536994934 42.1739540100
-1.7348667383 50.0751190186 41.9843597412
-1.7367684841 50.0943908691 41.7944259644
-1.7382149696 50.1028709412 41.6026916504
-1.7387322187 50.0893173218 41.4072456360
-1.7379341125 50.0445747375 41.2064933777
-1.7357228994 49.9663162231 40.9999885559
-1.7323276997 49.8599662781 40.7885932922
-1.7281517982 49.7350845337 40.5738868713
-1.7235972881 49.6011962891 40.3574790955
-1.7190119028 49.4665565491 40.1407699585
-1.7147384882 49.3392944336 39.9251670837
-1.7112275362 49.2300987244 39.7125320435
-1.7091540098 49.1549873352 39.5056877136
-1.7093093395 49.1327476501 39.3079757690
-1.7120904922 49.1728134155 39.1211471558
-1.7169978619 49.2633476257 38.9432296753
-1.7228219509 49.3756446838 38.7692565918
-1.7284491062 49.4832878113 38.5945816040
-1.7334376574 49.5757904053 38.4173393250
-1.7379024029 49.6558685303 38.2379837036
-1.7420809269 49.7291641235 38.0575065613
-1.7460751534 49.7980957031 37.8763198853
-1.7498226166 49.8611755371 37.6941566467
-1.7531300783 49.9138183594 37.5101737976
-1.7557120323 49.9492378235 37.3231239319
-1.7572658062 49.9602394104 37.1316642761
-1.7575590611 49.9413032532 36.9347496033
-1.7564805746 49.8897743225 36.7318305969
-1.7540657520 49.8064956665 36.5230102539
-1.7505236864 49.6964149475 36.3091430664
-1.7462128401 49.5680503845 36.0917510986
-1.7415511608 49.4313278198 35.8726425171
-1.7369456291 49.2959175110 35.6536026001
-1.7327716351 49.1707382202 35.4363021851
-1.7293465137 49.0633354187 35.2221717834
-1.7269109488 48.9794349670 35.0123214722
-1.7256586552 48.9236526489 34.8076553345
-1.7257311344 48.8993530273 34.6088714600
-1.7271004915 48.9058799744 34.4158973694
-1.7295026779 48.9369697571 34.2275924683
-1.7325826883 48.9841766357 34.0423965454
-1.7361006737 49.0418090820 33.8592453003
-1.7399611473 49.1075935364 33.6777229309
-1.7440524101 49.1788787842 33.4973258972
-1.7480993271 49.2491149902 33.3168067932
-1.7517259121 49.3093681335 33.1344261169
-1.7546969652 49.3540306091 32.9490776062
-1.7570585012 49.3841972351 32.7609405518
-1.7589967251 49.4042930603 32.5708618164
-1.7605763674 49.4158592224 32.3791198730
-1.7616497278 49.4153785706 32.1850128174
-1.7619887590 49.3974151611 31.9874420166
-1.7614539862 49.3586540222 31.7857151031
-1.7600424290 49.2990112305 31.5797824860
-1.7578325272 49.2203483582 31.3699779510
-1.7549591064 49.1258811951 31.1569042206
-1.7516816854 49.0217704773 30.9417743683
-1.7484238148 48.9181098938 30.7265987396
-1.7456433773 48.8258018494 30.5135803223
-1.7436183691 48.7514724731 30.3040809631
-1.7423585653 48.6953506470 30.0981788635
-1.7416985035 48.6535034180 29.8951053619
-1.7414498329 48.6214523315 29.6939735413
-1.7415062189 48.5966606140 29.4942798615
-1.7418773174 48.5793609619 29.2960872650
-1.7426530123 48.5717010498 29.0998497009
-1.7439365387 48.5761375427 28.9060935974
-1.7457932234 48.5942306519 28.7151641846
-1.7482032776 48.6255187988 28.5269908905
-1.7509828806 48.6656150818 28.3406810760
-1.7537356615 48.7050819397 28.1542797089
-1.7559574842 48.7318916321 27.9652633667
-1.7572569847 48.7367172241 27.7716464996
-1.7574968338 48.7162780762 27.5726966858
-1.7567449808 48.6721878052 27.3687114716
-1.7551406622 48.6077537537 27.1603488922
-1.7528311014 48.5264930725 26.9483184814
-1.7499905825 48.4325523376 26.7334766388
-1.7468335629 48.3310508728 26.5168933868
-1.7435799837 48.2272186279 26.2996788025
-1.7404148579 48.1254844666 26.0827808380
-1.7375168800 48.0301055908 25.8671207428
-1.7351505756 47.9473991394 25.6540775299
-1.7337049246 47.8866424561 25.4456863403
-1.7335543633 47.8567848206 25.2439346313
-1.7348189354 47.8606948853 25.0495052338
-1.7372752428 47.8930473328 24.8612937927
-1.7405402660 47.9447097778 24.6773452759
-1.7443253994 48.0087966919 24.4961853027
-1.7485028505 48.0822563171 24.3171615601
-1.7529839277 48.1629791260 24.1398239136
-1.7576105595 48.2471885681 23.9633464813
-1.7621798515 48.3300399780 23.7866611481
-1.7665461302 48.4080543518 23.6089878082
-1.7706667185 48.4802131653 23.4300899506
-1.7745264769 48.5461540222 23.2498760223
-1.7780224085 48.6034126282 23.0677814484
-1.7809289694 48.6465988159 22.8825740814
-1.7829719782 48.6691589355 22.6927471161
-1.7839404345 48.6660461426 22.4971199036
-1.7837576866 48.6354217529 22.2952270508
-1.7824807167 48.5786399841 22.0873279572
-1.7802333832 48.4986610413 21.8740501404
-1.7771284580 48.3981666565 21.6559677124
-1.7732595205 48.2793922424 21.4335556030
-1.7687877417 48.1461868286 21.2076663971
-1.7640275955 48.0060653687 20.9800109863
-1.7594285011 47.8697662354 20.7530593872
-1.7554727793 47.7488288879 20.5294990540
-1.7525631189 47.6528892517 20.3115997314
-1.7509270906 47.5873870850 20.1006774902
-1.7505719662 47.5525131226 19.8968296051
-1.7513297796 47.5442504883 19.6991710663
-1.7529469728 47.5565414429 19.5063247681
-1.7551349401 47.5824890137 19.3167057037
-1.7575885057 47.6147956848 19.1286106110
-1.7600369453 47.6469841003 18.9405174255
-1.7623233795 47.6752967834 18.7515316010
-1.7644271851 47.6992416382 18.5615329742
-1.7663897276 47.7198143005 18.3707466125
-1.7681930065 47.7365722656 18.1790637970
-1.7696918249 47.7460441589 17.9856433868
-1.7706573009 47.7427482605 17.7891540527
-1.7708922625 47.7219619751 17.5884323120
-1.7703139782 47.6817016602 17.3829669952
-1.7689446211 47.6224899292 17.1728477478
-1.7668489218 47.5458717346 16.9584197998
-1.7641333342 47.4543952942 16.7402687073
-1.7610324621 47.3536796570 16.5197391510
-1.7579534054 47.2534637451 16.2992019653
-1.7553534508 47.1647071838 16.0813465118
-1.7535514832 47.0950546265 15.8680734634
-1.7526718378 47.0474853516 15.6601543427
-1.7527313232 47.0224075317 15.4577283859
-1.7537088394 47.0193214417 15.2607154846
-1.7555146217 47.0360870361 15.0686206818
-1.7579417229 47.0677413940 14.8802452087
-1.7606893778 47.1070823669 14.6938190460
-1.7634465694 47.1466598511 14.5074892044
-1.7659658194 47.1805343628 14.3197689056
-1.7680844069 47.2048110962 14.1296653748
-1.7696905136 47.2168045044 13.9364843369
-1.7706792355 47.2139930725 13.7395668030
-1.7709543705 47.1940689087 13.5383024216
-1.7704834938 47.1562461853 13.3324584961
-1.7693521976 47.1025772095 13.1225252151
-1.7677583694 47.0378074646 12.9096851349
-1.7659363747 46.9675483704 12.6953535080
-1.7640773058 46.8963890076 12.4806957245
-1.7623392344 46.8281211853 12.2666854858
-1.7609486580 46.7681770325 12.0547256470
-1.7602436543 46.7246704102 11.8469295502
-1.7605379820 46.7051429749 11.6452751160
-1.7619143724 46.7115745544 11.4503231049
-1.7641708851 46.7391319275 11.2608623505
-1.7669644356 46.7795867920 11.0747861862
-1.7699906826 46.8256301880 10.8902101517
-1.7730555534 46.8726043701 10.7059249878
-1.7760293484 46.9174041748 10.5211162567
-1.7787603140 46.9563751221 10.3348188400
-1.7810512781 46.9847869873 10.1457757950
-1.7827463150 46.9988899231 9.9529762268
-1.7838553190 46.9989204407 9.7564563751
-1.7845928669 46.9900245667 9.5575590134
-1.7852817774 46.9799613953 9.3583288193
-1.7861922979 46.9752120972 9.1604957581
-1.7874416113 46.9786071777 8.9648227692
-1.7890353203 46.9902763367 8.7713623047
-1.7910189629 47.0113143921 8.5804224014
-1.7936042547 47.0468101501 8.3933906555
-1.7971420288 47.1052055359 8.2125682831
-1.8019468784 47.1940650940 8.0400428772
-1.8080960512 47.3152503967 7.8763761520
-1.8153445721 47.4628829956 7.7200293541
-1.8232253790 47.6257362366 7.5679960251
-1.8312556744 47.7922096252 7.4171390533
-1.8390789032 47.9537353516 7.2651209831
-1.8464756012 48.1050262451 7.1104865074
-1.8533321619 48.2433471680 6.9524655342
-1.8596261740 48.3681640625 6.7908864021
-1.8653928041 48.4803123474 6.6259555817
-1.8706617355 48.5805091858 6.4578480721
-1.8754103184 48.6682014465 6.2863879204
-1.8795338869 48.7408676147 6.1108541489
-1.8828374147 48.7938156128 5.9299120903
-1.8850905895 48.8214988708 5.7419786453
-1.8861609697 48.8207168579 5.5461158752
-1.8861365318 48.7935867310 5.3428616524
-1.8853094578 48.7471313477 5.1341414452
-1.8839991093 48.6890335083 4.9220800400
-1.8823531866 48.6228446960 4.7076578140
-1.8803336620 48.5476531982 4.4906010628
-1.8779176474 48.4629020691 4.2707376480
-1.8753033876 48.3733558655 4.0494012833
-1.8729230165 48.2894325256 3.8295445442
-1.8712991476 48.2237091064 3.6147630215
-1.8708798885 48.1869850159 3.4081735611
-1.8719239235 48.1855049133 3.2116148472
-1.8744322062 48.2192916870 3.0251591206
-1.8781282902 48.2817039490 2.8469612598
-1.8825300932 48.3611221313 2.6737287045
-1.8871332407 48.4454040527 2.5019867420
-1.8916305304 48.5271530151 2.3296043873
-1.8960001469 48.6058311462 2.1564235687
-1.9003714323 48.6845626831 1.9833450317
-1.9047814608 48.7642440796 1.8106275797
-1.9090392590 48.8402595520 1.6369305849
-1.9128041267 48.9044113159 1.4598480463
-1.9157763720 48.9494590759 1.2772399187
-1.9178177118 48.9720687866 1.0880918503
-1.9189337492 48.9723701477 0.8924008608
-1.9191946983 48.9520492554 0.6906242371
-1.9186856747 48.9131546021 0.4833285511
-1.9174950123 48.8578109741 0.2711080611
-1.9157174826 48.7882995605 0.0546097718
27.4188613892 2.1578383446 90.5522003174
27.4320163727 2.1583003998 90.3491821289
27.4544792175 2.1590681076 90.1464538574
27.4878005981 2.1601924896 89.9440612793
27.5319538116 2.1616728306 89.7420272827
27.5848197937 2.1634392738 89.5403137207
27.6435070038 2.1653969288 89.3388366699
27.7057361603 2.1674709320 89.1375350952
27.7692432404 2.1695868969 88.9363555908
27.8301105499 2.1716160774 88.7351455688
27.8830909729 2.1733863354 88.5337448120
27.9245967865 2.1747796535 88.3319931030
27.9549732208 2.1758072376 88.1298980713
27.9769268036 2.1765580177 87.9275283813
27.9917888641 2.1770761013 87.7249145508
27.9982795715 2.1773190498 87.5220031738
27.9947147369 2.1772317886 87.3187103271
27.9813709259 2.1768231392 87.1150360107
27.9608173370 2.1761777401 86.9110412598
27.9369926453 2.1754250526 86.7068939209
27.9143218994 2.1747100353 86.5027465820
27.8973789215 2.1741833687 86.2987976074
27.8914318085 2.1740176678 86.0952835083
27.9028282166 2.1744217873 85.8924713135
27.9375534058 2.1755924225 85.6906738281
27.9983425140 2.1776189804 85.4900360107
28.0828552246 2.1804249287 85.2905044556
28.1843433380 2.1837882996 85.0918350220
28.2941989899 2.1874265671 84.8936614990
28.4048423767 2.1910908222 84.6956481934
28.5117626190 2.1946327686 84.4975891113
28.6142234802 2.1980280876 84.2994461060
28.7146263123 2.2013556957 84.1013259888
28.8170738220 2.2047507763 83.9034194946
28.9252109528 2.2083325386 83.7059173584
29.0394248962 2.2121138573 83.5088348389
29.1543884277 2.2159197330 83.3119277954
29.2591323853 2.2193899155 83.1146316528
29.3410263062 2.2221097946 82.9162826538
29.3918781281 2.2238097191 82.7164077759
29.4118576050 2.2244956493 82.5149612427
29.4083404541 2.2244098186 82.3122787476
29.3906059265 2.2238569260 82.1088104248
29.3646602631 2.2230343819 81.9048690796
29.3322353363 2.2219989300 81.7005233765
29.2941284180 2.2207770348 81.4958114624
29.2541255951 2.2194926739 81.2909393311
29.2201519012 2.2184064388 81.0863494873
29.2023830414 2.2178525925 80.8826446533
29.2099552155 2.2181310654 80.6803894043
29.2475414276 2.2193951607 80.4799041748
29.3133316040 2.2215859890 80.2811355591
29.3999900818 2.2244620323 80.0837020874
29.4985008240 2.2277274132 79.8870849609
29.6025123596 2.2311735153 79.6909179688
29.7098293304 2.2347280979 79.4950790405
29.8198070526 2.2383699417 79.2995376587
29.9301776886 2.2420246601 79.1041488647
30.0375118256 2.2455797195 78.9086914063
30.1396846771 2.2489652634 78.7130203247
30.2354488373 2.2521405220 78.5170593262
30.3212909698 2.2549896240 78.3205490112
30.3910026550 2.2573087215 78.1230697632
30.4393444061 2.2589261532 77.9242324829
30.4650802612 2.2598011494 77.7239151001
30.4703617096 2.2600040436 77.5222244263
30.4588031769 2.2596542835 77.3193740845
30.4352016449 2.2589085102 77.1156616211
30.4061088562 2.2579827309 76.9115219116
30.3791217804 2.2571258545 76.7074813843
30.3609161377 2.2565574646 76.5040359497
30.3558406830 2.2564206123 76.3014984131
30.3656692505 2.2567729950 76.1000289917
30.3895454407 2.2575867176 75.8995971680
30.4239959717 2.2587478161 75.6999740601
30.4641513824 2.2600963116 75.5008010864
30.5066566467 2.2615220547 75.3018493652
30.5523300171 2.2630517483 75.1031799316
30.6058139801 2.2648379803 74.9051589966
30.6721973419 2.2670478821 74.7081909180
30.7538528442 2.2697591782 74.5124816895
30.8498535156 2.2729418278 74.3179931641
30.9567794800 2.2764832973 74.1244735718
31.0689640045 2.2801973820 73.9314956665
31.1788616180 2.2838363647 73.7384719849
31.2788562775 2.2871499062 73.5447769165
31.3636302948 2.2899637222 73.3499526978
31.4313583374 2.2922177315 73.1538314819
31.4832668304 2.2939519882 72.9564743042
31.5220508575 2.2952554226 72.7580795288
31.5500793457 2.2962055206 72.5588226318
31.5684738159 2.2968389988 72.3587722778
31.5775413513 2.2971663475 72.1579437256
31.5778102875 2.2972047329 71.9563674927
31.5708389282 2.2970054150 71.7541503906
31.5594558716 2.2966611385 71.5515365601
31.5474109650 2.2962951660 71.3488388062
31.5385894775 2.2960348129 71.1464080811
31.5364151001 2.2959930897 70.9445419312
31.5440540314 2.2962734699 70.7435455322
31.5651092529 2.2969944477 70.5437622070
31.6035060883 2.2982850075 70.3455657959
31.6614990234 2.3002192974 70.1492080688
31.7368354797 2.3027229309 69.9545059204
31.8221969604 2.3055558205 69.7608184814
31.9088382721 2.3084306717 69.5673522949
31.9915466309 2.3111765385 69.3736190796
32.0699806213 2.3137819767 69.1795654297
32.1457214355 2.3162987232 68.9853515625
32.2186622620 2.3187236786 68.7909545898
32.2852478027 2.3209400177 68.5960311890
32.3386421204 2.3227229118 68.3998947144
32.3714103699 2.3238286972 68.2018051147
32.3802070618 2.3241469860 68.0013885498
32.3691749573 2.3238141537 67.7990112305
32.3496589661 2.3232028484 67.5957717896
32.3370475769 2.3228180408 67.3931808472
32.3460464478 2.3231430054 67.1927490234
32.3854484558 2.3244667053 66.9954071045
32.4551353455 2.3267846107 66.8012008667
32.5476951599 2.3298537731 66.6094131470
32.6531257629 2.3333454132 66.4190673828
32.7626495361 2.3369717598 66.2292709351
32.8698768616 2.3405225277 66.0393676758
32.9702148438 2.3438470364 65.8488616943
33.0602226257 2.3468322754 65.6573715210
33.1379508972 2.3494141102 65.4646835327
33.2042045593 2.3516192436 65.2708587646
33.2630195618 2.3535802364 65.0763015747
33.3199691772 2.3554797173 64.8816070557
33.3795967102 2.3574674129 64.6872711182
33.4441184998 2.3596155643 64.4935379028
33.5132560730 2.3619153500 64.3003768921
33.5839347839 2.3642656803 64.1074752808
33.6508140564 2.3664913177 63.9142227173
33.7088394165 2.3684263229 63.7200546265
33.7564086914 2.3700177670 63.5247726440
33.7966575623 2.3713688850 63.3287124634
33.8368034363 2.3727166653 63.1326789856
33.8867416382 2.3743858337 62.9378128052
33.9570007324 2.3767223358 62.7453384399
34.0552673340 2.3799786568 62.5561904907
34.1823730469 2.3841819763 62.3705177307
34.3306427002 2.3890800476 62.1874732971
34.4870529175 2.3942456245 62.0055656433
34.6398391724 2.3992919922 61.8234138489
34.7834930420 2.4040384293 61.6403579712
34.9186286926 2.4085054398 61.4564590454
35.0480003357 2.4127829075 61.2720222473
35.1728782654 2.4169127941 61.0871963501
35.2921943665 2.4208600521 60.9018440247
35.4036293030 2.4245483875 60.7156715393
35.5053024292 2.4279162884 60.5284271240
35.5970878601 2.4309594631 60.3400840759
35.6800193787 2.4337120056 60.1507530212
35.7540054321 2.4361705780 59.9603958130
35.8174209595 2.4382822514 59.7688026428
35.8703880310 2.4400508404 59.5759620667
35.9183998108 2.4416563511 59.3825531006
35.9720344543 2.4434468746 59.1899108887
36.0435028076 2.4458229542 58.9996070862
36.1430130005 2.4491195679 58.8129844666
36.2762184143 2.4535226822 58.6308250427
36.4428367615 2.4590227604 58.4531555176
36.6367912292 2.4654207230 58.2792472839
36.8477592468 2.4723770618 58.1078033447
37.0633926392 2.4794867039 57.9372291565
37.2723312378 2.4863765240 57.7660293579
37.4676017761 2.4928174019 57.5932693481
37.6481513977 2.4987747669 57.4187812805
37.8165626526 2.5043337345 57.2428855896
37.9749603271 2.5095636845 57.0658416748
38.1228179932 2.5144476891 56.8875617981
38.2580413818 2.5189168453 56.7077407837
38.3795318604 2.5229349136 56.5262069702
38.4888572693 2.5265536308 56.3431472778
38.5898704529 2.5298993587 56.1590728760
38.6867485046 2.5331094265 55.9745407104
38.7818832397 2.5362620354 55.7898826599
38.8753662109 2.5393605232 55.6051025391
38.9663772583 2.5423777103 55.4200820923
39.0548667908 2.5453121662 55.2348175049
39.1422996521 2.5482118130 55.0494995117
39.2321166992 2.5511898994 54.8646240234
39.3302993774 2.5544426441 54.6810493469
39.4440345764 2.5582058430 54.4998207092
39.5777778625 2.5626261234 54.3216056824
39.7296714783 2.5676422119 54.1461791992
39.8919258118 2.5729985237 53.9724388123
40.0543251038 2.5783596039 53.7989158630
40.2078056335 2.5834276676 53.6242790222
40.3468246460 2.5880210400 53.4477005005
40.4703521729 2.5921056271 53.2689971924
40.5811233521 2.5957715511 53.0885429382
40.6836509705 2.5991666317 52.9069900513
40.7823562622 2.6024363041 52.7249870300
40.8799285889 2.6056685448 52.5429306030
40.9755554199 2.6088371277 52.3606910706
41.0643386841 2.6117808819 52.1775283813
41.1398696899 2.6142895222 51.9924468994
41.1990699768 2.6162621975 51.8049583435
41.2462234497 2.6178390980 51.6156845093
41.2938041687 2.6194300652 51.4265289307
41.3588752747 2.6215953827 51.2401313782
41.4550437927 2.6247813702 51.0586395264
41.5852966309 2.6290867329 50.8825759888
41.7430686951 2.6342954636 50.7109794617
41.9202537537 2.6401412487 50.5426254272
42.1124458313 2.6464800835 50.3768539429
42.3165473938 2.6532096863 50.2132034302
42.5258483887 2.6601102352 50.0506324768
42.7292022705 2.6668152809 49.8873634338
42.9149093628 2.6729407310 49.7215080261
43.0756072998 2.6782453060 49.5518531799
43.2108459473 2.6827139854 49.3782730103
43.3261680603 2.6865289211 49.2016220093
43.4293365479 2.6899445057 49.0231285095
43.5257492065 2.6931385994 48.8436508179
43.6163711548 2.6961424351 48.6633338928
43.6994476318 2.6988983154 48.4818801880
43.7731742859 2.7013475895 48.2989768982
43.8363227844 2.7034492493 48.1143989563
43.8876152039 2.7051618099 47.9279174805
43.9263839722 2.7064630985 47.7393913269
43.9542274475 2.7074058056 47.5490760803
43.9754524231 2.7081310749 47.3576698303
43.9958076477 2.7088279724 47.1661338806
44.0211982727 2.7096900940 46.9754676819
44.0576629639 2.7109158039 46.7867164612
44.1120262146 2.7127292156 46.6010665894
44.1914367676 2.7153646946 46.4197731018
44.3010292053 2.7189912796 46.2437782288
44.4415283203 2.7236320972 46.0732536316
44.6090087891 2.7291591167 45.9075851440
44.7965393066 2.7353439331 45.7456130981
44.9951972961 2.7418942451 45.5858116150
45.1943435669 2.7484605312 45.4263420105
45.3828735352 2.7546782494 45.2652397156
45.5517807007 2.7602517605 45.1008987427
45.6962394714 2.7650227547 44.9324264526
45.8157463074 2.7689743042 44.7596855164
45.9122200012 2.7721698284 44.5829696655
45.9880523682 2.7746877670 44.4026679993
46.0455780029 2.7766046524 44.2191581726
46.0874824524 2.7780086994 44.0328903198
46.1165618896 2.7789916992 43.8443450928
46.1343078613 2.7796025276 43.6537704468
46.1398773193 2.7798140049 43.4609832764
46.1311454773 2.7795555592 43.2655792236
46.1075935364 2.7788109779 43.0674362183
46.0728721619 2.7776994705 42.8671913147
46.0351333618 2.7764890194 42.6663398743
46.0055198669 2.7755453587 42.4669380188
45.9957237244 2.7752521038 42.2711830139
46.0150527954 2.7759151459 42.0808448792
46.0680770874 2.7776842117 41.8968429565
46.1540298462 2.7805342674 41.7190933228
46.2688102722 2.7843303680 41.5468788147
46.4078445435 2.7889230251 41.3793983459
46.5664901733 2.7941591740 41.2158050537
46.7374153137 2.7997984886 41.0547485352
46.9094314575 2.8054735661 40.8941040039
47.0708580017 2.8108010292 40.7316398621
47.2141990662 2.8155345917 40.5658836365
47.3377380371 2.8196184635 40.3964805603
47.4437828064 2.8231277466 40.2238311768
47.5360183716 2.8261837959 40.0486259460
47.6173210144 2.8288810253 39.8713912964
47.6882934570 2.8312389851 39.6922340393
47.7466812134 2.8331840038 39.5106849670
47.7881278992 2.8345727921 39.3258666992
47.8087005615 2.8352763653 39.1369705200
47.8080902100 2.8352844715 38.9438896179
47.7908821106 2.8347480297 38.7475013733
47.7646331787 2.8339147568 38.5492820740
47.7366294861 2.8330237865 38.3506698608
47.7120437622 2.8322448730 38.1526985168
47.6942329407 2.8316886425 37.9560508728
47.6858634949 2.8314421177 37.7612800598
47.6897506714 2.8315980434 37.5689735413
47.7092018127 2.8322646618 37.3798255920
47.7477455139 2.8335583210 37.1945877075
47.8081703186 2.8355700970 37.0138626099
47.8911857605 2.8383233547 36.8378372192
47.9947090149 2.8417496681 36.6661300659
48.1142539978 2.8457019329 36.4978485107
48.2436981201 2.8499791622 36.3317604065
48.3756790161 2.8543395996 36.1663513184
48.5023040771 2.8585240841 35.9999847412
48.6170349121 2.8623185158 35.8312873840
48.7168235779 2.8656220436 35.6595954895
48.8025474548 2.8684642315 35.4850654602
48.8776397705 2.8709571362 35.3083915710
48.9460449219 2.8732306957 35.1303901672
49.0102043152 2.8753647804 34.9515686035
49.0692787170 2.8773319721 34.7717399597
49.1190147400 2.8789927959 34.5899810791
49.1540832520 2.8801720142 34.4051399231
49.1710052490 2.8807556629 34.2164421082
49.1693267822 2.8807287216 34.0237579346
49.1511268616 2.8801596165 33.8274917603
49.1196632385 2.8791549206 33.6283264160
49.0775871277 2.8778021336 33.4268074036
49.0260848999 2.8761398792 33.2231750488
48.9670753479 2.8742311001 33.0178298950
48.9068374634 2.8722822666 32.8121376038
48.8559265137 2.8706395626 32.6084022522
48.8240013123 2.8696198463 32.4087791443
48.8157196045 2.8693761826 32.2143287659
48.8322448730 2.8699469566 32.0253562927
48.8743743896 2.8713579178 31.8420810699
48.9416046143 2.8735928535 31.6644420624
49.0283660889 2.8764686584 31.4912433624
49.1236267090 2.8796234131 31.3200492859
49.2164764404 2.8826992512 31.1484260559
49.3024444580 2.8855490685 30.9753608704
49.3834266663 2.8882350922 30.8012695313
49.4612236023 2.8908166885 30.6265506744
49.5323791504 2.8931803703 30.4504127502
49.5904235840 2.8951137066 30.2713699341
49.6321563721 2.8965115547 30.0886631012
49.6598815918 2.8974497318 29.9027938843
49.6775283813 2.8980569839 29.7146358490
49.6861572266 2.8983683586 29.5244159698
49.6838569641 2.8983211517 29.3316726685
49.6687469482 2.8978533745 29.1359519958
49.6410675049 2.8969728947 28.9372825623
49.6032295227 2.8957593441 28.7362060547
49.5596733093 2.8943579197 28.5337390900
49.5169830322 2.8929851055 28.3314113617
49.4820022583 2.8918652534 28.1308307648
49.4579811096 2.8911049366 27.9327754974
49.4433822632 2.8906540871 27.7369060516
49.4355201721 2.8904242516 27.5426063538
49.4346504211 2.8904240131 27.3499450684
49.4443168640 2.8907692432 27.1597805023
49.4692459106 2.8916156292 26.9732627869
49.5134735107 2.8930954933 26.7913818359
49.5784149170 2.8952548504 26.6145172119
49.6602668762 2.8979694843 26.4417934418
49.7491874695 2.9009160995 26.2708663940
49.8331413269 2.9036993980 26.0988426208
49.9039497375 2.9060516357 25.9237327576
49.9597015381 2.9079093933 25.7450447083
50.0018653870 2.9093213081 25.5631084442
50.0313606262 2.9103176594 25.3781242371
50.0475387573 2.9108767509 25.1899070740
50.0497512817 2.9109776020 24.9982719421
50.0383758545 2.9106323719 24.8032875061
50.0141448975 2.9098653793 24.6051101685
49.9774971008 2.9086906910 24.4038200378
49.9289970398 2.9071271420 24.1995353699
49.8696136475 2.9052064419 23.9924755096
49.8003311157 2.9029610157 23.7828636169
49.7225151062 2.9004354477 23.5710239410
49.6393547058 2.8977344036 23.3577365875
49.5565261841 2.8950443268 23.1444206238
49.4811782837 2.8925998211 22.9328746796
49.4205970764 2.8906400204 22.7249526978
49.3817253113 2.8893926144 22.5224399567
49.3702049255 2.8890426159 22.3268108368
49.3876609802 2.8896436691 22.1385269165
49.4298896790 2.8910577297 21.9565734863
49.4895172119 2.8930430412 21.7791137695
49.5613059998 2.8954269886 21.6048355103
49.6440658569 2.8981711864 21.4334583282
49.7373352051 2.9012603760 21.2648849487
49.8378067017 2.9045855999 21.0982799530
49.9394264221 2.9079487324 20.9320907593
50.0353431702 2.9111247063 20.7645416260
50.1189575195 2.9138965607 20.5939064026
50.1845588684 2.9160776138 20.4186725616
50.2287292480 2.9175553322 20.2379150391
50.2515525818 2.9183325768 20.0516109467
50.2563972473 2.9185197353 19.8606071472
50.2483329773 2.9182832241 19.6662044525
50.2318687439 2.9177711010 19.4695663452
50.2091560364 2.9170539379 19.2712459564
50.1799011230 2.9161219597 19.0711555481
50.1429061890 2.9149363041 18.8689613342
50.0982780457 2.9135000706 18.6646785736
50.0489883423 2.9119107723 18.4590873718
50.0008163452 2.9103581905 18.2537231445
49.9603729248 2.9090592861 18.0503635406
49.9324645996 2.9081716537 17.8503150940
49.9188156128 2.9077517986 17.6540660858
49.9188079834 2.9077799320 17.4614772797
49.9310569763 2.9082100391 17.2721977234
49.9545364380 2.9090087414 17.0859737396
49.9888458252 2.9101629257 16.9027194977
50.0336761475 2.9116621017 16.7223682404
50.0878295898 2.9134674072 16.5446128845
50.1489830017 2.9155023098 16.3688373566
50.2144203186 2.9176778793 16.1943054199
50.2813606262 2.9199028015 16.0202636719
50.3453025818 2.9220290184 15.8454685211
50.3983001709 2.9237964153 15.6677217484
50.4307937622 2.9248907566 15.4843502045
50.4367065430 2.9251129627 15.2936286926
50.4172172546 2.9245016575 15.0958337784
50.3800697327 2.9233109951 14.8930788040
50.3356208801 2.9218804836 14.6882257462
50.2925682068 2.9204959869 14.4836997986
50.2555084229 2.9193081856 14.2807941437
50.2252540588 2.9183437824 14.0797491074
50.2015571594 2.9175944328 13.8805084229
50.1860313416 2.9171130657 13.6835403442
50.1826210022 2.9170293808 13.4899778366
50.1954574585 2.9174787998 13.3010187149
50.2265892029 2.9185285568 13.1172771454
50.2753868103 2.9201579094 12.9386081696
50.3390121460 2.9222741127 12.7642335892
50.4134559631 2.9247448444 12.5930309296
50.4954223633 2.9274625778 12.4240770340
50.5835342407 2.9303820133 12.2569866180
50.6764373779 2.9334585667 12.0913829803
50.7699241638 2.9365544319 11.9260568619
50.8578147888 2.9394664764 11.7592201233
50.9362449646 2.9420681000 11.5897369385
51.0055503845 2.9443702698 11.4176902771
51.0670204163 2.9464154243 11.2434358597
51.1187820435 2.9481418133 11.0664129257
51.1560287476 2.9493920803 10.8851957321
51.1751022339 2.9500463009 10.6986808777
51.1766281128 2.9501245022 10.5070180893
51.1644363403 2.9497525692 10.3113040924
51.1420707703 2.9490468502 10.1125583649
51.1110382080 2.9480566978 9.9112100601
51.0724372864 2.9468183517 9.7075681686
51.0293464661 2.9454326630 9.5025329590
50.9869575500 2.9440701008 9.2976446152
50.9506034851 2.9429054260 9.0944948196
50.9241104126 2.9420642853 8.8942432404
50.9099197388 2.9416270256 8.6976404190
50.9102210999 2.9416649342 8.5053663254
50.9278984070 2.9422731400 8.3183183670
50.9664611816 2.9435665607 8.1375894547
51.0285835266 2.9456331730 7.9640278816
51.1139945984 2.9484636784 7.7975964546
51.2180023193 2.9519042969 7.6369137764
51.3314208984 2.9556536674 7.4792194366
51.4422035217 2.9593167305 7.3208570480
51.5390663147 2.9625229836 7.1583714485
51.6157341003 2.9650664330 6.9898142815
51.6725502014 2.9669587612 6.8152527809
51.7139434814 2.9683451653 6.6360120773
51.7443046570 2.9693691730 6.4534139633
51.7657814026 2.9701020718 6.2681026459
51.7788619995 2.9705593586 6.0802121162
51.7839851379 2.9707555771 5.8898615837
51.7825622559 2.9707369804 5.6974754333
51.7769546509 2.9705812931 5.5037755966
51.7696266174 2.9703688622 5.3095235825
51.7620620728 2.9701488018 5.1151790619
51.7542572021 2.9699208736 4.9207415581
51.7457695007 2.9696705341 4.7260713577
51.7379379272 2.9694416523 4.5315885544
51.7352676392 2.9693822861 4.3387145996
51.7446708679 2.9697189331 4.1496415138
51.7737464905 2.9707009792 3.9667978287
51.8292388916 2.9725499153 3.7923598289
51.9148063660 2.9753851891 3.6275393963
52.0282211304 2.9791343212 3.4716851711
52.1608619690 2.9835140705 3.3221001625
52.3011665344 2.9881453514 3.1751251221
52.4392585754 2.9927039146 3.0276103020
52.5690612793 2.9969904423 2.8776028156
52.6876258850 3.0009083748 2.7241384983
52.7935791016 3.0044124126 2.5667533875
52.8862495422 3.0074808598 2.4052069187
52.9656257629 3.0101130009 2.2394695282
53.0320243835 3.0123195648 2.0696179867
53.0849533081 3.0140838623 1.8954682350
53.1223678589 3.0153393745 1.7163301706
53.1413803101 3.0159912109 1.5312321186
53.1397247314 3.0159649849 1.3393993378
53.1169738770 3.0152466297 1.1406517029
53.0753097534 3.0139079094 0.9356652498
53.0199775696 3.0121204853 0.7261261344
52.9589347839 3.0101459026 0.5146292448
52.9008789063 3.0082693100 0.3040306568
52.8516349792 3.0066821575 0.0962632149
22.1817359924 41.0038223267 93.9773559570
22.1878013611 41.0178070068 93.7846832275
22.2005176544 41.0445518494 93.5921020508
22.2170429230 41.0786018372 93.3995895386
22.2362327576 41.1177597046 93.2071609497
22.2589950562 41.1637725830 93.0148239136
22.2870197296 41.2198791504 92.8226394653
22.3208007813 41.2870292664 92.6306152344
22.3584423065 41.3615798950 92.4387512207
22.3963184357 41.4365806580 92.2469863892
22.4309597015 41.5053749084 92.0552368164
22.4604282379 41.5642509460 91.8634490967
22.4844055176 41.6125869751 91.6715927124
22.5037136078 41.6519699097 91.4796676636
22.5199356079 41.6854324341 91.2877044678
22.5345573425 41.7158203125 91.0957260132
22.5475807190 41.7431449890 90.9037322998
22.5570621490 41.7636756897 90.7116546631
22.5604133606 41.7724456787 90.5193939209
22.5559196472 41.7661705017 90.3268661499
22.5426006317 41.7429695129 90.1340103149
22.5187015533 41.6994743347 89.9407272339
22.4814624786 41.6303901672 89.7468719482
22.4298858643 41.5338134766 89.5523605347
22.3677806854 41.4170417786 89.3572769165
22.3025989532 41.2943725586 89.1618957520
22.2412414551 41.1790390015 88.9665069580
22.1882362366 41.0797233582 88.7713241577
22.1473617554 41.0036811829 88.5765457153
22.1228370667 40.9589920044 88.3824310303
22.1185703278 40.9531631470 88.1892089844
22.1370277405 40.9909133911 87.9971008301
22.1783790588 41.0725708008 87.8061904907
22.2395629883 41.1922645569 87.6164169312
22.3138732910 41.3371315002 87.4274826050
22.3919830322 41.4892845154 87.2389450073
22.4646682739 41.6310272217 87.0503005981
22.5262260437 41.7514266968 86.8612060547
22.5759677887 41.8491668701 86.6715621948
22.6160564423 41.9283943176 86.4814682007
22.6479701996 41.9919395447 86.2909774780
22.6711959839 42.0388259888 86.1000137329
22.6845207214 42.0667266846 85.9084777832
22.6877269745 42.0752143860 85.7163085938
22.6821155548 42.0667991638 85.5235595703
22.6700992584 42.0461006165 85.3303604126
22.6547203064 42.0189514160 85.1368865967
22.6392269135 41.9915885925 84.9433670044
22.6263599396 41.9692573547 84.7499771118
22.6173782349 41.9543800354 84.5568389893
22.6119861603 41.9463882446 84.3639297485
22.6094799042 41.9439239502 84.1712188721
22.6095256805 41.9463577271 83.9786911011
22.6115379333 41.9525604248 83.7863082886
22.6141872406 41.9599876404 83.5939788818
22.6168956757 41.9675292969 83.4016494751
22.6218128204 41.9793052673 83.2095031738
22.6331520081 42.0033912659 83.0178909302
22.6540374756 42.0457878113 82.8271102905
22.6845054626 42.1065521240 82.6371917725
22.7228279114 42.1823806763 82.4480285645
22.7682723999 42.2718582153 82.2595825195
22.8212738037 42.3758277893 82.0719299316
22.8799934387 42.4907569885 81.8849182129
22.9374771118 42.6033210754 81.6979370117
22.9843692780 42.6955718994 81.5101165771
23.0151576996 42.7569427490 81.3208847046
23.0310192108 42.7896957397 81.1302947998
23.0368366241 42.8031921387 80.9387588501
23.0369300842 42.8057098389 80.7466735840
23.0338096619 42.8020668030 80.5542602539
23.0293292999 42.7958183289 80.3616943359
23.0254154205 42.7906532288 80.1691741943
23.0231304169 42.7886161804 79.9767990112
23.0213603973 42.7875633240 79.7844619751
23.0168132782 42.7811889648 79.5918273926
23.0057430267 42.7623023987 79.3984680176
22.9860057831 42.7268066406 79.2041320801
22.9576969147 42.6748733521 79.0087966919
22.9225578308 42.6098518372 78.8126220703
22.8845520020 42.5393333435 78.6160278320
22.8511638641 42.4776687622 78.4198532104
22.8313179016 42.4419670105 78.2251434326
22.8298664093 42.4415283203 78.0325241089
22.8449382782 42.4727668762 77.8418350220
22.8711166382 42.5252952576 77.6524963379
22.9038524628 42.5903968811 77.4640121460
22.9406757355 42.6633300781 77.2761077881
22.9800529480 42.7411613464 77.0886001587
23.0203380585 42.8207321167 76.9012985229
23.0593681335 42.8978919983 76.7139358521
23.0944252014 42.9674377441 76.5261688232
23.1227569580 43.0240898132 76.3376235962
23.1425857544 43.0644416809 76.1480407715
23.1536960602 43.0880737305 75.9573669434
23.1567668915 43.0963058472 75.7656478882
23.1521224976 43.0897407532 75.5729064941
23.1392307281 43.0673713684 75.3790435791
23.1175975800 43.0282478333 75.1839447021
23.0880260468 42.9739036560 74.9876937866
23.0528163910 42.9087562561 74.7905883789
23.0146713257 42.8379821777 74.5929641724
22.9757137299 42.7656517029 74.3951263428
22.9380359650 42.6957778931 74.1973648071
22.9052715302 42.6353187561 74.0002059937
22.8835391998 42.5960121155 73.8045501709
22.8803043365 42.5921592712 73.6115341187
22.9007339478 42.6336631775 73.4219894409
22.9435176849 42.7180099487 73.2358169556
23.0000057220 42.8286209106 73.0518112183
23.0585098267 42.9430999756 72.8682479858
23.1103591919 43.0448188782 72.6838073730
23.1526584625 43.1282348633 72.4980239868
23.1867504120 43.1959152222 72.3110733032
23.2151508331 43.2526931763 72.1233139038
23.2396945953 43.3020744324 71.9350128174
23.2614364624 43.3460845947 71.7463226318
23.2811489105 43.3862037659 71.5573577881
23.2989349365 43.4226341248 71.3681182861
23.3130588531 43.4520416260 71.1783294678
23.3198585510 43.4674148560 70.9873657227
23.3158264160 43.4620246887 70.7946166992
23.3001499176 43.4343223572 70.5999069214
23.2752113342 43.3888664246 70.4035949707
23.2447814941 43.3328971863 70.2062835693
23.2119388580 43.2722969055 70.0084762573
23.1781692505 43.2099227905 69.8104171753
23.1437988281 43.1463966370 69.6121520996
23.1094188690 43.0828590393 69.4138031006
23.0774803162 43.0239944458 69.2157745361
23.0522994995 42.9780845642 69.0188598633
23.0380020142 42.9530334473 68.8238143921
23.0362281799 42.9519805908 68.6309814453
23.0458335876 42.9727325439 68.4401931763
23.0643310547 43.0105247498 68.2510452271
23.0892219543 43.0605659485 68.0631103516
23.1183757782 43.1187744141 67.8760223389
23.1503334045 43.1823577881 67.6895217896
23.1849689484 43.2510719299 67.5036087036
23.2230815887 43.3264503479 67.3184280396
23.2640075684 43.4072113037 67.1338729858
23.3036117554 43.4854469299 66.9491653442
23.3358554840 43.5495681763 66.7631378174
23.3566894531 43.5918312073 66.5749664307
23.3657608032 43.6115570068 66.3845520020
23.3643035889 43.6111068726 66.1920852661
23.3522968292 43.5904388428 65.9975204468
23.3282661438 43.5467376709 65.8005218506
23.2918758392 43.4793548584 65.6009750366
23.2462596893 43.3942947388 65.3994674683
23.1970462799 43.3023452759 65.1971054077
23.1488952637 43.2124328613 64.9948272705
23.1033611298 43.1275329590 64.7929534912
23.0600280762 43.0468559265 64.5914154053
23.0192203522 42.9710159302 64.3902816772
22.9838771820 42.9056510925 64.1901779175
22.9596881866 42.8616523743 63.9923324585
22.9534454346 42.8520431519 63.7982177734
22.9705524445 42.8871650696 63.6090660095
23.0129108429 42.9706687927 63.4253692627
23.0778198242 43.0973739624 63.2466506958
23.1579532623 43.2532463074 63.0713958740
23.2430534363 43.4186286926 62.8974304199
23.3231353760 43.5743942261 62.7225723267
23.3913288116 43.7073860168 62.5452880859
23.4443931580 43.8113861084 62.3648071289
23.4813404083 43.8845100403 62.1808509827
23.5024356842 43.9272651672 61.9934158325
23.5095577240 43.9432487488 61.8028678894
23.5065383911 43.9398078918 61.6100234985
23.4979476929 43.9256935120 61.4158897400
23.4869155884 43.9068984985 61.2211647034
23.4739971161 43.8844909668 61.0259666443
23.4578838348 43.8559684753 60.8299827576
23.4370498657 43.8184013367 60.6328506470
23.4110107422 43.7708625793 60.4344291687
23.3805904388 43.7149314880 60.2348976135
23.3474464417 43.6537818909 60.0346298218
23.3134689331 43.5910415649 59.8340721130
23.2803516388 43.5299491882 59.6336250305
23.2495555878 43.4733047485 59.4336509705
23.2229156494 43.4246177673 59.2345962524
23.2036418915 43.3900489807 59.0372695923
23.1965637207 43.3788375854 58.8428802490
23.2063922882 43.4000129700 58.6526451111
23.2345561981 43.4563064575 58.4669799805
23.2770195007 43.5399894714 58.2849540710
23.3254776001 43.6351547241 58.1045303345
23.3713321686 43.7253303528 57.9235725403
23.4093513489 43.8004951477 57.7407379150
23.4387378693 43.8591308594 57.5557975769
23.4617881775 43.9056205750 57.3693046570
23.4815902710 43.9458923340 57.1820259094
23.5001392365 43.9837684631 56.9944686890
23.5173702240 44.0191116333 56.8066101074
23.5312557220 44.0480499268 56.6179161072
23.5388870239 44.0650100708 56.4276084900
23.5378284454 44.0653266907 56.2350196838
23.5269584656 44.0468482971 56.0398178101
23.5065536499 44.0101127625 55.8420448303
23.4779243469 43.9576263428 55.6420097351
23.4428043365 43.8927078247 55.4401435852
23.4027957916 43.8184280396 55.2368621826
23.3591670990 43.7372169495 55.0324859619
23.3131523132 43.6514358521 54.8273353577
23.2665481567 43.5645294189 54.6219024658
23.2223300934 43.4821929932 54.4169960022
23.1846733093 43.4124259949 54.2137832642
23.1579685211 43.3636322021 54.0135154724
23.1451282501 43.3413925171 53.8170433044
23.1462688446 43.3459281921 53.6244583130
23.1587409973 43.3721656799 53.4350624084
23.1785678864 43.4124832153 53.2477760315
23.2021923065 43.4600715637 53.0616188049
23.2272262573 43.5103607178 52.8759155273
23.2520065308 43.5601654053 52.6901969910
23.2749195099 43.6063957214 52.5039978027
23.2941741943 43.6456146240 52.3167915344
23.3078727722 43.6741943359 52.1280136108
23.3142757416 43.6888046265 51.9371299744
23.3122959137 43.6873626709 51.7437934875
23.3019371033 43.6698760986 51.5479736328
23.2842559814 43.6383705139 51.3499488831
23.2609233856 43.5960388184 51.1501922607
23.2338581085 43.5465621948 50.9492492676
23.2051200867 43.4938812256 50.7477302551
23.1766471863 43.4417114258 50.5462112427
23.1498470306 43.3927459717 50.3451156616
23.1256694794 43.3488044739 50.1447410583
23.1052417755 43.3120422363 49.9454421997
23.0901565552 43.2855110168 49.7477226257
23.0819473267 43.2721443176 49.5520744324
23.0812664032 43.2731933594 49.3587265015
23.0874748230 43.2874336243 49.1675071716
23.0989551544 43.3117675781 48.9779434204
23.1141510010 43.3432159424 48.7895660400
23.1326541901 43.3809967041 48.6022644043
23.1552944183 43.4266967773 48.4163055420
23.1828575134 43.4818229675 48.2319602966
23.2145099640 43.5447769165 48.0489807129
23.2473983765 43.6100997925 47.8664741516
23.2777767181 43.6706123352 47.6832389832
23.3025779724 43.7204437256 47.4982795715
23.3203105927 43.7567481995 47.3110923767
23.3309535980 43.7794723511 47.1216392517
23.3351516724 43.7898597717 46.9301033020
23.3332118988 43.7884979248 46.7365646362
23.3245201111 43.7742080688 46.5407943726
23.3077259064 43.7444038391 46.3423194885
23.2815933228 43.6967277527 46.1407012939
23.2460975647 43.6311264038 45.9358978271
23.2032661438 43.5514755249 45.7285423279
23.1572265625 43.4656906128 45.5199928284
23.1132755280 43.3839073181 45.3120193481
23.0764369965 43.3157348633 45.1063308716
23.0502529144 43.2679672241 44.9041481018
23.0361099243 43.2432479858 44.7059936523
23.0332813263 43.2401885986 44.5116615295
23.0399780273 43.2553672791 44.3205795288
23.0548439026 43.2861785889 44.1323242188
23.0774345398 43.3317832947 43.9467658997
23.1071796417 43.3910751343 43.7637443542
23.1419754028 43.4600410461 43.5825500488
23.1779937744 43.5313415527 43.4018707275
23.2108421326 43.5965766907 43.2201614380
23.2369918823 43.6489830017 43.0361747742
23.2544097900 43.6846809387 42.8491630554
23.2623786926 43.7022895813 42.6588401794
23.2610073090 43.7020149231 42.4652023315
23.2508678436 43.6849594116 42.2684249878
23.2326793671 43.6525001526 42.0687255859
23.2067432404 43.6052093506 41.8661842346
23.1724910736 43.5419998169 41.6605644226
23.1288127899 43.4607505798 41.4514350891
23.0753364563 43.3607521057 41.2386207581
23.0139904022 43.2456893921 41.0227851868
22.9497623444 43.1251106262 40.8057289124
22.8897132874 43.0125350952 40.5900344849
22.8406772614 42.9210395813 40.3782424927
22.8075504303 42.8599967957 40.1722068787
22.7932929993 42.8350715637 39.9730873108
22.7994575500 42.8492279053 39.7815399170
22.8254909515 42.9014167786 39.5974388123
22.8674736023 42.9841308594 39.4193840027
22.9185161591 43.0841827393 39.2448463440
22.9711170197 43.1872138977 39.0710220337
23.0195007324 43.2821731567 38.8957290649
23.0603981018 43.3628044128 38.7177047729
23.0925083160 43.4266166687 38.5364265442
23.1156463623 43.4732589722 38.3517837524
23.1303825378 43.5038146973 38.1639595032
23.1381454468 43.5210304260 37.9734802246
23.1409873962 43.5288276672 37.7811088562
23.1406688690 43.5305747986 37.5875091553
23.1376800537 43.5272102356 37.3928642273
23.1310482025 43.5168762207 37.1967773438
23.1189327240 43.4960517883 36.9985122681
23.0996036530 43.4614181519 36.7973747253
23.0723838806 43.4116859436 36.5930595398
23.0382728577 43.3487663269 36.3859367371
22.9999160767 43.2777252197 36.1770324707
22.9609642029 43.2055435181 35.9677810669
22.9252185822 43.1395034790 35.7597045898
22.8960151672 43.0859794617 35.5541572571
22.8758182526 43.0496978760 35.3521537781
22.8661022186 43.0334625244 35.1543273926
22.8675880432 43.0386695862 34.9610061646
22.8805198669 43.0657768250 34.7723388672
22.9042301178 43.1135101318 34.5880966187
22.9361686707 43.1769905090 34.4072761536
22.9717464447 43.2474288940 34.2280273438
23.0058135986 43.3149757385 34.0482406616
23.0346355438 43.3724861145 33.8663673401
23.0564346313 43.4165611267 33.6816558838
23.0704631805 43.4457626343 33.4937591553
23.0763015747 43.4592933655 33.3024787903
23.0741767883 43.4575881958 33.1078720093
23.0651760101 43.4427261353 32.9103698730
23.0503616333 43.4167404175 32.7103881836
23.0297012329 43.3795700073 32.5078926086
23.0021705627 43.3292617798 32.3024291992
22.9670162201 43.2643585205 32.0936470032
22.9248924255 43.1861267090 31.8817939758
22.8780422211 43.0988502502 31.6678047180
22.8295288086 43.0083961487 31.4529724121
22.7821922302 42.9201927185 31.2385158539
22.7381305695 42.8382606506 31.0253410339
22.6990413666 42.7658386230 30.8141956329
22.6669578552 42.7068214417 30.6059818268
22.6446914673 42.6665916443 30.4019527435
22.6353683472 42.6511230469 30.2035083771
22.6409015656 42.6640739441 30.0115394592
22.6603412628 42.7036361694 29.8256855011
22.6897487640 42.7622642517 29.6442661285
22.7241420746 42.8304290771 29.4651203156
22.7598838806 42.9011764526 29.2866535187
22.7952957153 42.9712867737 29.1081275940
22.8291854858 43.0384864807 28.9290084839
22.8590793610 43.0980415344 28.7481842041
22.8810977936 43.1425323486 28.5638999939
22.8917007446 43.1651802063 28.3745326996
22.8895320892 43.1633949280 28.1794281006
22.8754749298 43.1388702393 27.9789352417
22.8512401581 43.0948753357 27.7737827301
22.8182716370 43.0341720581 27.5645866394
22.7775268555 42.9585990906 27.3517513275
22.7295169830 42.8691253662 27.1354808807
22.6745662689 42.7663764954 26.9158935547
22.6139659882 42.6528244019 26.6935558319
22.5515537262 42.5358085632 26.4702205658
22.4937839508 42.4276771545 26.2488613129
22.4472465515 42.3410301208 26.0325565338
22.4156684875 42.2830009460 25.8230838776
22.3993263245 42.2541160583 25.6206302643
22.3968067169 42.2516670227 25.4245948792
22.4065303802 42.2726402283 25.2342891693
22.4268493652 42.3138809204 25.0489864349
22.4557800293 42.3715934753 24.8677940369
22.4912643433 42.4418373108 24.6897697449
22.5314178467 42.5210113525 24.5140457153
22.5742473602 42.6053047180 24.3396930695
22.6173915863 42.6901969910 24.1655960083
22.6584873199 42.7711715698 23.9906234741
22.6957912445 42.8448905945 23.8139324188
22.7281227112 42.9091033936 23.6349411011
22.7542095184 42.9613647461 23.4530162811
22.7722587585 42.9982566833 23.2672653198
22.7802276611 43.0158653259 23.0766696930
22.7764453888 43.0110054016 22.8803749084
22.7600669861 42.9820442200 22.6779232025
22.7311820984 42.9291725159 22.4693107605
22.6907730103 42.8542594910 22.2549686432
22.6406803131 42.7608261108 22.0357551575
22.5835189819 42.6538772583 21.8129234314
22.5223159790 42.5392036438 21.5879402161
22.4601039886 42.4225959778 21.3622894287
22.3998718262 42.3097839355 21.1374530792
22.3446483612 42.2065467834 20.9149456024
22.2971229553 42.1180381775 20.6961326599
22.2591876984 42.0478668213 20.4819850922
22.2318973541 41.9980545044 20.2730731964
22.2155990601 41.9692649841 20.0696144104
22.2097663879 41.9604911804 19.8713836670
22.2128715515 41.9688110352 19.6776504517
