-45.6264305115 -8.2318334579 66.0606002808
-45.6610412598 -8.2368860245 65.8712005615
-45.6843681335 -8.2403993607 65.6805953979
-45.6968307495 -8.2424306870 65.4888153076
-45.6945877075 -8.2424564362 65.2954101563
-45.6726799011 -8.2397994995 65.0997924805
-45.6308403015 -8.2344245911 64.9019012451
-45.5763130188 -8.2273178101 64.7025146484
-45.5202255249 -8.2199993134 64.5028839111
-45.4710922241 -8.2136297226 64.3039550781
-45.4319496155 -8.2086229324 64.1061172485
-45.4032554626 -8.2050409317 63.9094200134
-45.3878173828 -8.2032670975 63.7142219543
-45.3928222656 -8.2042818069 63.5213813782
-45.4272994995 -8.2093162537 63.3320007324
-45.4975776672 -8.2192325592 63.1468772888
-45.6045150757 -8.2341489792 62.9661903381
-45.7432174683 -8.2533979416 62.7894134521
-45.9033508301 -8.2755699158 62.6153793335
-46.0699386597 -8.2986211777 62.4423141479
-46.2263031006 -8.3202781677 62.2682151794
-46.3590393066 -8.3387117386 62.0914230347
-46.4617881775 -8.3530559540 61.9111213684
-46.5352516174 -8.3634061813 61.7273406982
-46.5844230652 -8.3704423904 61.5406341553
-46.6154136658 -8.3750000000 61.3517265320
-46.6332588196 -8.3777647018 61.1612052917
-46.6409912109 -8.3791494370 60.9694252014
-46.6397094727 -8.3793058395 60.7765121460
-46.6292457581 -8.3782091141 60.5824241638
-46.6086616516 -8.3757324219 60.3870277405
-46.5762214661 -8.3716392517 60.1900749207
-46.5292854309 -8.3655700684 59.9912071228
-46.4653587341 -8.3571834564 59.7900772095
-46.3851737976 -8.3465795517 59.5867385864
-46.2962036133 -8.3347778320 59.3821487427
-46.2135772705 -8.3238410950 59.1782684326
-46.1564331055 -8.3163805008 58.9776382446
-46.1406936646 -8.3145656586 58.7824172974
-46.1721763611 -8.3191900253 58.5934562683
-46.2454566956 -8.3295135498 58.4101181030
-46.3498039246 -8.3440742493 58.2310447693
-46.4760818481 -8.3616247177 58.0550537109
-46.6178817749 -8.3812913895 57.8813247681
-46.7679748535 -8.4020891190 57.7088966370
-46.9159545898 -8.4225978851 57.5363578796
-47.0501098633 -8.4412212372 57.3620986938
-47.1614456177 -8.4567327499 57.1848449707
-47.2462310791 -8.4686241150 57.0040397644
-47.3057136536 -8.4770650864 56.8198051453
-47.3442726135 -8.4826526642 56.6327018738
-47.3673667908 -8.4861316681 56.4434661865
-47.3797073364 -8.4881448746 56.2527275085
-47.3839187622 -8.4890489578 56.0608444214
-47.3799629211 -8.4888401031 55.8677940369
-47.3650932312 -8.4871435165 55.6731681824
-47.3341827393 -8.4832592010 55.4762039185
-47.2814025879 -8.4763936996 55.2760314941
-47.2040214539 -8.4661731720 55.0722160339
-47.1065139771 -8.4532098770 54.8653564453
-47.0013999939 -8.4392089844 54.6572532654
-46.9051971436 -8.4264230728 54.4503211975
-46.8319091797 -8.4167623520 54.2466430664
-46.7883987427 -8.4111614227 54.0472831726
-46.7747116089 -8.4096260071 53.8523025513
-46.7885894775 -8.4118490219 53.6614189148
-46.8299789429 -8.4178228378 53.4746780396
-46.9009666443 -8.4278326035 53.2924499512
-47.0000877380 -8.4416761398 53.1145668030
-47.1160507202 -8.4578170776 52.9393615723
-47.2289772034 -8.4735431671 52.7638320923
-47.3203887939 -8.4863348007 52.5851364136
-47.3828277588 -8.4951782227 52.4020881653
-47.4202423096 -8.5006093979 52.2152366638
-47.4410133362 -8.5037717819 52.0258407593
-47.4515113831 -8.5055322647 51.8348617554
-47.4539947510 -8.5062017441 51.6426353455
-47.4472045898 -8.5056066513 51.4489440918
-47.4273796082 -8.5032348633 51.2531814575
-47.3899917603 -8.4984693527 51.0545997620
-47.3322830200 -8.4909324646 50.8527297974
-47.2547683716 -8.4806966782 50.6476173401
-47.1603012085 -8.4681501389 50.4396781921
-47.0530204773 -8.4538564682 50.2295494080
-46.9401283264 -8.4387989044 50.0183715820
-46.8343734741 -8.4247150421 49.8081970215
-46.7529411316 -8.4139451981 49.6018486023
-46.7122612000 -8.4087324142 49.4020500183
-46.7221450806 -8.4104108810 49.2104911804
-46.7825737000 -8.4189796448 49.0272712708
-46.8844909668 -8.4332027435 48.8509788513
-47.0135726929 -8.4511280060 48.6793212891
-47.1547546387 -8.4707040787 48.5098342896
-47.2954483032 -8.4902114868 48.3404388428
-47.4272613525 -8.5085096359 48.1697196960
-47.5464630127 -8.5250873566 47.9970359802
-47.6523094177 -8.5398454666 47.8222312927
-47.7438926697 -8.5526580811 47.6451339722
-47.8189048767 -8.5632133484 47.4653167725
-47.8754730225 -8.5712537766 47.2824325562
-47.9137725830 -8.5768041611 47.0964736938
-47.9348297119 -8.5800046921 46.9075813293
-47.9383773804 -8.5808181763 46.7156791687
-47.9223556519 -8.5789651871 46.5203781128
-47.8848991394 -8.5741901398 46.3213081360
-47.8273925781 -8.5666828156 46.1186790466
-47.7555389404 -8.5572204590 45.9134483337
-47.6764717102 -8.5467748642 45.7068481445
-47.5951538086 -8.5360231400 45.4997406006
-47.5151062012 -8.5254449844 45.2927513123
-47.4420204163 -8.5158147812 45.0868911743
-47.3840942383 -8.5082511902 44.8836364746
-47.3482208252 -8.5036935806 44.6842613220
-47.3374977112 -8.5025634766 44.4893569946
-47.3530960083 -8.5050201416 44.2991828918
-47.3971138000 -8.5113496780 44.1141777039
-47.4718589783 -8.5218667984 43.9348068237
-47.5748405457 -8.5362329483 43.7606773376
-47.6942138672 -8.5528316498 43.5896720886
-47.8111915588 -8.5691032410 43.4183692932
-47.9096488953 -8.5828514099 43.2437934875
-47.9842262268 -8.5933446884 43.0649108887
-48.0391387939 -8.6011590958 42.8824691772
-48.0800247192 -8.6070604324 42.6974716187
-48.1076927185 -8.6111621857 42.5100479126
-48.1188888550 -8.6130180359 42.3195610046
-48.1111869812 -8.6122989655 42.1255226135
-48.0856933594 -8.6091547012 41.9281044006
-48.0449638367 -8.6039352417 41.7277641296
-47.9904251099 -8.5968341827 41.5247344971
-47.9239196777 -8.5881032944 41.3193435669
-47.8512763977 -8.5785350800 41.1126899719
-47.7817764282 -8.5693960190 40.9065361023
-47.7228851318 -8.5617017746 40.7023315430
-47.6759719849 -8.5556402206 40.5003623962
-47.6372756958 -8.5506982803 40.2999153137
-47.6032485962 -8.5463933945 40.1003227234
-47.5763778687 -8.5430631638 39.9020767212
-47.5658988953 -8.5419673920 39.7069969177
-47.5805206299 -8.5442905426 39.5168304443
-47.6195564270 -8.5499401093 39.3314819336
-47.6732139587 -8.5575828552 39.1490707397
-47.7320709229 -8.5659332275 38.9677505493
-47.7946586609 -8.5747919083 38.7872390747
-47.8655548096 -8.5847826004 38.6084556580
-47.9469375610 -8.5962009430 38.4318580627
-48.0317268372 -8.6080846786 38.2560386658
-48.1043090820 -8.6183042526 38.0778579712
-48.1477394104 -8.6245527267 37.8938713074
-48.1512069702 -8.6253557205 37.7018203735
-48.1133766174 -8.6205320358 37.5013656616
-48.0416069031 -8.6110849380 37.2939300537
-47.9476051331 -8.5986089706 37.0818443298
-47.8408889771 -8.5844011307 36.8670196533
-47.7254981995 -8.5690116882 36.6502609253
-47.6034851074 -8.5527200699 36.4319839478
-47.4810676575 -8.5363740921 36.2134590149
-47.3709983826 -8.5217103958 35.9973373413
-47.2893447876 -8.5109176636 35.7869949341
-47.2489967346 -8.5057525635 35.5851783752
-47.2540206909 -8.5067691803 35.3928260803
-47.2989082336 -8.5132160187 35.2088584900
-47.3725204468 -8.5235757828 35.0310020447
-47.4627456665 -8.5361986160 34.8567504883
-47.5590934753 -8.5496559143 34.6839027405
-47.6530761719 -8.5627908707 34.5106697083
-47.7374916077 -8.5746212006 34.3355026245
-47.8067817688 -8.5843915939 34.1571960449
-47.8590049744 -8.5918369293 33.9752998352
-47.8963012695 -8.5972490311 33.7902450562
-47.9222984314 -8.6011219025 33.6027870178
-47.9389915466 -8.6037263870 33.4133377075
-47.9460601807 -8.6050214767 33.2218093872
-47.9420356750 -8.6048040390 33.0278625488
-47.9249801636 -8.6028118134 32.8310546875
-47.8914146423 -8.5985708237 32.6305923462
-47.8351402283 -8.5912370682 32.4250869751
-47.7497863770 -8.5799427032 32.2130851746
-47.6360282898 -8.5647792816 31.9946861267
-47.5062255859 -8.5474300385 31.7725715637
-47.3787956238 -8.5304040909 31.5508136749
-47.2673149109 -8.5155515671 31.3324451447
-47.1772460938 -8.5036163330 31.1187171936
-47.1116027832 -8.4950075150 30.9103507996
-47.0747451782 -8.4903192520 30.7083683014
-47.0699653625 -8.4900007248 30.5135726929
-47.0972633362 -8.4940509796 30.3260231018
-47.1547241211 -8.5022096634 30.1453437805
-47.2394180298 -8.5140781403 29.9709300995
-47.3455390930 -8.5288639069 29.8015041351
-47.4628028870 -8.5451669693 29.6347560883
-47.5776443481 -8.5611400604 29.4675941467
-47.6764411926 -8.5749282837 29.2968788147
-47.7494773865 -8.5852069855 29.1203346252
-47.7942924500 -8.5916423798 28.9373455048
-47.8159828186 -8.5949277878 28.7490386963
-47.8231925964 -8.5962419510 28.5573825836
-47.8225746155 -8.5964899063 28.3639011383
-47.8152847290 -8.5958280563 28.1688499451
-47.7964439392 -8.5935935974 27.9710731506
-47.7570724487 -8.5885639191 27.7684326172
-47.6882171631 -8.5795192719 27.5587825775
-47.5855102539 -8.5658636093 27.3410301208
-47.4504051208 -8.5477962494 27.1154575348
-47.2878265381 -8.5259876251 26.8831729889
-47.1053619385 -8.5014715195 26.6459312439
-46.9170646667 -8.4761619568 26.4070568085
-46.7453994751 -8.4531173706 26.1719188690
-46.6137771606 -8.4355268478 25.9461803436
-46.5347023010 -8.4250907898 25.7329254150
-46.5056800842 -8.4214725494 25.5316543579
-46.5150566101 -8.4230823517 25.3396396637
-46.5484580994 -8.4279642105 25.1534633636
-46.5912780762 -8.4341287613 24.9696140289
-46.6308250427 -8.4398469925 24.7850131989
-46.6598625183 -8.4441347122 24.5978832245
-46.6775856018 -8.4468812943 24.4080047607
-46.6862449646 -8.4483938217 24.2159099579
-46.6868400574 -8.4488077164 24.0218296051
-46.6770439148 -8.4478073120 23.8251724243
-46.6520156860 -8.4447326660 23.6247177124
-46.6073112488 -8.4389791489 23.4193325043
-46.5421638489 -8.4304418564 23.2087879181
-46.4612541199 -8.4197578430 22.9942131042
-46.3738937378 -8.4081964493 22.7779121399
-46.2912673950 -8.3972797394 22.5626811981
-46.2228012085 -8.3882913589 22.3509006500
-46.1733169556 -8.3818874359 22.1438179016
-46.1431274414 -8.3781108856 21.9415454865
-46.1309623718 -8.3767881393 21.7437992096
-46.1371421814 -8.3779640198 21.5506935120
-46.1644630432 -8.3820180893 21.3629798889
-46.2160186768 -8.3893709183 21.1814861298
-46.2914581299 -8.3999767303 21.0061683655
-46.3851661682 -8.4130687714 20.8356323242
-46.4881668091 -8.4274263382 20.6676006317
-46.5912551880 -8.4417953491 20.4997158051
-46.6863594055 -8.4550771713 20.3298854828
-46.7673492432 -8.4664373398 20.1565093994
-46.8317604065 -8.4755392075 19.9789161682
-46.8813018799 -8.4826173782 19.7975196838
-46.9195976257 -8.4881649017 19.6132431030
-46.9492835999 -8.4925403595 19.4267482758
-46.9706878662 -8.4957866669 19.2381095886
-46.9818801880 -8.4976444244 19.0468044281
-46.9788932800 -8.4975709915 18.8517608643
-46.9560813904 -8.4947986603 18.6514644623
-46.9080009460 -8.4885864258 18.4444293976
-46.8327178955 -8.4786710739 18.2300968170
-46.7341117859 -8.4655809402 18.0094451904
-46.6210327148 -8.4505205154 17.7847957611
-46.5051422119 -8.4350776672 17.5592422485
-46.3993377686 -8.4210090637 17.3362388611
-46.3153381348 -8.4099082947 17.1189575195
-46.2597503662 -8.4026746750 16.9092197418
-46.2321472168 -8.3992519379 16.7069683075
-46.2273788452 -8.3989372253 16.5108566284
-46.2393836975 -8.4009056091 16.3192863464
-46.2633781433 -8.4045057297 16.1309852600
-46.2960281372 -8.4092845917 15.9450683594
-46.3349456787 -8.4149169922 15.7608995438
-46.3777694702 -8.4210796356 15.5778408051
-46.4208717346 -8.4272813797 15.3949060440
-46.4587097168 -8.4327659607 15.2105703354
-46.4849090576 -8.4366664886 15.0230607986
-46.4944572449 -8.4383001328 14.8309726715
-46.4854888916 -8.4374132156 14.6337537766
-46.4600524902 -8.4342851639 14.4319391251
-46.4238624573 -8.4296932220 14.2270898819
-46.3841400146 -8.4246215820 14.0212001801
-46.3458709717 -8.4197463989 13.8156576157
-46.3087615967 -8.4150295258 13.6103830338
-46.2668800354 -8.4096641541 13.4037132263
-46.2115249634 -8.4024639130 13.1931867599
-46.1366844177 -8.3926124573 12.9770784378
-46.0444717407 -8.3803958893 12.7559509277
-45.9463958740 -8.3673820496 12.5330343246
-45.8589401245 -8.3558139801 12.3130044937
-45.7965545654 -8.3476581573 12.0999975204
-45.7668571472 -8.3439512253 11.8962364197
-45.7702445984 -8.3447475433 11.7018976212
-45.8018455505 -8.3493843079 11.5156478882
-45.8526916504 -8.3566389084 11.3349618912
-45.9104614258 -8.3648357391 11.1563272476
-45.9626007080 -8.3722667694 10.9761323929
-46.0008926392 -8.3778133392 10.7919893265
-46.0230789185 -8.3811674118 10.6032161713
-46.0298576355 -8.3824253082 10.4099855423
-46.0208015442 -8.3815279007 10.2121438980
-45.9934654236 -8.3781423569 10.0089454651
-45.9465866089 -8.3720979691 9.7999868393
-45.8839378357 -8.3639068604 9.5863361359
-45.8141212463 -8.3547410965 9.3704919815
-45.7459678650 -8.3458023071 9.1550407410
-45.6847152710 -8.3378019333 8.9415302277
-45.6330032349 -8.3310995102 8.7307558060
-45.5940704346 -8.3261375427 8.5236940384
-45.5726203918 -8.3235540390 8.3217678070
-45.5733489990 -8.3239889145 8.1264085770
-45.5991020203 -8.3278284073 7.9385056496
-45.6489143372 -8.3349418640 7.7578210831
-45.7173118591 -8.3445854187 7.5827598572
-45.7971305847 -8.3557825089 7.4112071991
-45.8836555481 -8.3678913116 7.2417654991
-45.9747238159 -8.3806190491 7.0737962723
-46.0667762756 -8.3934803009 6.9062323570
-46.1526832581 -8.4055051804 6.7369179726
-46.2242469788 -8.4155769348 6.5633521080
-46.2762336731 -8.4229860306 6.3839182854
-46.3080024719 -8.4276437759 6.1983828545
-46.3219146729 -8.4298715591 6.0074272156
-46.3205947876 -8.4300270081 5.8118209839
-46.3056068420 -8.4283227921 5.6120147705
-46.2782554626 -8.4249362946 5.4083814621
-46.2404594421 -8.4201288223 5.2014908791
-46.1938896179 -8.4141273499 4.9918355942
-46.1390151978 -8.4069957733 4.7795467377
-46.0771751404 -8.3989171982 4.5650210381
-46.0136985779 -8.3906164169 4.3499002457
-45.9570465088 -8.3832435608 4.1368136406
-45.9137878418 -8.3776931763 3.9278206825
-45.8851013184 -8.3741264343 3.7233171463
-45.8681068420 -8.3721494675 3.5224285126
-45.8592414856 -8.3712787628 3.3240585327
-45.8561172485 -8.3711900711 3.1274752617
-45.8574790955 -8.3717098236 2.9322907925
-45.8624839783 -8.3727273941 2.7382509708
-45.8701629639 -8.3741073608 2.5450539589
-45.8787498474 -8.3756113052 2.3521475792
-45.8850173950 -8.3767995834 2.1585073471
-45.8843154907 -8.3770399094 1.9626498222
-45.8725318909 -8.3757724762 1.7632509470
-45.8495903015 -8.3729867935 1.5602653027
-45.8212966919 -8.3694734573 1.3555290699
-45.7965011597 -8.3664360046 1.1518715620
-45.7815933228 -8.3647441864 0.9513499141
-45.7777023315 -8.3645505905 0.7543497682
-45.7825317383 -8.3655433655 0.5601480603
-45.7932586670 -8.3673381805 0.3678512871
-45.8074340820 -8.3696031570 0.1766771078
-22.2502365112 -53.8310279846 86.1530456543
-22.2549858093 -53.8468132019 85.9667510986
-22.2699947357 -53.8882179260 85.7813491821
-22.2971820831 -53.9600372314 85.5970687866
-22.3349952698 -54.0583877563 85.4138183594
-22.3788204193 -54.1717529297 85.2312393188
-22.4227828979 -54.2854576111 85.0488128662
-22.4608364105 -54.3843994141 84.8659591675
-22.4877204895 -54.4554481506 84.6821517944
-22.5008087158 -54.4920463562 84.4970703125
-22.5014438629 -54.4975509644 84.3107910156
-22.4933910370 -54.4813537598 84.1236343384
-22.4793243408 -54.4501495361 83.9358291626
-22.4592533112 -54.4039459229 83.7473449707
-22.4326248169 -54.3413734436 83.5581054688
-22.4014053345 -54.2673377991 83.3682708740
-22.3701705933 -54.1932716370 83.1783370972
-22.3429622650 -54.1292533875 82.9887390137
-22.3205471039 -54.0772094727 82.7995910645
-22.3009395599 -54.0321769714 82.6106872559
-22.2819061279 -53.9885749817 82.4217834473
-22.2623691559 -53.9437179565 82.2327499390
-22.2417335510 -53.8961257935 82.0435180664
-22.2186946869 -53.8425292969 81.8539276123
-22.1912460327 -53.7779273987 81.6637191772
-22.1582374573 -53.6994476318 81.4727325439
-22.1213588715 -53.6113090515 81.2811508179
-22.0860519409 -53.5270881653 81.0896453857
-22.0607566833 -53.4678726196 80.8993072510
-22.0545654297 -53.4563522339 80.7113647461
-22.0731925964 -53.5067825317 80.5266647339
-22.1145381927 -53.6139297485 80.3450469971
-22.1678962708 -53.7510604858 80.1651763916
-22.2196884155 -53.8842773438 79.9852600098
-22.2614002228 -53.9923286438 79.8041152954
-22.2918472290 -54.0722541809 79.6215286255
-22.3130264282 -54.1290512085 79.4377212524
-22.3258628845 -54.1650123596 79.2527847290
-22.3295478821 -54.1781349182 79.0665664673
-22.3227691650 -54.1651420593 78.8788299561
-22.3047924042 -54.1241950989 78.6894073486
-22.2757377625 -54.0555992126 78.4982681274
-22.2355957031 -53.9593276978 78.3053588867
-22.1836662292 -53.8336410522 78.1105194092
-22.1211109161 -53.6814384460 77.9138717651
-22.0540561676 -53.5180053711 77.7163162231
-21.9912376404 -53.3651542664 77.5192031860
-21.9371013641 -53.2339744568 77.3232650757
-21.8885612488 -53.1167678833 77.1280517578
-21.8396472931 -52.9986267090 76.9326095581
-21.7889328003 -52.8759994507 76.7367172241
-21.7429313660 -52.7651367188 76.5414352417
-21.7137947083 -52.6963615417 76.3488082886
-21.7130718231 -52.6985092163 76.1608810425
-21.7431926727 -52.7776222229 75.9782028198
-21.7914085388 -52.9018936157 75.7987136841
-21.8341484070 -53.0124969482 75.6184310913
-21.8511581421 -53.0588874817 75.4337768555
-21.8370342255 -53.0275802612 75.2436752319
-21.8011150360 -52.9418907166 75.0496368408
-21.7592296600 -52.8413124084 74.8544082642
-21.7248897552 -52.7595672607 74.6604003906
-21.7042198181 -52.7119369507 74.4687881470
-21.6959342957 -52.6952095032 74.2793884277
-21.6948719025 -52.6965065002 74.0913085938
-21.6958198547 -52.7028198242 73.9035949707
-21.6956501007 -52.7063446045 73.7156677246
-21.6938571930 -52.7058181763 73.5274200439
-21.6912250519 -52.7031974792 73.3390045166
-21.6867046356 -52.6958656311 73.1502075195
-21.6750793457 -52.6708106995 72.9600067139
-21.6491966248 -52.6101837158 72.7669372559
-21.6063117981 -52.5071372986 72.5703964233
-21.5525722504 -52.3770103455 72.3715362549
-21.5002269745 -52.2503662109 72.1727752686
-21.4592533112 -52.1520919800 71.9761581421
-21.4308757782 -52.0852546692 71.7820053101
-21.4084224701 -52.0331954956 71.5889739990
-21.3835163116 -51.9750175476 71.3953628540
-21.3512611389 -51.8985061646 71.2001113892
-21.3113193512 -51.8028259277 71.0031280518
-21.2673835754 -51.6971817017 70.8051528931
-21.2270278931 -51.6004753113 70.6078033447
-21.2001380920 -51.5373611450 70.4132385254
-21.1946926117 -51.5277404785 70.2232742310
-21.2119102478 -51.5746612549 70.0382690430
-21.2432537079 -51.6568107605 69.8564529419
-21.2719974518 -51.7324752808 69.6741561890
-21.2817993164 -51.7608947754 69.4876785278
-21.2675914764 -51.7294120789 69.2957916260
-21.2377758026 -51.6590118408 69.1002883911
-21.2042541504 -51.5793609619 68.9038314819
-21.1708335876 -51.4999618530 68.7072906494
-21.1320762634 -51.4072608948 68.5093917847
-21.0816535950 -51.2854652405 68.3086318970
-21.0198383331 -51.1352577209 68.1050033569
-20.9532051086 -50.9730339050 67.9000320435
-20.8885211945 -50.8156776428 67.6953048706
-20.8284893036 -50.6699295044 67.4914855957
-20.7746143341 -50.5395431519 67.2889633179
-20.7337512970 -50.4416122437 67.0894470215
-20.7192478180 -50.4094238281 66.8962707520
-20.7425498962 -50.4715270996 66.7124023438
-20.8014030457 -50.6222839355 66.5374603271
-20.8756580353 -50.8114471436 66.3665618896
-20.9360103607 -50.9659423828 66.1923980713
-20.9589443207 -51.0271148682 66.0089187622
-20.9369525909 -50.9762458801 65.8140182495
-20.8806972504 -50.8399391174 65.6102371216
-20.8143119812 -50.6783676147 65.4036483765
-20.7631454468 -50.5547523499 65.2007980347
-20.7385921478 -50.4975128174 65.0047607422
-20.7322978973 -50.4858016968 64.8134460449
-20.7252159119 -50.4721260071 64.6219024658
-20.7022495270 -50.4188461304 64.4260864258
-20.6597061157 -50.3167457581 64.2249374390
-20.6024913788 -50.1780700684 64.0196914673
-20.5375537872 -50.0201416016 63.8121490479
-20.4710083008 -49.8582038879 63.6039581299
-20.4092903137 -49.7083091736 63.3968696594
-20.3590164185 -49.5869560242 63.1927490234
-20.3237056732 -49.5029144287 62.9926185608
-20.3016128540 -49.4518318176 62.7960700989
-20.2873420715 -49.4202499390 62.6016464233
-20.2752170563 -49.3940200806 62.4077758789
-20.2622165680 -49.3656082153 62.2136154175
-20.2503662109 -49.3400650024 62.0197372437
-20.2472305298 -49.3362541199 61.8283271790
-20.2615318298 -49.3759078979 61.6419448853
-20.2949390411 -49.4631996155 61.4611663818
-20.3374996185 -49.5733070374 61.2831726074
-20.3725471497 -49.6646766663 61.1030960083
-20.3868598938 -49.7043571472 60.9169960022
-20.3763561249 -49.6821746826 60.7235527039
-20.3442459106 -49.6061210632 60.5236053467
-20.2965278625 -49.4911689758 60.3188591003
-20.2396316528 -49.3533401489 60.1111793518
-20.1801300049 -49.2090187073 59.9025192261
-20.1245479584 -49.0744743347 59.6948585510
-20.0782546997 -48.9630851746 59.4898681641
-20.0433025360 -48.8799705505 59.2882270813
-20.0161361694 -48.8162651062 59.0888824463
-19.9874324799 -48.7487335205 58.8889656067
-19.9456748962 -48.6486587524 58.6848602295
-19.8835430145 -48.4978065491 58.4741897583
-19.8044166565 -48.3045997620 58.2579307556
-19.7240104675 -48.1082115173 58.0410041809
-19.6627063751 -47.9594345093 57.8299293518
-19.6327743530 -47.8888549805 57.6287422180
-19.6322956085 -47.8916893005 57.4369773865
-19.6504440308 -47.9409484863 57.2512588501
-19.6762237549 -48.0092201233 57.0680847168
-19.7026081085 -48.0790061951 56.8851890564
-19.7264175415 -48.1423683167 56.7015228271
-19.7470684052 -48.1978569031 56.5168838501
-19.7647285461 -48.2458953857 56.3313102722
-19.7781448364 -48.2833518982 56.1443672180
-19.7839183807 -48.3017616272 55.9548950195
-19.7771396637 -48.2888908386 55.7611961365
-19.7518901825 -48.2299880981 55.5611991882
-19.7022228241 -48.1102409363 55.3527908325
-19.6255035400 -47.9230804443 55.1349411011
-19.5260639191 -47.6793098450 54.9090232849
-19.4147319794 -47.4059143066 54.6786613464
-19.3043155670 -47.1348037720 54.4482574463
-19.2057056427 -46.8931236267 54.2216110229
-19.1266460419 -46.7001647949 54.0014991760
-19.0713634491 -46.5664558411 53.7895088196
-19.0403995514 -46.4933471680 53.5859375000
-19.0324649811 -46.4776268005 53.3904571533
-19.0471267700 -46.5182075500 53.2030143738
-19.0838928223 -46.6138610840 53.0235481262
-19.1373138428 -46.7510147095 52.8501968384
-19.1940383911 -46.8963928223 52.6782073975
-19.2356987000 -47.0042343140 52.5009231567
-19.2456035614 -47.0329513550 52.3121643066
-19.2167434692 -46.9650878906 52.1092109680
-19.1578178406 -46.8223266602 51.8950843811
-19.0895195007 -46.6562118530 51.6772880554
-19.0307540894 -46.5138549805 51.4628143311
-18.9876976013 -46.4106330872 51.2540092468
-18.9549064636 -46.3329925537 51.0489082336
-18.9234600067 -46.2587013245 50.8442039490
-18.8876209259 -46.1734733582 50.6377334595
-18.8473415375 -46.0771865845 50.4294548035
-18.8078670502 -45.9829025269 50.2213478088
-18.7772350311 -45.9106521606 50.0164947510
-18.7625961304 -45.8782424927 49.8176918030
-18.7666473389 -45.8923988342 49.6260566711
-18.7861537933 -45.9450454712 49.4404220581
-18.8135929108 -46.0174560547 49.2579383850
-18.8407917023 -46.0892639160 49.0754432678
-18.8622341156 -46.1467361450 48.8907699585
-18.8764553070 -46.1862144470 48.7033157349
-18.8850917816 -46.2117805481 48.5136871338
-18.8906669617 -46.2297248840 48.3228683472
-18.8947868347 -46.2440414429 48.1314811707
-18.8976612091 -46.2552566528 47.9396018982
-18.8985748291 -46.2615852356 47.7469406128
-18.8965225220 -46.2605323792 47.5530776978
-18.8905525208 -46.2497215271 47.3576126099
-18.8796615601 -46.2266502380 47.1601219177
-18.8624687195 -46.1878890991 46.9600105286
-18.8374290466 -46.1295814514 46.7566223145
-18.8040046692 -46.0503959656 46.5496902466
-18.7641773224 -45.9552650452 46.3399963379
-18.7227478027 -45.8561477661 46.1295013428
-18.6857261658 -45.7680130005 45.9207115173
-18.6576824188 -45.7022361755 45.7155494690
-18.6399097443 -45.6620445251 45.5146102905
-18.6308269501 -45.6434898376 45.3172760010
-18.6282405853 -45.6411170959 45.1226577759
-18.6317005157 -45.6537971497 44.9305953979
-18.6431713104 -45.6864242554 44.7419548035
-18.6651496887 -45.7452239990 44.5578498840
-18.6971035004 -45.8288612366 44.3781013489
-18.7334060669 -45.9233207703 44.2003250122
-18.7653274536 -46.0068702698 44.0207633972
-18.7848434448 -46.0595283508 43.8359069824
-18.7862720490 -46.0671463013 43.6432151794
-18.7666511536 -46.0223579407 43.4413070679
-18.7281112671 -45.9304580688 43.2310142517
-18.6798954010 -45.8144645691 43.0163192749
-18.6352214813 -45.7072982788 42.8030357361
-18.6045207977 -45.6349258423 42.5958099365
-18.5911979675 -45.6058235168 42.3962326050
-18.5920696259 -45.6120643616 42.2029647827
-18.6000404358 -45.6359748840 42.0128822327
-18.6070461273 -45.6574897766 41.8223838806
-18.6061458588 -45.6593132019 41.6283302307
-18.5918884277 -45.6278877258 41.4281997681
-18.5605678558 -45.5539817810 41.2202415466
-18.5127983093 -45.4391288757 41.0046539307
-18.4565410614 -45.3031425476 40.7850112915
-18.4050083160 -45.1789283752 40.5673599243
-18.3687534332 -45.0927505493 40.3565979004
-18.3492832184 -45.0483589172 40.1534996033
-18.3410072327 -45.0318336487 39.9555435181
-18.3389987946 -45.0309104919 39.7604827881
-18.3436946869 -45.0466804504 39.5685539246
-18.3570728302 -45.0840606689 39.3807182312
-18.3743782043 -45.1312217712 39.1947746277
-18.3817062378 -45.1535377502 39.0041542053
-18.3645095825 -45.1148071289 38.8019027710
-18.3189163208 -45.0054016113 38.5860519409
-18.2536048889 -44.8469123840 38.3606147766
-18.1823654175 -44.6736755371 38.1321182251
-18.1171741486 -44.5154914856 37.9062957764
-18.0657539368 -44.3915939331 37.6869163513
-18.0309448242 -44.3090438843 37.4754180908
-18.0112400055 -44.2640876770 37.2711486816
-18.0036716461 -44.2493400574 37.0727386475
-18.0074748993 -44.2629013062 36.8798675537
-18.0254116058 -44.3116340637 36.6939430237
-18.0609283447 -44.4041213989 36.5167427063
-18.1124897003 -44.5365371704 36.3475875854
-18.1704196930 -44.6847991943 36.1817512512
-18.2211532593 -44.8151473999 36.0125198364
-18.2556209564 -44.9050064087 35.8353195190
-18.2732143402 -44.9528770447 35.6497726440
-18.2785129547 -44.9701461792 35.4580993652
-18.2756843567 -44.9671897888 35.2623367310
-18.2652759552 -44.9453735352 35.0627288818
-18.2440586090 -44.8966560364 34.8575973511
-18.2074623108 -44.8096733093 34.6445617676
-18.1542434692 -44.6813278198 34.4229087830
-18.0902118683 -44.5260772705 34.1955413818
-18.0263080597 -44.3711509705 33.9680290222
-17.9713821411 -44.2385673523 33.7449340820
-17.9267902374 -44.1317062378 33.5270004272
-17.8889369965 -44.0416069031 33.3124122620
-17.8569869995 -43.9662055969 33.1007690430
-17.8367309570 -43.9199028015 32.8951263428
-17.8356609344 -43.9213447571 32.6994590759
-17.8551387787 -43.9739036560 32.5145759583
-17.8890533447 -44.0623855591 32.3373603821
-17.9294452667 -44.1669845581 32.1636734009
-17.9716320038 -44.2760429382 31.9910640717
-18.0145549774 -44.3869285583 31.8189773560
-18.0579338074 -44.4989471436 31.6472682953
-18.0990638733 -44.6053695679 31.4744911194
-18.1318092346 -44.6909294128 31.2973423004
-18.1489791870 -44.7377357483 31.1119117737
-18.1461944580 -44.7348976135 30.9157581329
-18.1243362427 -44.6846122742 30.7092628479
-18.0893497467 -44.6016654968 30.4955615997
-18.0493621826 -44.5062789917 30.2790184021
-18.0101451874 -44.4128112793 30.0627613068
-17.9723186493 -44.3228073120 29.8471355438
-17.9327602386 -44.2284965515 29.6304283142
-17.8884296417 -44.1223144531 29.4109592438
-17.8393516541 -44.0043334961 29.1887168884
-17.7903747559 -43.8866004944 28.9663658142
-17.7513504028 -43.7936325073 28.7493858337
-17.7331886292 -43.7525558472 28.5439109802
-17.7404613495 -43.7747535706 28.3525981903
-17.7678623199 -43.8470153809 28.1725940704
-17.8052940369 -43.9442253113 27.9983158112
-17.8461093903 -44.0498542786 27.8260650635
-17.8894023895 -44.1616363525 27.6553421021
-17.9352092743 -44.2796707153 27.4861812592
-17.9796504974 -44.3943023682 27.3163852692
-18.0157546997 -44.4882011414 27.1419734955
-18.0386333466 -44.5491943359 26.9601039886
-18.0489921570 -44.5790596008 26.7711181641
-18.0515174866 -44.5894317627 26.5776538849
-18.0507068634 -44.5915107727 26.3822669983
-18.0486011505 -44.5903701782 26.1861248016
-18.0452785492 -44.5862045288 25.9892616272
-18.0400714874 -44.5773506165 25.7912883759
-18.0320510864 -44.5615005493 25.5916500092
-18.0196666718 -44.5348014832 25.3894290924
-18.0003280640 -44.4908027649 25.1830806732
-17.9710254669 -44.4220314026 24.9708003998
-17.9307346344 -44.3259353638 24.7519378662
-17.8829708099 -44.2112617493 24.5285186768
-17.8352966309 -44.0968093872 24.3049907684
-17.7950439453 -44.0008201599 24.0857200623
-17.7652606964 -43.9308662415 23.8725605011
-17.7449779510 -43.8845367432 23.6649818420
-17.7326221466 -43.8579177856 23.4620876312
-17.7278480530 -43.8501548767 23.2637081146
-17.7300910950 -43.8598403931 23.0695400238
-17.7369174957 -43.8809204102 22.8781452179
-17.7449131012 -43.9049110413 22.6874771118
-17.7516841888 -43.9258537292 22.4960861206
-17.7565040588 -43.9419441223 22.3035221100
-17.7596511841 -43.9538764954 22.1099472046
-17.7618885040 -43.9635467529 21.9158210754
-17.7641658783 -43.9733200073 21.7217216492
-17.7665138245 -43.9832649231 21.5276660919
-17.7658157349 -43.9856376648 21.3317337036
-17.7547740936 -43.9622917175 21.1293888092
-17.7252979279 -43.8931198120 20.9155559540
-17.6756744385 -43.7738609314 20.6890830994
-17.6148166656 -43.6266746521 20.4554328918
-17.5580215454 -43.4895935059 20.2241210938
-17.5177459717 -43.3935852051 20.0029850006
-17.4979209900 -43.3484191895 19.7945766449
-17.4948120117 -43.3448104858 19.5966415405
-17.5010223389 -43.3643608093 19.4045810699
-17.5094375610 -43.3893966675 19.2139339447
-17.5159626007 -43.4097366333 19.0221099854
-17.5199394226 -43.4237403870 18.8286762238
-17.5223999023 -43.4339752197 18.6342849731
-17.5241107941 -43.4423446655 18.4394130707
-17.5252552032 -43.4493103027 18.2441806793
-17.5268497467 -43.4573860168 18.0492362976
-17.5321025848 -43.4745597839 17.8566532135
-17.5451488495 -43.5111045837 17.6691226959
-17.5667858124 -43.5690040588 17.4871997833
-17.5912761688 -43.6339912415 17.3071975708
-17.6085739136 -43.6810989380 17.1225814819
-17.6105136871 -43.6900367737 16.9279842377
-17.5949802399 -43.6555480957 16.7219448090
-17.5646743774 -43.5843391418 16.5061511993
-17.5224533081 -43.4835243225 16.2824134827
-17.4678039551 -43.3518218994 16.0503330231
-17.3977699280 -43.1818847656 15.8078937531
-17.3118286133 -42.9724273682 15.5546770096
-17.2160034180 -42.7384033203 15.2946052551
-17.1219196320 -42.5087203979 15.0353803635
-17.0419044495 -42.3140029907 14.7852401733
-16.9842548370 -42.1748733521 14.5498094559
-16.9517974854 -42.0983505249 14.3310947418
-16.9436531067 -42.0822525024 14.1286277771
-16.9571666718 -42.1199722290 13.9407348633
-16.9871597290 -42.1986427307 13.7640209198
-17.0245170593 -42.2956123352 13.5923900604
-17.0585212708 -42.3842468262 13.4185972214
-17.0820751190 -42.4469108582 13.2377958298
-17.0942974091 -42.4814147949 13.0493297577
-17.0982437134 -42.4953575134 12.8552389145
-17.0971450806 -42.4967651367 12.6576967239
-17.0922927856 -42.4888381958 12.4575634003
-17.0826015472 -42.4688949585 12.2540769577
-17.0650768280 -42.4294891357 12.0451450348
-17.0366802216 -42.3630676270 11.8286247253
-16.9976520538 -42.2702369690 11.6046304703
-16.9535179138 -42.1647224426 11.3769531250
-16.9126644135 -42.0673599243 11.1514148712
-16.8811416626 -41.9931869507 10.9322605133
-16.8599777222 -41.9447479248 10.7202520370
-16.8470401764 -41.9167480469 10.5139446259
-16.8405475616 -41.9047622681 10.3121252060
-16.8411674500 -41.9104461670 10.1152954102
-16.8519515991 -41.9413833618 9.9256477356
-16.8760242462 -42.0053291321 9.7454433441
-16.9126987457 -42.1005859375 9.5742626190
-16.9553871155 -42.2107734680 9.4074745178
-16.9945716858 -42.3122596741 9.2383222580
-17.0236949921 -42.3887443542 9.0620975494
-17.0420112610 -42.4383850098 8.8782186508
-17.0525169373 -42.4686203003 8.6887855530
-17.0584812164 -42.4875755310 8.4961118698
-17.0618362427 -42.5000457764 8.3015699387
-17.0633888245 -42.5080413818 8.1057310104
-17.0634670258 -42.5123748779 7.9088249207
-17.0622844696 -42.5135765076 7.7109971046
-17.0600261688 -42.5121078491 7.5123782158
-17.0568218231 -42.5082855225 7.3130564690
-17.0527114868 -42.5022125244 7.1130561829
-17.0476512909 -42.4937858582 6.9123430252
-17.0415668488 -42.4828109741 6.7108554840
-17.0344028473 -42.4691581726 6.5085492134
-17.0261859894 -42.4528884888 6.3054370880
-17.0170364380 -42.4343070984 6.1016054153
-17.0071716309 -42.4139480591 5.8972077370
-16.9967975616 -42.3923225403 5.6923956871
-16.9858760834 -42.3693428040 5.4871377945
-16.9737415314 -42.3433494568 5.2809343338
-16.9589729309 -42.3108139038 5.0727181435
-16.9402828217 -42.2685394287 4.8615112305
-16.9184722900 -42.2185211182 4.6478972435
-16.8977813721 -42.1712837219 4.4350490570
-16.8845043182 -42.1424598694 4.2277183533
-16.8832187653 -42.1434135437 4.0294003487
-16.8936042786 -42.1733474731 3.8399088383
-16.9105148315 -42.2194900513 3.6553983688
-16.9272899628 -42.2652893066 3.4708349705
-16.9395256042 -42.2998199463 3.2828624249
-16.9464187622 -42.3210830688 3.0908436775
-16.9493751526 -42.3325691223 2.8958303928
-16.9500293732 -42.3383369446 2.6990556717
-16.9492778778 -42.3406143188 2.5011975765
-16.9473400116 -42.3399505615 2.3024191856
-16.9441585541 -42.3361968994 2.1026697159
-16.9396457672 -42.3291358948 1.9018751383
-16.9333000183 -42.3175277710 1.6996406317
-16.9228610992 -42.2957534790 1.4942004681
-16.9033164978 -42.2513732910 1.2816352844
-16.8690986633 -42.1705703735 1.0575592518
-16.8194789886 -42.0515213013 0.8213281631
-16.7614860535 -41.9116935730 0.5783740878
-16.7054405212 -41.7767028809 0.3367548287
-16.6570892334 -41.6608161926 0.1009984314
-22.2472648621 6.4630465508 85.7365036011
-22.2421855927 6.4607172012 85.5294723511
-22.2370796204 6.4583778381 85.3224334717
-25.0710639954 7.5428714752 82.7853851318
-25.0666179657 7.5407891273 82.5801010132
-25.0560398102 7.5363497734 82.3744583130
-25.0433387756 7.5310935974 82.1686782837
-25.0308723450 7.5259280205 81.9628829956
-25.0174903870 7.5204105377 81.7570114136
-24.9981441498 7.5125994682 81.5507659912
-24.9658851624 7.4998250008 81.3437347412
-24.9156150818 7.4801268578 81.1355895996
-24.8470878601 7.4534106255 80.9262771606
-24.7650489807 7.4214997292 80.7160415649
-24.6769485474 7.3872585297 80.5053253174
-24.5906333923 7.3537034988 80.2945861816
-24.5139636993 7.3238558769 80.0843353271
-24.4558353424 7.3011360168 79.8751373291
-24.4257965088 7.2892141342 79.6676406860
-25.4571361542 7.6812028885 77.2738265991
-25.4651508331 7.6839103699 77.0693893433
-25.4767112732 7.6879816055 76.8652114868
-25.4913444519 7.6932339668 76.6612625122
-25.5068149567 7.6988077164 76.4573974609
-25.5200042725 7.7035050392 76.2533645630
-25.5290756226 7.7066187859 76.0490264893
-29.4862213135 9.2242298126 74.3247299194
-29.4904441833 9.2254848480 74.1226119995
-29.4934291840 9.2262630463 73.9203948975
-29.4937572479 9.2260208130 73.7179412842
-29.4897880554 9.2241258621 73.5151214600
-29.4804019928 9.2201480865 73.3118209839
-29.4653625488 9.2139978409 73.1080093384
-29.4452495575 9.2058954239 72.9037246704
-29.4217395782 9.1964883804 72.6991043091
-29.3982639313 9.1870937347 72.4944534302
-29.3803043365 9.1798200607 72.2902526855
-29.3758773804 9.1777486801 72.0872344971
-29.3970336914 9.1855144501 71.8865127563
-29.4605312347 9.2095575333 71.6896743774
-29.5834121704 9.2564325333 71.4983673096
-29.7720470428 9.3285894394 71.3132934570
-30.0114421844 9.4202613831 71.1331939697
-30.2664947510 9.5179557800 70.9548721313
-30.4980735779 9.6066246033 70.7746734619
-30.6814346313 9.6767549515 70.5901794434
-30.8122119904 9.7266683578 70.4008865356
-30.8992519379 9.7597656250 70.2075347900
-30.9548282623 9.7807664871 70.0112380981
-30.9896926880 9.7938041687 69.8129806519
-31.0121059418 9.8020544052 69.6135330200
-31.0277767181 9.8077125549 69.4134368896
-31.0398998260 9.8120059967 69.2130050659
-31.0496997833 9.8154077530 69.0123367310
-31.0573272705 9.8179721832 68.8114624023
-31.0626125336 9.8196372986 68.6103515625
-31.0654983521 9.8203802109 68.4089889526
-31.0662536621 9.8203029633 68.2074050903
-31.0656890869 9.8197183609 68.0056762695
-31.0655937195 9.8193140030 67.8039855957
-31.0694828033 9.8204421997 67.6026992798
-31.0836105347 9.8255071640 67.4025039673
-31.1175594330 9.8381929398 67.2044296265
-31.1824398041 9.8627719879 67.0097045898
-31.2855472565 9.9020500183 66.8191833496
-31.4244003296 9.9550724030 66.6326675415
-31.5863437653 10.0169734955 66.4488601685
-31.7553119659 10.0815753937 66.2660293579
-31.9193534851 10.1442842484 66.0828704834
-32.0720672607 10.2026367188 65.8986587524
-32.2089843750 10.2549171448 65.7128829956
-32.3252029419 10.2992382050 65.5249481201
-32.4172210693 10.3342533112 65.3344192505
-32.4858589172 10.3602790833 65.1413421631
-32.5359916687 10.3791904449 64.9462280273
-32.5725555420 10.3928852081 64.7496109009
-32.5966567993 10.4017858505 64.5515899658
-32.6059684753 10.4050006866 64.3518676758
-32.5990829468 10.4019880295 64.1502532959
-32.5788383484 10.3938369751 63.9470443726
-32.5516433716 10.3830137253 63.7429733276
-32.5254821777 10.3725891113 63.5389823914
-32.5104751587 10.3664522171 63.3362846375
-32.5208168030 10.3700628281 63.1366195679
-32.5736656189 10.3900194168 62.9421081543
-32.6841735840 10.4321470261 62.7546958923
-32.8600273132 10.4994010925 62.5754318237
-33.0973701477 10.5903005600 62.4039764404
-33.3783874512 10.6979961395 62.2382431030
-33.6732444763 10.8110132217 62.0746040344
-33.9487266541 10.9165802002 61.9089241028
-34.1796531677 11.0050153732 61.7379913330
-34.3560104370 11.0724668503 61.5604515076
-34.4825668335 11.1207675934 61.3768005371
-34.5724449158 11.1549663544 61.1886138916
-34.6390533447 11.1802158356 60.9975471497
-34.6909713745 11.1998176575 60.8046646118
-34.7313270569 11.2149724960 60.6103363037
-34.7598457336 11.2255764008 60.4145088196
-34.7761306763 11.2314748764 60.2171058655
-34.7823638916 11.2335081100 60.0183868408
-34.7831344604 11.2334413528 59.8189468384
-34.7827033997 11.2329120636 59.6193351746
-34.7833595276 11.2328014374 59.4198608398
-34.7868576050 11.2337818146 59.2207641602
-34.7971763611 11.2373867035 59.0225868225
-34.8225212097 11.2467699051 58.8264579773
-34.8752593994 11.2666864395 58.6340980530
-34.9683799744 11.3021345139 58.4473495483
-35.1082420349 11.3555555344 58.2671661377
-35.2879714966 11.4243087769 58.0926933289
-35.4878044128 11.5007925034 57.9212532043
-35.6829147339 11.5754613876 57.7494125366
-35.8528251648 11.6404399872 57.5742797852
-35.9869728088 11.6916666031 57.3943099976
-36.0858078003 11.7293119431 57.2094955444
-36.1583862305 11.7568616867 57.0210571289
-36.2167587280 11.7789478302 56.8306732178
-36.2695732117 11.7988967896 56.6395568848
-36.3188438416 11.8174819946 56.4479904175
-36.3607368469 11.8332319260 56.2554092407
-36.3884315491 11.8435192108 56.0608024597
-36.3960227966 11.8460769653 55.8632736206
-36.3827056885 11.8405952454 55.6626663208
-36.3545188904 11.8293924332 55.4598274231
-36.3220024109 11.8165254593 55.2562980652
-36.2959098816 11.8061285019 55.0536804199
-36.2844810486 11.8013715744 54.8532180786
-36.2937469482 11.8045730591 54.6558532715
-36.3289031982 11.8177318573 54.4624137878
-36.3940391541 11.8424205780 54.2735710144
-36.4901962280 11.8790378571 54.0895462036
-36.6143913269 11.9264402390 53.9099502563
-36.7609634399 11.9824476242 53.7339553833
-36.9230957031 12.0444412231 53.5605621338
-37.0929069519 12.1093864441 53.3885688782
-37.2613449097 12.1738042831 53.2165832520
-37.4195899963 12.2343034744 53.0432167053
-37.5611648560 12.2883911133 52.8674278259
-37.6834716797 12.3350696564 52.6887741089
-37.7880630493 12.3749332428 52.5074615479
-37.8785476685 12.4093742371 52.3240318298
-37.9568061829 12.4391117096 52.1387596130
-38.0208435059 12.4633789063 51.9512939453
-38.0664863586 12.4805736542 51.7609367371
-38.0904235840 12.4894208908 51.5671119690
-38.0915298462 12.4894857407 51.3695907593
-38.0711708069 12.4812955856 51.1685562134
-38.0344543457 12.4668140411 50.9647979736
-37.9910125732 12.4497461319 50.7598724365
-37.9531135559 12.4348096848 50.5557975769
-37.9327468872 12.4266147614 50.3545799255
-37.9409370422 12.4294052124 50.1580886841
-37.9877014160 12.4470310211 49.9680671692
-38.0791015625 12.4818248749 49.7856101990
-38.2132568359 12.5330619812 49.6104850769
-38.3798065186 12.5967588425 49.4410285950
-38.5631599426 12.6669197083 49.2746467590
-38.7471427917 12.7373228073 49.1086082458
-38.9194450378 12.8032341003 48.9408073425
-39.0738372803 12.8622560501 48.7701454163
-39.2087669373 12.9137945175 48.5963134766
-39.3248863220 12.9580965042 48.4193916321
-39.4241218567 12.9959068298 48.2396736145
-39.5091819763 13.0282640457 48.0576019287
-39.5817909241 13.0558338165 47.8734512329
-39.6413421631 13.0783786774 47.6870841980
-39.6859855652 13.0951919556 47.4981536865
-39.7151603699 13.1060552597 47.3065261841
-39.7307701111 13.1117000580 47.1125106812
-39.7363548279 13.1134891510 46.9167137146
-39.7357025146 13.1128807068 46.7197952271
-39.7322349548 13.1111879349 46.5223617554
-39.7290840149 13.1096172333 46.3249702454
-39.7294044495 13.1093835831 46.1281967163
-39.7365570068 13.1117744446 45.9326629639
-39.7541275024 13.1181755066 45.7390365601
-39.7857284546 13.1299715042 45.5480041504
-39.8345870972 13.1484060287 45.3601837158
-39.9034080505 13.1745185852 45.1761169434
-39.9944076538 13.2091636658 44.9962539673
-40.1083450317 13.2526311874 44.8207817078
-40.2423439026 13.3038139343 44.6492042542
-40.3889541626 13.3598499298 44.4801635742
-40.5383529663 13.4169569016 44.3118400574
-40.6817588806 13.4717607498 44.1425781250
-40.8127479553 13.5217885971 43.9711418152
-40.9260749817 13.5650224686 43.7965126038
-41.0171051025 13.5996799469 43.6177673340
-41.0835571289 13.6248836517 43.4344215393
-41.1272277832 13.6413259506 43.2467727661
-41.1529159546 13.6508502960 43.0557022095
-41.1652793884 13.6552476883 42.8620758057
-41.1666221619 13.6554079056 42.6663169861
-41.1574554443 13.6515235901 42.4684982300
-41.1389503479 13.6440486908 42.2688331604
-41.1149444580 13.6344575882 42.0680541992
-41.0913734436 13.6250343323 41.8673171997
-41.0739440918 13.6179723740 41.6677589417
-41.0664749146 13.6147413254 41.4701423645
-41.0712814331 13.6162338257 41.2749557495
-41.0907821655 13.6233778000 41.0827026367
-41.1291770935 13.6377897263 40.8942527771
-41.1927947998 13.6619052887 40.7109260559
-41.2868003845 13.6977081299 40.5338058472
-41.4083671570 13.7441148758 40.3623886108
-41.5430183411 13.7955551147 40.1937866211
-41.6710586548 13.8444528580 40.0240058899
-41.7799873352 13.8859987259 39.8504829407
-41.8701705933 13.9203338623 39.6732521057
-41.9488296509 13.9502363205 39.4937591553
-42.0205001831 13.9774494171 39.3129234314
-42.0834388733 14.0013055801 39.1303634644
-42.1331596375 14.0200757980 38.9451332092
-42.1674118042 14.0328969955 38.7567367554
-42.1877098083 14.0403470993 38.5654563904
-42.1974067688 14.0437231064 38.3719711304
-42.1992950439 14.0440921783 38.1768417358
-42.1946144104 14.0419368744 37.9803237915
-42.1837310791 14.0373935699 37.7824745178
-42.1672286987 14.0306882858 37.5834083557
-42.1464157104 14.0223255157 37.3833885193
-42.1234741211 14.0131435394 37.1828804016
-42.1021308899 14.0045766830 36.9826774597
-42.0876312256 13.9986429214 36.7839088440
-42.0841598511 13.9969511032 36.5874938965
-42.0921096802 13.9996528625 36.3935432434
-42.1090583801 14.0058164597 36.2015495300
-42.1333656311 14.0148105621 36.0111732483
-42.1664543152 14.0271844864 35.8227462769
-42.2122535706 14.0444469452 35.6371421814
-42.2741813660 14.0679149628 35.4551391602
-42.3511505127 14.0971689224 35.2765312195
-42.4358901978 14.1294136047 35.0997390747
-42.5189056396 14.1609935760 34.9226722717
-42.5951004028 14.1899509430 34.7441864014
-42.6657600403 14.2167787552 34.5645599365
-42.7335166931 14.2424888611 34.3843727112
-42.7966804504 14.2664337158 34.2032318115
-42.8496055603 14.2864389420 34.0198631287
-42.8877983093 14.3007764816 33.8332252502
-42.9112854004 14.3094568253 33.6432952881
-42.9235763550 14.3138303757 33.4508438110
-42.9289550781 14.3155431747 33.2568206787
-42.9309654236 14.3159618378 33.0620307922
-42.9322662354 14.3161058426 32.8670692444
-42.9348030090 14.3167266846 32.6723861694
-42.9399147034 14.3183383942 32.4782905579
-42.9484291077 14.3212575912 32.2849845886
-42.9609184265 14.3257074356 32.0926055908
-42.9783897400 14.3320732117 31.9013919830
-43.0033645630 14.3413257599 31.7119464874
-43.0407333374 14.3553476334 31.5254287720
-43.0969505310 14.3766193390 31.3433818817
-43.1770515442 14.4070825577 31.1670284271
-43.2814865112 14.4469070435 30.9965229034
-43.4052886963 14.4941825867 30.8307380676
-43.5397377014 14.5455551147 30.6676425934
-43.6749191284 14.5972099304 30.5048942566
-43.8022308350 14.6458358765 30.3404388428
-43.9158325195 14.6891889572 30.1728630066
-44.0116119385 14.7256851196 30.0011501312
-44.0849380493 14.7535409927 29.8241481781
-44.1313781738 14.7710561752 29.6407413483
-44.1508979797 14.7782115936 29.4508647919
-44.1500129700 14.7775154114 29.2560482025
-44.1383094788 14.7726583481 29.0585861206
-44.1223983765 14.7661828995 28.8600749969
-44.1024398804 14.7581481934 28.6605396271
-44.0728149414 14.7463951111 28.4585952759
-44.0256309509 14.7278881073 28.2522773743
-43.9556655884 14.7006130219 28.0402584076
-43.8657035828 14.6656446457 27.8231849670
-43.7693481445 14.6282157898 27.6043930054
-43.6865348816 14.5959978104 27.3888359070
-43.6317901611 14.5745801926 27.1801700592
-43.6048965454 14.5638771057 26.9783935547
-43.5937728882 14.5592412949 26.7805328369
-43.5865135193 14.5560922623 26.5836219788
-43.5802040100 14.5533103943 26.3869323730
-43.5799102783 14.5528421402 26.1917495728
-43.5915679932 14.5569725037 25.9995899200
-43.6161918640 14.5660915375 25.8107376099
-43.6493797302 14.5785055161 25.6240959167
-43.6847953796 14.5917768478 25.4380588531
-43.7175407410 14.6040210724 25.2513790131
-43.7449798584 14.6142244339 25.0633697510
-43.7659072876 14.6219215393 24.8737106323
-43.7797317505 14.6268854141 24.6822338104
-43.7864036560 14.6290969849 24.4889144897
-43.7865753174 14.6288080215 24.2939071655
-43.7814674377 14.6264877319 24.0975170135
-43.7721862793 14.6225614548 23.9000205994
-43.7587890625 14.6170501709 23.7014255524
-43.7391510010 14.6091384888 23.5011653900
-43.7082824707 14.5969047546 23.2979145050
-43.6595382690 14.5777940750 23.0898971558
-43.5886573792 14.5501651764 22.8759479523
-43.4984741211 14.5151071548 22.6567726135
-43.4002571106 14.4769592285 22.4353332520
-43.3097229004 14.4417657852 22.2157993317
-43.2401084900 14.4146223068 22.0017261505
-43.1972351074 14.3977689743 21.7947177887
-43.1799659729 14.3907680511 21.5945224762
-43.1850433350 14.3923654556 21.4003124237
-43.2116355896 14.4022417068 21.2119102478
-43.2617034912 14.4211521149 21.0298900604
-43.3360290527 14.4493961334 20.8545112610
-43.4295120239 14.4850130081 20.6844387054
-43.5302162170 14.5234088898 20.5164508820
-43.6234436035 14.5589256287 20.3465461731
-43.6980972290 14.5872974396 20.1716709137
-43.7507781982 14.6072139740 19.9908523560
-43.7849197388 14.6199960709 19.8049888611
-43.8065643311 14.6279697418 19.6157150269
-43.8206253052 14.6330251694 19.4243640900
-43.8294715881 14.6360740662 19.2315750122
-43.8329048157 14.6370391846 19.0372848511
-43.8281135559 14.6348390579 18.8406982422
-43.8098297119 14.6274480820 18.6403255463
-43.7723426819 14.6126661301 18.4345417023
-43.7139396667 14.5898361206 18.2228240967
-43.6415672302 14.5616302490 18.0070877075
-43.5712547302 14.5342168808 17.7918262482
-43.5221176147 14.5149526596 17.5824508667
-43.5069885254 14.5087738037 17.3826427460
-43.5269470215 14.5160980225 17.1927776337
-43.5744819641 14.5340347290 17.0107879639
-43.6410369873 14.5592908859 16.8342838287
-43.7205619812 14.5895376205 16.6615772247
-43.8080520630 14.6228513718 16.4912528992
-43.8986968994 14.6573772430 16.3219451904
-43.9890403748 14.6917886734 16.1526679993
-44.0762672424 14.7250013351 15.9826021194
