-5.3086428642 -38.5137214661 52.2133598328
-5.3109374046 -38.5139503479 52.0150909424
-5.3125042915 -38.5100593567 51.8161735535
-5.3119783401 -38.4943122864 51.6154098511
-5.3091211319 -38.4653739929 51.4125633240
-5.3051366806 -38.4300460815 51.2086677551
-5.3017396927 -38.3980369568 51.0052375793
-5.2999925613 -38.3753700256 50.8032188416
-5.2999663353 -38.3624458313 50.6026954651
-5.3012094498 -38.3567047119 50.4032821655
-5.3033423424 -38.3560028076 50.2046470642
-5.3063602448 -38.3603134155 50.0067977905
-5.3106641769 -38.3719024658 49.8101119995
-5.3169097900 -38.3944892883 49.6151962280
-5.3257312775 -38.4316635132 49.4226531982
-5.3374361992 -38.4851722717 49.2327957153
-5.3517475128 -38.5534477234 49.0453987122
-5.3676061630 -38.6304931641 48.8595085144
-5.3831844330 -38.7059555054 48.6734466553
-5.3963685036 -38.7678604126 48.4852333069
-5.4056229591 -38.8075103760 48.2934036255
-5.4107122421 -38.8235626221 48.0976905823
-5.4127130508 -38.8221206665 47.8990707397
-5.4132981300 -38.8126564026 47.6990890503
-5.4138503075 -38.8030014038 47.4990539551
-5.4150676727 -38.7971153259 47.2996292114
-5.4171085358 -38.7958946228 47.1009712219
-5.4198122025 -38.7984313965 46.9029388428
-5.4227824211 -38.8024749756 46.7051544189
-5.4255738258 -38.8055038452 46.5071868896
-5.4281005859 -38.8070335388 46.3089523315
-5.4308829308 -38.8100128174 46.1109542847
-5.4348316193 -38.8196029663 45.9140930176
-5.4407958984 -38.8406105042 45.7192192078
-5.4491672516 -38.8752708435 45.5267372131
-5.4595994949 -38.9216079712 45.3363304138
-5.4710268974 -38.9735984802 45.1469650269
-5.4822235107 -39.0242767334 44.9574241638
-5.4924855232 -39.0696601868 44.7669944763
-5.5017042160 -39.1091346741 44.5755615234
-5.5098743439 -39.1426658630 44.3831062317
-5.5168066025 -39.1691780090 44.1894226074
-5.5223293304 -39.1876983643 43.9943275452
-5.5265159607 -39.1986503601 43.7978782654
-5.5296030045 -39.2033615112 43.6002998352
-5.5317740440 -39.2028808594 43.4017753601
-5.5330624580 -39.1973876953 43.2023239136
-5.5333881378 -39.1864395142 43.0018501282
-5.5327363014 -39.1699447632 42.8003349304
-5.5314297676 -39.1497306824 42.5981025696
-5.5302786827 -39.1304016113 42.3959922791
-5.5303392410 -39.1179389954 42.1951179504
-5.5324177742 -39.1169242859 41.9963417053
-5.5367283821 -39.1285667419 41.7999153137
-5.5428566933 -39.1505241394 41.6054229736
-5.5499362946 -39.1778755188 41.4119606018
-5.5569982529 -39.2051315308 41.2184982300
-5.5633692741 -39.2284660339 41.0243186951
-5.5688400269 -39.2466964722 40.8291854858
-5.5734863281 -39.2602500916 40.6331710815
-5.5774164200 -39.2697372437 40.4363861084
-5.5807137489 -39.2756347656 40.2389106750
-5.5835509300 -39.2789230347 40.0409240723
-5.5862669945 -39.2815170288 39.8428001404
-5.5892896652 -39.2858543396 39.6450004578
-5.5929274559 -39.2936820984 39.4478721619
-5.5970969200 -39.3045310974 39.2513313293
-5.6011533737 -39.3147354126 39.0546646118
-5.6040802002 -39.3185272217 38.8567390442
-5.6050543785 -39.3112335205 38.6566200256
-5.6039195061 -39.2919692993 38.4541168213
-5.6012053490 -39.2637329102 38.2497940063
-5.5978999138 -39.2321395874 38.0447578430
-5.5952687263 -39.2043685913 37.8404273987
-5.5946488380 -39.1880149841 37.6383323669
-5.5971393585 -39.1893234253 37.4397506714
-5.6032843590 -39.2113761902 37.2453384399
-5.6128239632 -39.2527046204 37.0548362732
-5.6246881485 -39.3072395325 36.8670463562
-5.6374425888 -39.3668327332 36.6803474426
-5.6499209404 -39.4248619080 36.4933929443
-5.6614136696 -39.4772987366 36.3053512573
-5.6714043617 -39.5212097168 36.1156158447
-5.6794619560 -39.5541381836 35.9236640930
-5.6854715347 -39.5754394531 35.7293357849
-5.6897535324 -39.5869293213 35.5329933167
-5.6928281784 -39.5915603638 35.3352241516
-5.6950869560 -39.5915527344 35.1364784241
-5.6966919899 -39.5878334045 34.9369468689
-5.6977639198 -39.5810890198 34.7367591858
-5.6986961365 -39.5735397339 34.5363807678
-5.7002530098 -39.5695457458 34.3367309570
-5.7032732964 -39.5738639832 34.1388244629
-5.7082352638 -39.5892105103 33.9432525635
-5.7150583267 -39.6151351929 33.7499389648
-5.7231321335 -39.6481704712 33.5581626892
-5.7314858437 -39.6828002930 33.3667602539
-5.7392058372 -39.7138252258 33.1746139526
-5.7459654808 -39.7393951416 32.9813194275
-5.7522201538 -39.7620964050 32.7874221802
-5.7589211464 -39.7873382568 32.5940933228
-5.7669820786 -39.8203125000 32.4024658203
-5.7767095566 -39.8627548218 32.2129364014
-5.7874007225 -39.9106826782 32.0246429443
-5.7974934578 -39.9552116394 31.8356571198
-5.8053340912 -39.9869384766 31.6438941956
-5.8100152016 -40.0007057190 31.4481964111
-5.8117265701 -39.9975891113 31.2487640381
-5.8116002083 -39.9840240479 31.0469932556
-5.8112788200 -39.9693450928 30.8449459076
-5.8122897148 -39.9622421265 30.6445560455
-5.8154530525 -39.9673728943 30.4468860626
-5.8206725121 -39.9841995239 30.2518367767
-5.8272132874 -40.0085411072 30.0584869385
-5.8342409134 -40.0356521606 29.8657836914
-5.8412723541 -40.0627861023 29.6731052399
-5.8482737541 -40.0897521973 29.4804115295
-5.8554387093 -40.1176452637 29.2879505157
-5.8628845215 -40.1471405029 29.0958786011
-5.8704195023 -40.1771430969 28.9039478302
-5.8774785995 -40.2044448853 28.7114219666
-5.8833899498 -40.2252120972 28.5174121857
-5.8878302574 -40.2376174927 28.3214817047
-5.8910512924 -40.2430839539 28.1239490509
-5.8937234879 -40.2454261780 27.9256820679
-5.8966636658 -40.2492942810 27.7277622223
-5.9006896019 -40.2593383789 27.5312767029
-5.9065151215 -40.2796249390 27.3371906281
-5.9145040512 -40.3122215271 27.1460094452
-5.9243550301 -40.3554115295 26.9573554993
-5.9351024628 -40.4037094116 26.7699489594
-5.9456086159 -40.4506416321 26.5822677612
-5.9550900459 -40.4917411804 26.3932495117
-5.9632234573 -40.5251693726 26.2024421692
-5.9699492455 -40.5505905151 26.0097541809
-5.9753518105 -40.5684814453 25.8152809143
-5.9797482491 -40.5806427002 25.6194438934
-5.9838218689 -40.5909652710 25.4231662750
-5.9883871078 -40.6040916443 25.2275638580
-5.9937009811 -40.6214790344 25.0329971313
-5.9990406036 -40.6390113831 24.8384761810
-6.0032505989 -40.6501121521 24.6423988342
-6.0057897568 -40.6517028809 24.4440021515
-6.0071454048 -40.6465492249 24.2439441681
-6.0083241463 -40.6403923035 24.0436191559
-6.0101442337 -40.6378860474 23.8441715240
-6.0130367279 -40.6414833069 23.6462135315
-6.0172815323 -40.6527824402 23.4501495361
-6.0231337547 -40.6732330322 23.2563571930
-6.0306019783 -40.7028923035 23.0648651123
-6.0392365456 -40.7391929626 22.8750553131
-6.0483117104 -40.7780075073 22.6859054565
-6.0572123528 -40.8158302307 22.4965457916
-6.0655298233 -40.8503303528 22.3063850403
-6.0728535652 -40.8791770935 22.1148338318
-6.0787343979 -40.8997993469 21.9212322235
-6.0829539299 -40.9109611511 21.7252483368
-6.0857458115 -40.9139938354 21.5272006989
-6.0877089500 -40.9122962952 21.3279438019
-6.0895280838 -40.9097824097 21.1284637451
-6.0917229652 -40.9094047546 20.9295120239
-6.0944995880 -40.9123420715 20.7313957214
-6.0977444649 -40.9179496765 20.5339565277
-6.1011495590 -40.9244689941 20.3367462158
-6.1044096947 -40.9301605225 20.1393184662
-6.1074118614 -40.9343795776 19.9415035248
-6.1103367805 -40.9381637573 19.7435665131
-6.1136326790 -40.9440574646 19.5461711884
-6.1178851128 -40.9554023743 19.3501911163
-6.1235899925 -40.9750289917 19.1563796997
-6.1308803558 -41.0036926270 18.9649486542
-6.1394500732 -41.0396537781 18.7754573822
-6.1488652229 -41.0804328918 18.5872707367
-6.1590104103 -41.1253814697 18.4002227783
-6.1701636314 -41.1760749817 18.2147426605
-6.1825470924 -41.2337875366 18.0311775208
-6.1958212852 -41.2965850830 17.8490257263
-6.2090601921 -41.3591842651 17.6668891907
-6.2212495804 -41.4158058167 17.4832229614
-6.2317914963 -41.4630355835 17.2971000671
-6.2405967712 -41.5003623962 17.1083641052
-6.2479166985 -41.5292205811 16.9173851013
-6.2542104721 -41.5522270203 16.7248497009
-6.2600560188 -41.5726814270 16.5316410065
-6.2660169601 -41.5937919617 16.3386230469
-6.2725028992 -41.6178970337 16.1464347839
-6.2796945572 -41.6460342407 15.9553604126
-6.2874917984 -41.6776237488 15.7652540207
-6.2955174446 -41.7105178833 15.5755329132
-6.3032879829 -41.7419586182 15.3854417801
-6.3104715347 -41.7700538635 15.1944580078
-6.3170237541 -41.7945480347 15.0025043488
-6.3231334686 -41.8165168762 14.8098716736
-6.3291091919 -41.8377265930 14.6170425415
-6.3352661133 -41.8599662781 14.4245147705
-6.3417291641 -41.8839530945 14.2324905396
-6.3482303619 -41.9081611633 14.0405445099
-6.3541531563 -41.9290733337 13.8476934433
-6.3589563370 -41.9435920715 13.6530666351
-6.3626618385 -41.9518470764 13.4566850662
-6.3659434319 -41.9576835632 13.2596187592
-6.3697576523 -41.9665603638 13.0634059906
-6.3749523163 -41.9833145142 12.8694200516
-6.3820948601 -42.0111885071 12.6785955429
-6.3913345337 -42.0510368347 12.4911956787
-6.4021677971 -42.0999832153 12.3064270020
-6.4134511948 -42.1515045166 12.1224422455
-6.4238929749 -42.1982231140 11.9371385574
-6.4326429367 -42.2352867126 11.7491130829
-6.4394569397 -42.2612953186 11.5579452515
-6.4444794655 -42.2770805359 11.3638515472
-6.4480361938 -42.2844963074 11.1673488617
-6.4505538940 -42.2859764099 10.9691257477
-6.4524931908 -42.2841491699 10.7699327469
-6.4542422295 -42.2812385559 10.5704088211
-6.4560599327 -42.2787170410 10.3709812164
-6.4580907822 -42.2774124146 10.1718921661
-6.4604086876 -42.2777481079 9.9732675552
-6.4630718231 -42.2800521851 9.7752084732
-6.4661731720 -42.2848625183 9.5778741837
-6.4698991776 -42.2932395935 9.3815851212
-6.4745473862 -42.3068809509 9.1868476868
-6.4805045128 -42.3280067444 8.9943275452
-6.4881725311 -42.3589019775 8.8047199249
-6.4977350235 -42.4006271362 8.6183576584
-6.5087771416 -42.4508056641 8.4345541000
-6.5201330185 -42.5027809143 8.2513380051
-6.5303759575 -42.5484008789 8.0662755966
-6.5386385918 -42.5827064514 7.8778676987
-6.5449590683 -42.6059188843 7.6861577034
-6.5499405861 -42.6214790344 7.4921617508
-6.5542397499 -42.6331405640 7.2969961166
-6.5583467484 -42.6436996460 7.1015000343
-6.5626273155 -42.6552543640 6.9063048363
-6.5674223900 -42.6697502136 6.7120046616
-6.5730643272 -42.6890869141 6.5191836357
-6.5797481537 -42.7143783569 6.3281903267
-6.5873112679 -42.7446975708 6.1387538910
-6.5951876640 -42.7768135071 5.9498929977
-6.6027374268 -42.8070602417 5.7604880333
-6.6097259521 -42.8340988159 5.5701222420
-6.6164197922 -42.8594551086 5.3792595863
-6.6231555939 -42.8850555420 5.1884913445
-6.6298713684 -42.9105415344 4.9977083206
-6.6361289024 -42.9334068298 4.8061327934
-6.6415309906 -42.9513816833 4.6130533218
-6.6460242271 -42.9641609192 4.4183659554
-6.6498513222 -42.9731292725 4.2224922180
-6.6533503532 -42.9802246094 4.0260305405
-6.6568455696 -42.9872932434 3.8295574188
-6.6606755257 -42.9962768555 3.6336817741
-6.6652488708 -43.0095138550 3.4391429424
-6.6709632874 -43.0292816162 3.2466671467
-6.6779379845 -43.0562553406 3.0564818382
-6.6857824326 -43.0882072449 2.8678946495
-6.6937150955 -43.1206626892 2.6794962883
-6.7009692192 -43.1492424011 2.4898941517
-6.7071003914 -43.1713943481 2.2982678413
-6.7120075226 -43.1865501404 2.1044225693
-6.7158617973 -43.1956787109 1.9086560011
-6.7190828323 -43.2011833191 1.7117263079
-6.7222886086 -43.2066001892 1.5147621632
-6.7260785103 -43.2153587341 1.3188680410
-6.7307052612 -43.2289085388 1.1245164871
-6.7359004021 -43.2457084656 0.9312212467
-6.7410898209 -43.2624778748 0.7379238009
-6.7458562851 -43.2768287659 0.5438498855
-6.7502646446 -43.2891273499 0.3491146863
-6.7549028397 -43.3027420044 0.1548111588
-16.0616664886 -34.0078544617 80.9536895752
-16.0571346283 -33.9946708679 80.7556838989
-16.0483360291 -33.9734878540 80.5571060181
-16.0384960175 -33.9503479004 80.3583450317
-16.0307197571 -33.9310798645 80.1598129272
-16.0263252258 -33.9181480408 79.9616851807
-16.0246429443 -33.9103050232 79.7638854980
-16.0245761871 -33.9054832458 79.5662765503
-16.0257549286 -33.9029998779 79.3688201904
-16.0279579163 -33.9024353027 79.1714859009
-16.0302238464 -33.9019889832 78.9741516113
-16.0316886902 -33.9000396729 78.7766876221
-16.0331802368 -33.8981437683 78.5792160034
-16.0370407104 -33.9006843567 78.3820648193
-16.0449466705 -33.9108123779 78.1854858398
-16.0562057495 -33.9272308350 77.9893951416
-16.0683326721 -33.9452743530 77.7934417725
-16.0788936615 -33.9603805542 77.5972671509
-16.0867118835 -33.9703407288 77.4006958008
-16.0917587280 -33.9751129150 77.2037124634
-16.0945796967 -33.9757041931 77.0063934326
-16.0959186554 -33.9735183716 76.8088302612
-16.0965633392 -33.9700279236 76.6111450195
-16.0971412659 -33.9664115906 76.4134292603
-16.0979518890 -33.9632339478 76.2157363892
-16.0989799500 -33.9604682922 76.0180664063
-16.1000957489 -33.9578590393 75.8203887939
-16.1012287140 -33.9552841187 75.6226959229
-16.1024703979 -33.9529113770 75.4250106812
-16.1040763855 -33.9512252808 75.2273712158
-16.1064605713 -33.9509925842 75.0298385620
-16.1101799011 -33.9532699585 74.8325195313
-16.1159343719 -33.9593620300 74.6355285645
-16.1244602203 -33.9706497192 74.4390029907
-16.1361885071 -33.9879455566 74.2430267334
-16.1506786346 -34.0104255676 74.0475311279
-16.1664009094 -34.0352134705 73.8522720337
-16.1814117432 -34.0586662292 73.6569137573
-16.1945552826 -34.0786170959 73.4612426758
-16.2060623169 -34.0955009460 73.2653045654
-16.2171497345 -34.1115989685 73.0693054199
-16.2291793823 -34.1294593811 72.8734817505
-16.2429027557 -34.1505050659 72.6779785156
-16.2578182220 -34.1737823486 72.4827117920
-16.2718772888 -34.1954536438 72.2873077393
-16.2819766998 -34.2096977234 72.0911941528
-16.2850131989 -34.2106933594 71.8937759399
-16.2789840698 -34.1946792603 71.6946411133
-16.2639942169 -34.1618499756 71.4937896729
-16.2429027557 -34.1175765991 71.2917175293
-16.2207450867 -34.0713005066 71.0893707275
-16.2027435303 -34.0328216553 70.8877410889
-16.1923274994 -34.0085716248 70.6875228882
-16.1905078888 -34.0004501343 70.4889297485
-16.1963481903 -34.0066986084 70.2918167114
-16.2075443268 -34.0229949951 70.0957641602
-16.2209911346 -34.0435180664 69.9001770020
-16.2338123322 -34.0628662109 69.7044754028
-16.2445449829 -34.0782966614 69.5083618164
-16.2535438538 -34.0904731750 69.3119125366
-16.2621669769 -34.1019439697 69.1153945923
-16.2713260651 -34.1144218445 68.9189834595
-16.2803363800 -34.1266212463 68.7225570679
-16.2870864868 -34.1345787048 68.5256576538
-16.2898597717 -34.1350708008 68.3279190063
-16.2893886566 -34.1294746399 68.1294937134
-16.2889652252 -34.1239700317 67.9310531616
-16.2923221588 -34.1255607605 67.7333984375
-16.3012466431 -34.1375961304 67.5369338989
-16.3148097992 -34.1583404541 67.3414840698
-16.3304481506 -34.1829795837 67.1464996338
-16.3457126617 -34.2069129944 66.9514541626
-16.3593635559 -34.2278213501 66.7560806274
-16.3714542389 -34.2458038330 66.5603713989
-16.3828010559 -34.2623901367 66.3645172119
-16.3941287994 -34.2789382935 66.1686630249
-16.4050865173 -34.2947959900 65.9727478027
-16.4138526917 -34.3065376282 65.7763366699
-16.4181652069 -34.3099174500 65.5789108276
-16.4172954559 -34.3035736084 65.3802871704
-16.4131431580 -34.2910652161 65.1808853149
-16.4093894958 -34.2793083191 64.9815444946
-16.4097385406 -34.2752456665 64.7831344604
-16.4167957306 -34.2837791443 64.5862808228
-16.4316234589 -34.3069000244 64.3912734985
-16.4531059265 -34.3425140381 64.1978683472
-16.4777030945 -34.3839721680 64.0052490234
-16.5008563995 -34.4227256775 63.8123283386
-16.5193576813 -34.4527473450 63.6183242798
-16.5323581696 -34.4724388123 63.4230155945
-16.5403461456 -34.4827232361 63.2264900208
-16.5436744690 -34.4842567444 63.0288238525
-16.5421752930 -34.4767303467 62.8299560547
-16.5359516144 -34.4603271484 62.6298866272
-16.5265407562 -34.4379425049 62.4289817810
-16.5172538757 -34.4157905579 62.2280693054
-16.5118427277 -34.4009094238 62.0280914307
-16.5121746063 -34.3968200684 61.8295364380
-16.5170631409 -34.4012756348 61.6321296692
-16.5234279633 -34.4085121155 61.4350967407
-16.5287303925 -34.4137458801 61.2377891541
-16.5324592590 -34.4160308838 61.0400657654
-16.5358390808 -34.4176597595 60.8422470093
-16.5406379700 -34.4219512939 60.6447868347
-16.5481777191 -34.4313888550 60.4480438232
-16.5587196350 -34.4464683533 60.2520942688
-16.5711517334 -34.4650917053 60.0566596985
-16.5834980011 -34.4835586548 59.8612174988
-16.5942707062 -34.4990692139 59.6653671265
-16.6034755707 -34.5116348267 59.4691009521
-16.6123867035 -34.5236511230 59.2727622986
-16.6224212646 -34.5377731323 59.0767326355
-16.6340656281 -34.5549201965 58.8811569214
-16.6468143463 -34.5741462708 58.6858940125
-16.6601886749 -34.5945434570 58.4908218384
-16.6744251251 -34.6165618896 58.2960052490
-16.6896305084 -34.6404037476 58.1014823914
-16.7045860291 -34.6637725830 57.9069061279
-16.7171440125 -34.6826362610 57.7116775513
-16.7257728577 -34.6941261292 57.5153503418
-16.7302875519 -34.6978836060 57.3178520203
-16.7312145233 -34.6949043274 57.1193199158
-16.7287921906 -34.6856346130 56.9198074341
-16.7224559784 -34.6690063477 56.7191429138
-16.7110843658 -34.6429214478 56.5169754028
-16.6941928864 -34.6064682007 56.3131484985
-16.6736106873 -34.5630760193 56.1081771851
-16.6540927887 -34.5216827393 55.9034461975
-16.6415004730 -34.4932975769 55.7006912231
-16.6394329071 -34.4846878052 55.5010070801
-16.6473636627 -34.4948577881 55.3042869568
-16.6623153687 -34.5182228088 55.1096725464
-16.6821479797 -34.5507507324 54.9165458679
-16.7064571381 -34.5916976929 54.7248115540
-16.7339382172 -34.6385993958 54.5340843201
-16.7597942352 -34.6824531555 54.3429183960
-16.7774238586 -34.7108497620 54.1492843628
-16.7834300995 -34.7174072266 53.9520950317
-16.7804336548 -34.7070503235 53.7521209717
-16.7746639252 -34.6914825439 53.5512619019
-16.7713050842 -34.6804389954 53.3511161804
-16.7723083496 -34.6775932312 53.1523094177
-16.7775154114 -34.6826515198 52.9548110962
-16.7864418030 -34.6946945190 52.7584838867
-16.7985954285 -34.7128028870 52.5631828308
-16.8125915527 -34.7343711853 52.3684806824
-16.8256111145 -34.7541084290 52.1734886169
-16.8342819214 -34.7656745911 51.9771156311
-16.8366279602 -34.7653541565 51.7787055969
-16.8335628510 -34.7548637390 51.5785293579
-16.8285522461 -34.7407150269 51.3776893616
-16.8254070282 -34.7300682068 51.1774291992
-16.8260154724 -34.7264823914 50.9783744812
-16.8300304413 -34.7292938232 50.7804222107
-16.8363780975 -34.7364921570 50.5832366943
-16.8447284698 -34.7474555969 50.3867111206
-16.8558712006 -34.7636604309 50.1911201477
-16.8713436127 -34.7880096436 49.9969940186
-16.8925266266 -34.8230934143 49.8048057556
-16.9189987183 -34.8681144714 49.6144409180
-16.9474353790 -34.9168357849 49.4247970581
-16.9728889465 -34.9599456787 49.2341918945
-16.9916362762 -34.9904518127 49.0413513184
-17.0027809143 -35.0066719055 48.8459320068
-17.0074157715 -35.0106544495 48.6482849121
-17.0071182251 -35.0053596497 48.4489250183
-17.0034599304 -34.9937515259 48.2483787537
-16.9982261658 -34.9791793823 48.0472564697
-16.9933986664 -34.9653663635 47.8462409973
-16.9910812378 -34.9562759399 47.6460762024
-16.9935665131 -34.9562149048 47.4475784302
-17.0023651123 -34.9680175781 47.2513008118
-17.0162754059 -34.9894332886 47.0568428040
-17.0314102173 -35.0131530762 46.8628387451
-17.0442161560 -35.0324935913 46.6680259705
-17.0541210175 -35.0463829041 46.4721870422
-17.0632190704 -35.0587539673 46.2760620117
-17.0743942261 -35.0750274658 46.0806961060
-17.0900344849 -35.0997009277 45.8869628906
-17.1113052368 -35.1349601746 45.6953048706
-17.1372928619 -35.1790885925 45.5054092407
-17.1647872925 -35.2260513306 45.3161201477
-17.1897583008 -35.2682685852 45.1259574890
-17.2097320557 -35.3010940552 44.9339942932
-17.2249794006 -35.3250274658 44.7403106689
-17.2375164032 -35.3438720703 44.5456390381
-17.2489528656 -35.3606414795 44.3505706787
-17.2590942383 -35.3749809265 44.1550292969
-17.2670078278 -35.3851242065 43.9586563110
-17.2737617493 -35.3930931091 43.7618484497
-17.2831192017 -35.4059562683 43.5660247803
-17.2981891632 -35.4295616150 43.3723831177
-17.3178310394 -35.4617652893 43.1805114746
-17.3374195099 -35.4938735962 42.9886550903
-17.3528804779 -35.5182151794 42.7952384949
-17.3632297516 -35.5329437256 42.5998764038
-17.3698120117 -35.5405883789 42.4030609131
-17.3742218018 -35.5441474915 42.2054023743
-17.3770217896 -35.5446777344 42.0071067810
-17.3776721954 -35.5411682129 41.8079566956
-17.3755149841 -35.5323753357 41.6076889038
-17.3710842133 -35.5193023682 41.4064979553
-17.3663673401 -35.5056915283 41.2051658630
-17.3635654449 -35.4956817627 41.0045585632
-17.3641014099 -35.4919509888 40.8052558899
-17.3688392639 -35.4961242676 40.6076126099
-17.3777351379 -35.5081176758 40.4116325378
-17.3884925842 -35.5236206055 40.2164077759
-17.3970298767 -35.5349388123 40.0202941895
-17.4005584717 -35.5368385315 39.8221588135
-17.3998870850 -35.5308303833 39.6223030090
-17.3984508514 -35.5233917236 39.4221191406
-17.3997859955 -35.5211601257 39.2230415344
-17.4058609009 -35.5278511047 39.0258979797
-17.4166584015 -35.5434226990 38.8306922913
-17.4305648804 -35.5648422241 38.6367874146
-17.4455528259 -35.5883026123 38.4433441162
-17.4605579376 -35.6117897034 38.2499351501
-17.4757556915 -35.6356430054 38.0566253662
-17.4914951324 -35.6605148315 37.8635635376
-17.5071544647 -35.6852416992 37.6704902649
-17.5212516785 -35.7070236206 37.4767837524
-17.5325298309 -35.7235031128 37.2819061279
-17.5408802032 -35.7344741821 37.0858001709
-17.5474777222 -35.7421455383 36.8889503479
-17.5545043945 -35.7506256104 36.6922798157
-17.5647125244 -35.7650947571 36.4969749451
-17.5806293488 -35.7903060913 36.3041267395
-17.6032028198 -35.8280410767 36.1141738892
-17.6307029724 -35.8750534058 35.9263916016
-17.6592311859 -35.9239959717 35.7391128540
-17.6848983765 -35.9675598145 35.5506439209
-17.7059803009 -36.0024948120 35.3602294922
-17.7232437134 -36.0302429199 35.1681785583
-17.7385387421 -36.0542869568 34.9752922058
-17.7529811859 -36.0767326355 34.7820549011
-17.7661495209 -36.0967712402 34.5882759094
-17.7767353058 -36.1119575500 34.3933639526
-17.7839183807 -36.1207351685 34.1969528198
-17.7880058289 -36.1236877441 33.9991607666
-17.7898635864 -36.1224441528 33.8003654480
-17.7899436951 -36.1178512573 33.6007575989
-17.7878398895 -36.1091499329 33.4001502991
-17.7828655243 -36.0950431824 33.1982192993
-17.7752895355 -36.0760421753 32.9950790405
-17.7670726776 -36.0558280945 32.7916107178
-17.7610244751 -36.0396957397 32.5890846252
-17.7590789795 -36.0312919617 32.3884010315
-17.7614002228 -36.0309143066 32.1896438599
-17.7669410706 -36.0366020203 31.9923553467
-17.7745151520 -36.0461120605 31.7959976196
-17.7833709717 -36.0580368042 31.6002349854
-17.7932109833 -36.0718154907 31.4049339294
-17.8038921356 -36.0871772766 31.2100296021
-17.8151531219 -36.1036300659 31.0154075623
-17.8266639709 -36.1205558777 30.8209133148
-17.8384304047 -36.1379585266 30.6265506744
-17.8510417938 -36.1569557190 30.4325981140
-17.8655300140 -36.1794891357 30.2395477295
-17.8828907013 -36.2074279785 30.0478744507
-17.9033088684 -36.2411270142 29.8576793671
-17.9254531860 -36.2780761719 29.6683444977
-17.9465866089 -36.3131217957 29.4785671234
-17.9636573792 -36.3405189514 29.2868824005
-17.9748439789 -36.3568382263 29.0924053192
-17.9809513092 -36.3635902405 28.8954925537
-17.9855632782 -36.3675270081 28.6978569031
-17.9931735992 -36.3771133423 28.5016651154
-18.0064849854 -36.3974304199 28.3082427979
-18.0252952576 -36.4281082153 28.1175136566
-18.0474319458 -36.4650497437 27.9284381866
-18.0699558258 -36.5027198792 27.7395954132
-18.0896778107 -36.5351142883 27.5494174957
-18.1037483215 -36.5568695068 27.3564968109
-18.1109008789 -36.5655899048 27.1601791382
-18.1123695374 -36.5636138916 26.9610481262
-18.1113815308 -36.5570030212 26.7606849670
-18.1112670898 -36.5520401001 26.5607337952
-18.1138610840 -36.5521774292 26.3621158600
-18.1194782257 -36.5580062866 26.1649951935
-18.1276798248 -36.5687065125 25.9691696167
-18.1375331879 -36.5825157166 25.7741775513
-18.1476421356 -36.5968093872 25.5793228149
-18.1570491791 -36.6097793579 25.3841209412
-18.1663017273 -36.6224594116 25.1888465881
-18.1770782471 -36.6380119324 24.9943542480
-18.1904640198 -36.6584777832 24.8012027740
-18.2057552338 -36.6825332642 24.6090431213
-18.2209224701 -36.7063522339 24.4168395996
-18.2340030670 -36.7262420654 24.2235889435
-18.2440357208 -36.7403945923 24.0287818909
-18.2510242462 -36.7488098145 23.8324127197
-18.2555465698 -36.7525825500 23.6347637177
-18.2585220337 -36.7534370422 23.4363059998
-18.2610740662 -36.7534942627 23.2376174927
-18.2642784119 -36.7547798157 23.0392551422
-18.2689304352 -36.7587928772 22.8416404724
-18.2756500244 -36.7667007446 22.6451053619
-18.2852115631 -36.7799682617 22.4500656128
-18.2987365723 -36.8006973267 22.2571220398
-18.3172664642 -36.8308563232 22.0668449402
-18.3407382965 -36.8703346252 21.8792209625
-18.3671073914 -36.9152679443 21.6931819916
-18.3927574158 -36.9588470459 21.5068111420
-18.4142990112 -36.9946861267 21.3182964325
-18.4302463531 -37.0199890137 21.1268253326
-18.4411945343 -37.0358657837 20.9326915741
-18.4487667084 -37.0453834534 20.7367515564
-18.4546203613 -37.0516624451 20.5398845673
-18.4600868225 -37.0572166443 20.3428058624
-18.4662094116 -37.0640029907 20.1460781097
-18.4738388062 -37.0736274719 19.9501667023
-18.4836769104 -37.0874137878 19.7554626465
-18.4961299896 -37.1061325073 19.5621967316
-18.5109481812 -37.1293067932 19.3702411652
-18.5271415710 -37.1550750732 19.1790618896
-18.5435504913 -37.1812477112 18.9880275726
-18.5594234467 -37.2064170837 18.7967243195
-18.5740928650 -37.2293128967 18.6047763824
-18.5862312317 -37.2474365234 18.4114456177
-18.5942726135 -37.2578430176 18.2158508301
-18.5981330872 -37.2603683472 18.0179271698
-18.6003513336 -37.2597961426 17.8190746307
-18.6050376892 -37.2638778687 17.6215934753
-18.6151695251 -37.2782211304 17.4271640778
-18.6302986145 -37.3019866943 17.2355594635
-18.6467552185 -37.3282546997 17.0447273254
-18.6605587006 -37.3495216370 16.8524169922
-18.6706809998 -37.3638496399 16.6580390930
-18.6795082092 -37.3757362366 16.4629325867
-18.6902713776 -37.3912734985 16.2689342499
-18.7042598724 -37.4128913879 16.0767898560
-18.7202186584 -37.4382247925 15.8857917786
-18.7357978821 -37.4628410339 15.6946001053
-18.7494068146 -37.4837455750 15.5023002625
-18.7610359192 -37.5009155273 15.3088750839
-18.7719078064 -37.5166587830 15.1150245667
-18.7836914063 -37.5341224670 14.9217138290
-18.7977771759 -37.5559272766 14.7297534943
-18.8146076202 -37.5829048157 14.5394105911
-18.8334007263 -37.6135864258 14.3502407074
-18.8527050018 -37.6452331543 14.1614017487
-18.8712940216 -37.6755294800 13.9721775055
-18.8884735107 -37.7031707764 13.7821569443
-18.9038848877 -37.7274780273 13.5911216736
-18.9176368713 -37.7486572266 13.3991298676
-18.9306125641 -37.7683677673 13.2066965103
-18.9440116882 -37.7888870239 13.0145320892
-18.9581069946 -37.8107109070 12.8227977753
-18.9714012146 -37.8310279846 12.6306066513
-18.9814453125 -37.8452186584 12.4364900589
-18.9868679047 -37.8506889343 12.2396144867
-18.9888687134 -37.8497085571 12.0406799316
-18.9906425476 -37.8483009338 11.8415966034
-18.9952468872 -37.8522300720 11.6442050934
-19.0037536621 -37.8635177612 11.4491643906
-19.0150661469 -37.8801002502 11.2558288574
-19.0272560120 -37.8983345032 11.0630369186
-19.0391578674 -37.9160270691 10.8700838089
-19.0510158539 -37.9336395264 10.6771192551
-19.0640125275 -37.9533958435 10.4848613739
-19.0792007446 -37.9772872925 10.2939643860
-19.0965557098 -38.0052719116 10.1044206619
-19.1146221161 -38.0345954895 9.9153413773
-19.1311550140 -38.0610237122 9.7253475189
-19.1443595886 -38.0811767578 9.5333232880
-19.1536998749 -38.0940399170 9.3389215469
-19.1598777771 -38.1009368896 9.1425628662
-19.1645927429 -38.1050796509 8.9452924728
-19.1704578400 -38.1113891602 8.7487325668
-19.1806564331 -38.1258735657 8.5548772812
-19.1979255676 -38.1536941528 8.3654594421
-19.2232685089 -38.1967468262 8.1811389923
-19.2554283142 -38.2526664734 8.0011577606
-19.2915248871 -38.3160095215 7.8237266541
-19.3281307220 -38.3803176880 7.6466984749
-19.3618431091 -38.4391670227 7.4679193497
-19.3893871307 -38.4863815308 7.2852997780
-19.4082527161 -38.5172233582 7.0972170830
-19.4179096222 -38.5306930542 6.9032974243
-19.4201965332 -38.5302543640 6.7046780586
-19.4181308746 -38.5216064453 6.5032587051
-19.4143371582 -38.5096931458 6.3007054329
-19.4104576111 -38.4976196289 6.0980682373
-19.4074325562 -38.4871559143 5.8959507942
-19.4058227539 -38.4793663025 5.6947212219
-19.4059104919 -38.4747734070 5.4945640564
-19.4077358246 -38.4734649658 5.2955160141
-19.4112873077 -38.4754104614 5.0975751877
-19.4167575836 -38.4809761047 4.9008736610
-19.4247856140 -38.4913711548 4.7058377266
-19.4365196228 -38.5087547302 4.5132269859
-19.4533119202 -38.5356903076 4.3239445686
-19.4758625031 -38.5734901428 4.1384711266
-19.5030097961 -38.6199684143 3.9560647011
-19.5313091278 -38.6686210632 3.7744741440
-19.5564937592 -38.7113952637 3.5908839703
-19.5759220123 -38.7433052063 3.4035313129
-19.5897388458 -38.7646331787 3.2124910355
-19.5999488831 -38.7791481018 3.0190703869
-19.6087856293 -38.7910690308 2.8247435093
-19.6179237366 -38.8035621643 2.6306223869
-19.6285247803 -38.8188171387 2.4374866486
-19.6412734985 -38.8381233215 2.2458014488
-19.6560001373 -38.8611679077 2.0554602146
-19.6714553833 -38.8855857849 1.8656315804
-19.6858959198 -38.9080886841 1.6751410961
-19.6981124878 -38.9263916016 1.4831676483
-19.7079257965 -38.9401626587 1.2895816565
-19.7158470154 -38.9503593445 1.0947180986
-19.7225131989 -38.9581871033 0.8990039825
-19.7285690308 -38.9648628235 0.7028734088
-19.7351074219 -38.9724464417 0.5070690513
-19.7443656921 -38.9851722717 0.3131258488
-19.7600383759 -39.0100021362 0.1235856414
-25.5693340302 -27.1727886200 80.9361648560
-25.5775108337 -27.1775970459 80.7393341064
-25.5914001465 -27.1879062653 80.5429763794
-25.6086883545 -27.2014884949 80.3469085693
-25.6271972656 -27.2162494659 80.1509628296
-25.6454658508 -27.2307758331 79.9550094604
-25.6625118256 -27.2441253662 79.7589721680
-25.6771278381 -27.2551364899 79.5627288818
-25.6873302460 -27.2618961334 79.3661041260
-25.6910343170 -27.2623958588 79.1689071655
-25.6885204315 -27.2569065094 78.9711380005
-25.6841773987 -27.2496566772 78.7731781006
-25.6840782166 -27.2464923859 78.5755920410
-25.6910800934 -27.2501678467 78.3786392212
-25.7029914856 -27.2585735321 78.1821441650
-25.7153720856 -27.2674293518 77.9857025146
-25.7250843048 -27.2737159729 77.7890090942
-25.7314872742 -27.2768154144 77.5919952393
-25.7356128693 -27.2777214050 77.3947601318
-25.7388076782 -27.2777290344 77.1974182129
-25.7416133881 -27.2773609161 77.0000381470
-25.7434406281 -27.2760524750 76.8025360107
-25.7433071136 -27.2728538513 76.6048355103
-25.7409801483 -27.2675418854 76.4068908691
-25.7374954224 -27.2611141205 76.2088088989
-25.7345695496 -27.2552242279 76.0107574463
-25.7334537506 -27.2510776520 75.8128738403
-25.7342815399 -27.2488040924 75.6151809692
-25.7364101410 -27.2477836609 75.4176101685
-25.7391529083 -27.2473545074 75.2200927734
-25.7422428131 -27.2472591400 75.0225982666
-25.7459964752 -27.2478046417 74.8251647949
-25.7512416840 -27.2497844696 74.6278839111
-25.7587108612 -27.2539081573 74.4308471680
-25.7678756714 -27.2596664429 74.2339859009
-25.7764053345 -27.2648124695 74.0370635986
-25.7816963196 -27.2668380737 73.8397674561
-25.7836551666 -27.2656497955 73.6420898438
-25.7855930328 -27.2644443512 73.4443893433
-25.7915878296 -27.2671489716 73.2471542358
-25.8028697968 -27.2749443054 73.0505218506
-25.8170337677 -27.2855205536 72.8542327881
-25.8303813934 -27.2953071594 72.6578521729
-25.8404216766 -27.3019084930 72.4610900879
-25.8466796875 -27.3048648834 72.2638778687
-25.8502845764 -27.3052654266 72.0663375854
-25.8533363342 -27.3051319122 71.8687210083
-25.8582649231 -27.3068065643 71.6713180542
-25.8672161102 -27.3123569489 71.4744110107
-25.8814849854 -27.3230323792 71.2781524658
-25.9009685516 -27.3387355804 71.0825653076
-25.9236621857 -27.3575305939 70.8873901367
-25.9458332062 -27.3758239746 70.6921768188
-25.9634609222 -27.3897380829 70.4964065552
-25.9741382599 -27.3969535828 70.2997589111
-25.9779205322 -27.3975238800 70.1022262573
-25.9766635895 -27.3932361603 69.9040222168
-25.9729309082 -27.3865642548 69.7054748535
-25.9692668915 -27.3799571991 69.5069198608
-25.9677925110 -27.3754596710 69.3086242676
-25.9698772430 -27.3743915558 69.1107940674
-25.9758434296 -27.3770656586 68.9134674072
-25.9848556519 -27.3826751709 68.7165451050
-25.9951019287 -27.3894748688 68.5197982788
-26.0042896271 -27.3952541351 68.3228988647
-26.0103359222 -27.3980064392 68.1255722046
-26.0119533539 -27.3964881897 67.9276275635
-26.0088253021 -27.3903942108 67.7290039063
-26.0012722015 -27.3800334930 67.5297317505
-25.9898014069 -27.3658981323 67.3298797607
-25.9752559662 -27.3487968445 67.1295471191
-25.9597568512 -27.3307781219 66.9290466309
-25.9475364685 -27.3159160614 66.7289657593
-25.9442234039 -27.3096408844 66.5301437378
-25.9545536041 -27.3165206909 66.3332901001
-25.9798851013 -27.3378620148 66.1386413574
-26.0172710419 -27.3708248138 65.9457931519
-26.0609741211 -27.4098796844 65.7539367676
-26.1054306030 -27.4496593475 65.5622558594
-26.1471176147 -27.4867725372 65.3702163696
-26.1842556000 -27.5195007324 65.1775436401
-26.2160377502 -27.5470638275 64.9841079712
-26.2427825928 -27.5697727203 64.7899398804
-26.2659168243 -27.5889987946 64.5952529907
-26.2865924835 -27.6058578491 64.4002075195
-26.3043384552 -27.6198902130 64.2047195435
-26.3174839020 -27.6294841766 64.0085372925
-26.3247032166 -27.6333675385 63.8114242554
-26.3255329132 -27.6310882568 63.6133003235
-26.3196430206 -27.6223297119 63.4140892029
-26.3070106506 -27.6070709229 63.2137794495
-26.2897872925 -27.5873813629 63.0126876831
-26.2732849121 -27.5683879852 62.8116722107
-26.2633552551 -27.5557327271 62.6116752625
-26.2621860504 -27.5515232086 62.4130744934
-26.2673130035 -27.5533866882 62.2154922485
-26.2746467590 -27.5573768616 62.0182647705
-26.2815952301 -27.5609951019 61.8209724426
-26.2876434326 -27.5637474060 61.6235237122
-26.2933139801 -27.5661334991 61.4260063171
-26.2993144989 -27.5688381195 61.2285385132
-26.3062953949 -27.5724887848 61.0312309265
-26.3149032593 -27.5777072906 60.8341979980
-26.3257694244 -27.5851039886 60.6375465393
-26.3390159607 -27.5947971344 60.4413108826
-26.3532466888 -27.6054420471 60.2452507019
-26.3651657104 -27.6138534546 60.0487976074
-26.3711624146 -27.6165542603 59.8513145447
-26.3701610565 -27.6125049591 59.6525955200
-26.3647994995 -27.6042499542 59.4530906677
-26.3593406677 -27.5959014893 59.2535438538
-26.3564434052 -27.5900230408 59.0544281006
-26.3563785553 -27.5868740082 58.8557968140
-26.3590431213 -27.5863609314 58.6576385498
-26.3654079437 -27.5894165039 58.4601402283
-26.3760776520 -27.5966243744 58.2634162903
-26.3890895844 -27.6060886383 58.0671234131
-26.4002265930 -27.6137466431 57.8704948425
-26.4058322906 -27.6160697937 57.6728477478
-26.4053268433 -27.6124954224 57.4740638733
-26.4013614655 -27.6055850983 57.2746200562
-26.3979816437 -27.5992374420 57.0752601624
-26.3989372253 -27.5970745087 56.8766937256
-26.4075489044 -27.6022949219 56.6795539856
-26.4268226624 -27.6178035736 56.4844398499
-26.4581985474 -27.6449871063 56.2916450500
-26.4997310638 -27.6819686890 56.1008300781
-26.5456886292 -27.7232227325 55.9109268188
-26.5881576538 -27.7611103058 55.7204132080
-26.6198177338 -27.7885723114 55.5278587341
-26.6363620758 -27.8014469147 55.3323974609
-26.6373653412 -27.7993297577 55.1339111328
-26.6257610321 -27.7850494385 54.9329299927
-26.6066589355 -27.7635326385 54.7304306030
-26.5859928131 -27.7405052185 54.5275726318
-26.5691394806 -27.7211551666 54.3254203796
-26.5600032806 -27.7092514038 54.1247634888
-26.5609493256 -27.7070770264 53.9261054993
-26.5730781555 -27.7156925201 53.7296867371
-26.5959663391 -27.7346897125 53.5354576111
-26.6271572113 -27.7616996765 53.3429412842
-26.6624870300 -27.7927036285 53.1513099670
-26.6976718903 -27.8235683441 52.9596939087
-26.7301349640 -27.8518085480 52.7675628662
-26.7595729828 -27.8771286011 52.5748481750
-26.7867946625 -27.9003105164 52.3817024231
-26.8122692108 -27.9218101501 52.1882286072
-26.8360214233 -27.9416427612 51.9944190979
-26.8582057953 -27.9599666595 51.8003044128
-26.8786544800 -27.9766139984 51.6058464050
-26.8957118988 -27.9899883270 51.4106864929
-26.9067420959 -27.9975471497 51.2142524719
-26.9108905792 -27.9984645844 51.0163497925
-26.9112167358 -27.9956912994 50.8176193237
-26.9132213593 -27.9945392609 50.6192321777
-26.9206600189 -27.9986305237 50.4220085144
-26.9331111908 -28.0075607300 50.2258758545
-26.9477386475 -28.0185909271 50.0302238464
-26.9625034332 -28.0297546387 49.8346099854
-26.9772872925 -28.0409355164 49.6390113831
-26.9927158356 -28.0527400970 49.4435653687
-27.0084400177 -28.0648288727 49.2481956482
-27.0219593048 -28.0747909546 49.0523452759
-27.0288982391 -28.0783996582 48.8550262451
-27.0253200531 -28.0718574524 48.6553421021
-27.0107269287 -28.0546817780 48.4531517029
-26.9889373779 -28.0305595398 48.2492904663
-26.9660186768 -28.0053443909 48.0451126099
-26.9472274780 -27.9841156006 47.8418235779
-26.9352474213 -27.9694595337 47.6400451660
-26.9302883148 -27.9615802765 47.4398460388
-26.9309272766 -27.9591045380 47.2409133911
-26.9347724915 -27.9597263336 47.0427055359
-26.9396057129 -27.9612998962 46.8447189331
-26.9452495575 -27.9636554718 46.6469154358
-26.9540081024 -27.9690208435 46.4498367310
-26.9682617188 -27.9796886444 46.2540473938
-26.9881000519 -27.9957485199 46.0595855713
-27.0121231079 -28.0158500671 45.8661346436
-27.0394897461 -28.0391807556 45.6735038757
-27.0698528290 -28.0654029846 45.4816207886
-27.1021194458 -28.0934658051 45.2902336121
-27.1347770691 -28.1219062805 45.0989799500
-27.1673469543 -28.1502609253 44.9077453613
-27.2001323700 -28.1788272858 44.7166023254
-27.2321777344 -28.2066764832 44.5253219604
-27.2605609894 -28.2309913635 44.3331909180
-27.2823867798 -28.2489776611 44.1394844055
-27.2969112396 -28.2599105835 43.9440040588
-27.3054389954 -28.2650547028 43.7470550537
-27.3098735809 -28.2662448883 43.5490913391
-27.3117046356 -28.2649211884 43.3504714966
-27.3119678497 -28.2620849609 43.1514472961
-27.3115348816 -28.2585735321 42.9522323608
-27.3112125397 -28.2551708221 42.7530288696
-27.3115158081 -28.2523708344 42.5539665222
-27.3124103546 -28.2501411438 42.3550376892
-27.3134365082 -28.2480392456 42.1561241150
-27.3142642975 -28.2457466125 41.9571495056
-27.3151664734 -28.2435245514 41.7581787109
-27.3171997070 -28.2423934937 41.5594825745
-27.3222770691 -28.2442035675 41.3615570068
-27.3327465057 -28.2512207031 41.1650123596
-27.3501148224 -28.2649002075 40.9702606201
-27.3740291595 -28.2849044800 40.7772254944
-27.4024448395 -28.3092556000 40.5853881836
-27.4320201874 -28.3347282410 40.3938903809
-27.4582614899 -28.3569793701 40.2015495300
-27.4770164490 -28.3720016479 40.0072669983
-27.4874897003 -28.3790225983 39.8108139038
-27.4936561584 -28.3818855286 39.6132202148
-27.5018749237 -28.3867301941 39.4161643982
-27.5169105530 -28.3981590271 39.2209281921
-27.5399360657 -28.4173088074 39.0278434753
-27.5693092346 -28.4425868988 38.8364906311
-27.6021804810 -28.4712467194 38.6461143494
-27.6353282928 -28.5001735687 38.4558525085
-27.6656112671 -28.5263328552 38.2648582458
-27.6907997131 -28.5475730896 38.0725135803
-27.7102432251 -28.5632629395 37.8786239624
-27.7246074677 -28.5740451813 37.6833648682
-27.7351036072 -28.5810909271 37.4870491028
-27.7430877686 -28.5857124329 37.2900428772
-27.7501201630 -28.5894126892 37.0927696228
-27.7577781677 -28.5937156677 36.8956680298
-27.7668628693 -28.5993995667 36.6989593506
-27.7767601013 -28.6058673859 36.5024795532
-27.7859382629 -28.6116409302 36.3057975769
-27.7932853699 -28.6156444550 36.1086006165
-27.7987804413 -28.6178588867 35.9108772278
-27.8030471802 -28.6188869476 35.7127990723
-27.8065547943 -28.6191806793 35.5144996643
-27.8091583252 -28.6186027527 35.3159294128
-27.8099002838 -28.6162242889 35.1168174744
-27.8069705963 -28.6102962494 34.9166374207
-27.7982292175 -28.5987548828 34.7147674561
-27.7826995850 -28.5806522369 34.5109062195
-27.7622089386 -28.5577564240 34.3055686951
-27.7415027618 -28.5346488953 34.1001167297
-27.7262039185 -28.5167675018 33.8961830139
-27.7202644348 -28.5079307556 33.6949386597
-27.7248039246 -28.5092182159 33.4967346191
-27.7388114929 -28.5196552277 33.3012962341
-27.7608852386 -28.5378875732 33.1082458496
-27.7905445099 -28.5634517670 32.9174537659
-27.8278579712 -28.5964145660 32.7289695740
-27.8719654083 -28.6359405518 32.5425491333
-27.9202651978 -28.6795215607 32.3574409485
-27.9688301086 -28.7233581543 32.1724815369
-28.0132160187 -28.7631568909 31.9863395691
-28.0493164063 -28.7949504852 31.7977676392
-28.0745048523 -28.8162002563 31.6059532166
-28.0885639191 -28.8266906738 31.4108028412
-28.0933074951 -28.8281784058 31.2128353119
-28.0911617279 -28.8230075836 31.0127639771
-28.0842723846 -28.8132514954 30.8112258911
-28.0750198364 -28.8012123108 30.6089363098
-28.0666999817 -28.7900714874 30.4068984985
-28.0626449585 -28.7830543518 30.2061424255
-28.0644397736 -28.7816905975 30.0071678162
-28.0714759827 -28.7853927612 29.8098030090
-28.0825328827 -28.7929821014 29.6136817932
-28.0975475311 -28.8043956757 29.4187946320
-28.1177272797 -28.8208045959 29.2255306244
-28.1440887451 -28.8431873322 29.0342197418
-28.1759033203 -28.8708438873 28.8446521759
-28.2103919983 -28.9010829926 28.6559658051
-28.2438125610 -28.9302921295 28.4669857025
-28.2732429504 -28.9556446075 28.2767868042
-28.2979373932 -28.9764213562 28.0851192474
-28.3195095062 -28.9941768646 27.8924865723
-28.3408813477 -29.0117416382 27.6998100281
-28.3647480011 -29.0317153931 27.5079536438
-28.3922424316 -29.0552005768 27.3172893524
-28.4223289490 -29.0811882019 27.1274909973
-28.4522228241 -29.1069927216 26.9376659393
-28.4787769318 -29.1295681000 26.7467975616
-28.5000610352 -29.1470489502 26.5542488098
-28.5161972046 -29.1595535278 26.3600482941
-28.5289211273 -29.1687602997 26.1647434235
-28.5404319763 -29.1767921448 25.9690494537
-28.5525016785 -29.1853637695 25.7735424042
-28.5663585663 -29.1956634521 25.5786285400
-28.5828914642 -29.2085514069 25.3846054077
-28.6026058197 -29.2245178223 25.1916465759
-28.6254005432 -29.2434616089 24.9997291565
-28.6505966187 -29.2647285461 24.8086338043
-28.6770439148 -29.2872028351 24.6179828644
-28.7024879456 -29.3087100983 24.4270286560
-28.7226982117 -29.3251552582 24.2343482971
-28.7323112488 -29.3313541412 24.0381240845
-28.7280979156 -29.3241825104 23.8372440338
-28.7121677399 -29.3056793213 23.6323795319
-28.6917743683 -29.2828598022 23.4259586334
-28.6756324768 -29.2641506195 23.2209281921
-28.6701259613 -29.2557258606 23.0194740295
-28.6780986786 -29.2603359222 22.8225955963
-28.6994972229 -29.2779312134 22.6303119659
-28.7320003510 -29.3062648773 22.4418621063
-28.7713813782 -29.3412551880 22.2558193207
-28.8123283386 -29.3777561188 22.0703678131
-28.8496322632 -29.4107360840 21.8837146759
-28.8792915344 -29.4363231659 21.6944599152
-28.8993988037 -29.4526748657 21.5019226074
-28.9106674194 -29.4604740143 21.3063220978
-28.9157180786 -29.4622612000 21.1085529327
-28.9172706604 -29.4606628418 20.9095497131
-28.9172058105 -29.4575023651 20.7099647522
-28.9175891876 -29.4547748566 20.5105228424
-28.9216213226 -29.4555759430 20.3123512268
-28.9324531555 -29.4629516602 20.1165771484
-28.9508495331 -29.4776477814 19.9234905243
-28.9743957520 -29.4973239899 19.7322502136
-28.9991989136 -29.5182170868 19.5414829254
-29.0224704742 -29.5376281738 19.3501968384
-29.0434684753 -29.5548419952 19.1581211090
-29.0622501373 -29.5699119568 18.9652690887
-29.0781154633 -29.5821590424 18.7713851929
-29.0899429321 -29.5905036926 18.5760555267
-29.0981750488 -29.5953655243 18.3794288635
-29.1061477661 -29.5999794006 18.1827049255
-29.1189727783 -29.6092891693 17.9877452850
-29.1405715942 -29.6270828247 17.7959880829
-29.1714382172 -29.6538448334 17.6076412201
-29.2091388702 -29.6872196198 17.4218368530
-29.2507266998 -29.7243576050 17.2375106812
-29.2944126129 -29.7635269165 17.0540142059
-29.3389644623 -29.8035316467 16.8708992004
-29.3819713593 -29.8420429230 16.6872749329
-29.4190483093 -29.8748207092 16.5015125275
-29.4448871613 -29.8967247009 16.3116207123
-29.4556312561 -29.9040222168 16.1161365509
-29.4514942169 -29.8969211578 15.9150953293
-29.4382019043 -29.8809604645 15.7106037140
-29.4259605408 -29.8660163879 15.5064659119
-29.4256000519 -29.8625679016 15.3067588806
-29.4434318542 -29.8767242432 15.1138944626
-29.4781875610 -29.9072551727 14.9274406433
-29.5224952698 -29.9470310211 14.7446508408
-29.5676460266 -29.9876270294 14.5622453690
-29.6079730988 -30.0235519409 14.3780660629
-29.6424903870 -30.0538558960 14.1917266846
-29.6736431122 -30.0809078217 14.0041456223
-29.7042884827 -30.1074676514 13.8164091110
-29.7352294922 -30.1343116760 13.6288242340
-29.7651805878 -30.1602001190 13.4408969879
-29.7926673889 -30.1837043762 13.2520551682
-29.8174934387 -30.2046337128 13.0622167587
-29.8403759003 -30.2236843109 12.8716526031
-29.8614788055 -30.2410125732 12.6804218292
-29.8795967102 -30.2554492950 12.4880475998
-29.8929824829 -30.2653083801 12.2938432693
-29.9010086060 -30.2699794769 12.0975484848
-29.9048652649 -30.2706146240 11.8996152878
-29.9068870544 -30.2694740295 11.7009525299
-29.9094676971 -30.2688751221 11.5024957657
-29.9144268036 -30.2705783844 11.3049669266
-29.9228687286 -30.2756500244 11.1088085175
-29.9352340698 -30.2845211029 10.9142055511
-29.9514503479 -30.2971210480 10.7211389542
-29.9709892273 -30.3129348755 10.5294084549
-29.9926528931 -30.3308067322 10.3385448456
-30.0143337250 -30.3486957550 10.1477108002
-30.0333137512 -30.3639717102 9.9558153152
-30.0472183228 -30.3743324280 9.7618970871
-30.0550174713 -30.3787841797 9.5655260086
-30.0575065613 -30.3780956268 9.3670082092
-30.0570163727 -30.3745231628 9.1672735214
-30.0564498901 -30.3708744049 8.9674882889
-30.0586433411 -30.3698997498 8.7688093185
-30.0668277740 -30.3747253418 8.5725584030
-30.0848331451 -30.3890571594 8.3803148270
-30.1156253815 -30.4157676697 8.1933202744
-30.1591072083 -30.4547672272 8.0115671158
-30.2110729218 -30.5019798279 7.8333630562
-30.2642250061 -30.5503425598 7.6557235718
-30.3112010956 -30.5927276611 7.4756135941
-30.3481712341 -30.6254253387 7.2914319038
-30.3764209747 -30.6496791840 7.1036839485
-30.4008884430 -30.6702728271 6.9143986702
-30.4272480011 -30.6927013397 6.7259292603
-30.4594173431 -30.7207508087 6.5399136543
-30.4983310699 -30.7553348541 6.3567600250
-30.5421428680 -30.7946605682 6.1757121086
-30.5873737335 -30.8353633881 5.9953217506
-30.6301651001 -30.8737030029 5.8139691353
-30.6672306061 -30.9064998627 5.6302623749
-30.6966533661 -30.9318962097 5.4433741570
-30.7183113098 -30.9497737885 5.2532339096
-30.7334957123 -30.9613838196 5.0603690147
-30.7439460754 -30.9684104919 4.8655009270
-30.7511405945 -30.9722824097 4.6692471504
-30.7562713623 -30.9741535187 4.4721074104
-30.7605381012 -30.9751911163 4.2745923996
-30.7654209137 -30.9768238068 4.0773305893
-30.7726325989 -30.9807109833 3.8810632229
-30.7835998535 -30.9882373810 3.6864097118
-30.7984657288 -30.9995384216 3.4934413433
-30.8157272339 -31.0131607056 3.3015196323
-30.8335590363 -31.0273342133 3.1098592281
-30.8518714905 -31.0419750214 2.9184234142
-30.8727645874 -31.0591144562 2.7281262875
-30.8988704681 -31.0813045502 2.5401239395
-30.9316349030 -31.1099433899 2.3550610542
-30.9707565308 -31.1447410583 2.1728241444
-31.0138988495 -31.1834316254 1.9924048185
-31.0564918518 -31.2215938568 1.8118053675
-31.0931167603 -31.2539749146 1.6286357641
-31.1202526093 -31.2771663666 1.4413266182
-31.1377792358 -31.2910499573 1.2497991323
-31.1478710175 -31.2977294922 1.0549904108
-31.1528511047 -31.2994575500 0.8579124212
-31.1542491913 -31.2977199554 0.6592337489
-31.1538009644 -31.2941894531 0.4597169161
-31.1552314758 -31.2924804688 0.2610224485
-31.1648426056 -31.2986927032 0.0659758747
