-37.3289527893 5.0586166382 55.6133880615
-37.3716239929 5.0684213638 55.4206123352
-37.4052009583 5.0766172409 55.2265815735
-37.4214477539 5.0817499161 55.0301017761
-37.4184684753 5.0834832191 54.8308677673
-37.4006958008 5.0826020241 54.6294822693
-37.3751373291 5.0803456306 54.4269294739
-37.3472480774 5.0776772499 54.2239952087
-37.3193626404 5.0750098228 54.0210113525
-37.2920989990 5.0724534988 53.8180694580
-37.2667503357 5.0702357292 53.6153640747
-37.2461280823 5.0688538551 53.4133110046
-37.2330513000 5.0688056946 53.2123413086
-37.2279510498 5.0701675415 53.0125350952
-37.2282257080 5.0724792480 52.8135147095
-37.2300148010 5.0750584602 52.6147117615
-37.2308158875 5.0774636269 52.4157447815
-37.2311286926 5.0797824860 52.2166938782
-37.2345695496 5.0826539993 52.0181083679
-37.2468147278 5.0870809555 51.8208618164
-37.2733268738 5.0940284729 51.6258125305
-37.3162384033 5.1038732529 51.4333229065
-37.3722305298 5.1160273552 51.2429008484
-37.4337921143 5.1291646957 51.0534095764
-37.4933662415 5.1419501305 50.8636703491
-37.5464630127 5.1535911560 50.6729774475
-37.5913352966 5.1637787819 50.4810409546
-37.6272277832 5.1723794937 50.2877273560
-37.6538848877 5.1793498993 50.0929756165
-37.6719932556 5.1848101616 49.8968811035
-37.6831283569 5.1890387535 49.6996803284
-37.6891403198 5.1923623085 49.5016555786
-37.6916656494 5.1950712204 49.3030586243
-37.6920280457 5.1973981857 49.1041030884
-37.6914291382 5.1995549202 48.9049797058
-37.6913146973 5.2017974854 48.7059211731
-37.6936531067 5.2044734955 48.5072479248
-37.7004165649 5.2079310417 48.3092994690
-37.7121543884 5.2122659683 48.1121673584
-37.7269172668 5.2171354294 47.9155387878
-37.7413368225 5.2219443321 47.7188568115
-37.7531929016 5.2263002396 47.5217552185
-37.7628517151 5.2302684784 47.3242835999
-37.7724494934 5.2342257500 47.1268005371
-37.7842712402 5.2385759354 46.9296951294
-37.7997436523 5.2435703278 46.7332115173
-37.8187866211 5.2491941452 46.5373458862
-37.8388710022 5.2550020218 46.3416671753
-37.8548812866 5.2600913048 46.1453018188
-37.8614349365 5.2635116577 45.9473114014
-37.8567008972 5.2649402618 45.7473602295
-37.8440971375 5.2649803162 45.5460243225
-37.8298530579 5.2647323608 45.3443717957
-37.8188896179 5.2650628090 45.1432647705
-37.8128814697 5.2662677765 44.9430007935
-37.8113365173 5.2682600021 44.7434997559
-37.8135185242 5.2709102631 44.5446472168
-37.8192405701 5.2741851807 44.3464088440
-37.8280906677 5.2780113220 44.1487236023
-37.8381881714 5.2820577621 43.9512634277
-37.8463172913 5.2857570648 43.7534446716
-37.8496665955 5.2886137962 43.5547637939
-37.8470878601 5.2904248238 43.3550033569
-37.8383140564 5.2911434174 43.1541023254
-37.8227577209 5.2906670570 42.9519386292
-37.8002777100 5.2889695168 42.7484779358
-37.7734489441 5.2865056992 42.5441741943
-37.7486038208 5.2843923569 42.3401908875
-37.7336959839 5.2840313911 42.1379966736
-37.7342147827 5.2863907814 41.9386329651
-37.7504844666 5.2915267944 41.7421836853
-37.7782516479 5.2986893654 41.5478858948
-37.8113975525 5.3067998886 41.3546218872
-37.8443565369 5.3148779869 41.1613502502
-37.8734169006 5.3222680092 40.9673728943
-37.8975181580 5.3287835121 40.7724838257
-37.9181823730 5.3346929550 40.5769577026
-37.9373817444 5.3403444290 40.3811645508
-37.9549636841 5.3457102776 40.1850738525
-37.9684486389 5.3503546715 39.9882087708
-37.9752388000 5.3538184166 39.7900581360
-37.9750709534 5.3560566902 39.5905609131
-37.9715957642 5.3577127457 39.3904075623
-37.9721183777 5.3600726128 39.1910133362
-37.9847030640 5.3645582199 38.9939613342
-38.0141830444 5.3720207214 38.8002166748
-38.0602722168 5.3824081421 38.6097564697
-38.1182708740 5.3948941231 38.4216880798
-38.1803550720 5.4080986977 38.2344894409
-38.2371139526 5.4203639030 38.0462989807
-38.2805862427 5.4302887917 37.8555259705
-38.3076705933 5.4373264313 37.6615295410
-38.3213310242 5.4419994354 37.4648666382
-38.3290367126 5.4456238747 37.2670135498
-38.3394966125 5.4497332573 37.0697097778
-38.3583068848 5.4553127289 36.8740921021
-38.3845939636 5.4622092247 36.6800041199
-38.4121170044 5.4693236351 36.4861907959
-38.4346275330 5.4755544662 36.2913703918
-38.4501533508 5.4805550575 36.0951423645
-38.4607200623 5.4846825600 35.8978996277
-38.4696273804 5.4885182381 35.7003173828
-38.4797325134 5.4925646782 35.5029792786
-38.4932098389 5.4972047806 35.3063392639
-38.5110702515 5.5026164055 35.1106147766
-38.5315551758 5.5084900856 34.9154472351
-38.5486526489 5.5137672424 34.7195854187
-38.5534706116 5.5168824196 34.5211563110
-38.5400962830 5.5167961121 34.3188934326
-38.5129089355 5.5142788887 34.1136817932
-38.4873886108 5.5120553970 33.9087715149
-38.4796485901 5.5129618645 33.7075958252
-38.4929466248 5.5175704956 33.5108795166
-38.5159339905 5.5238852501 33.3162345886
-38.5345993042 5.5294384956 33.1206817627
-38.5438499451 5.5333347321 32.9231147766
-38.5479240417 5.5363206863 32.7244300842
-38.5534667969 5.5395646095 32.5260543823
-38.5644187927 5.5437607765 32.3288459778
-38.5815887451 5.5490508080 32.1329917908
-38.6036567688 5.5552020073 31.9382171631
-38.6277160645 5.5617036819 31.7438907623
-38.6503639221 5.5679574013 31.5492744446
-38.6696434021 5.5736179352 31.3539314270
-38.6863327026 5.5788221359 31.1580276489
-38.7037010193 5.5841460228 30.9622821808
-38.7263908386 5.5904068947 30.7677288055
-38.7587013245 5.5983586311 30.5753345490
-38.8020935059 5.6082582474 30.3854427338
-38.8533744812 5.6195459366 30.1973609924
-38.9059906006 5.6310672760 30.0096321106
-38.9541244507 5.6417999268 29.8209476471
-38.9957542419 5.6513876915 29.6308422089
-39.0316505432 5.6599678993 29.4394798279
-39.0623283386 5.6676301956 29.2469635010
-39.0869407654 5.6742248535 29.0530910492
-39.1047248840 5.6796193123 28.8576774597
-39.1163063049 5.6839232445 28.6608524323
-39.1230621338 5.6873788834 28.4629211426
-39.1257781982 5.6901249886 28.2640533447
-39.1242904663 5.6921310425 28.0642032623
-39.1187934875 5.6934332848 27.8634109497
-39.1121177673 5.6945290565 27.6623229980
-39.1108169556 5.6965689659 27.4624652863
-39.1231651306 5.7010083199 27.2657833099
-39.1549949646 5.7088708878 27.0736694336
-39.2065734863 5.7202043533 26.8862228394
-39.2725219727 5.7340612411 26.7022132874
-39.3438301086 5.7488598824 26.5195446014
-39.4109497070 5.7629218102 26.3359622955
-39.4673004150 5.7750906944 26.1498947144
-39.5117492676 5.7851676941 25.9610519409
-39.5480575562 5.7938141823 25.7703094482
-39.5813789368 5.8019351959 25.5788841248
-39.6143569946 5.8099956512 25.3874073029
-39.6457099915 5.8177700043 25.1955661774
-39.6721305847 5.8246784210 25.0025653839
-39.6915473938 5.8303551674 24.8078880310
-39.7047805786 5.8349471092 24.6117210388
-39.7149353027 5.8389973640 24.4148101807
-39.7258338928 5.8431782722 24.2180786133
-39.7408943176 5.8480901718 24.0223674774
-39.7622451782 5.8541069031 23.8282070160
-39.7897453308 5.8612031937 23.6355705261
-39.8207778931 5.8689193726 23.4438285828
-39.8519630432 5.8766622543 23.2521514893
-39.8818626404 5.8841791153 23.0601844788
-39.9121704102 5.8917675018 22.8683414459
-39.9463043213 5.9000267982 22.6774787903
-39.9866294861 5.9093732834 22.4881954193
-40.0324020386 5.9196753502 22.3003139496
-40.0795593262 5.9302201271 22.1128253937
-40.1224822998 5.9400210381 21.9243202209
-40.1565513611 5.9482674599 21.7336215973
-40.1801223755 5.9546709061 21.5402965546
-40.1947212219 5.9594984055 21.3447132111
-40.2035865784 5.9633202553 21.1476764679
-40.2099075317 5.9666957855 20.9499893188
-40.2158584595 5.9700064659 20.7522029877
-40.2226448059 5.9734630585 20.5546245575
-40.2311592102 5.9772238731 20.3574867249
-40.2426834106 5.9815120697 20.1611213684
-40.2587280273 5.9865937233 19.9659252167
-40.2797775269 5.9925537109 19.7720317841
-40.3042221069 5.9991087914 19.5790348053
-40.3290405273 6.0057296753 19.3861522675
-40.3518829346 6.0120038986 19.1927738190
-40.3724365234 6.0178756714 18.9988117218
-40.3922653198 6.0236201286 18.8046741486
-40.4140434265 6.0297069550 18.6110610962
-40.4406776428 6.0366454124 18.4187431335
-40.4740028381 6.0447568893 18.2282123566
-40.5136528015 6.0539774895 18.0393867493
-40.5571060181 6.0638647079 17.8516063690
-40.6006317139 6.0737643242 17.6638908386
-40.6402359009 6.0829753876 17.4751720428
-40.6727943420 6.0909504890 17.2846069336
-40.6974182129 6.0975337029 17.0919437408
-40.7158050537 6.1030235291 16.8976249695
-40.7310066223 6.1079540253 16.7024593353
-40.7459754944 6.1128444672 16.5072383881
-40.7631874084 6.1181278229 16.3126296997
-40.7848548889 6.1241922379 16.1192378998
-40.8125305176 6.1313099861 15.9274950027
-40.8459701538 6.1394371986 15.7373447418
-40.8828010559 6.1481595039 15.5481519699
-40.9201126099 6.1569647789 15.3591232300
-40.9563064575 6.1655740738 15.1698246002
-40.9909324646 6.1739082336 14.9801273346
-41.0231361389 6.1818180084 14.7897949219
-41.0514717102 6.1890492439 14.5984220505
-41.0754051208 6.1955080032 14.4058513641
-41.0963821411 6.2014493942 14.2124795914
-41.1172637939 6.2073726654 14.0190925598
-41.1406021118 6.2137269974 13.8264064789
-41.1668586731 6.2205929756 13.6345539093
-41.1937828064 6.2275753021 13.4429082870
-41.2180023193 6.2340836525 13.2505254745
-41.2377052307 6.2398004532 13.0568885803
-41.2539863586 6.2449169159 12.8622980118
-41.2703056335 6.2500410080 12.6677265167
-41.2916717529 6.2560482025 12.4745931625
-41.3241004944 6.2639937401 12.2846183777
-41.3729476929 6.2748146057 12.0993490219
-41.4392738342 6.2886967659 11.9191188812
-41.5169181824 6.3045601845 11.7422008514
-41.5937194824 6.3202757835 11.5651292801
-41.6567306519 6.3335747719 11.3841800690
-41.6980552673 6.3430743217 11.1970510483
-41.7183761597 6.3488960266 11.0038995743
-41.7268447876 6.3526411057 10.8073301315
-41.7369804382 6.3566794395 10.6112432480
-41.7604827881 6.3630576134 10.4190406799
-41.8022956848 6.3726410866 10.2321901321
-41.8598251343 6.3849763870 10.0499687195
-41.9261474609 6.3988504410 9.8703823090
-41.9939956665 6.4129915237 9.6913175583
-42.0574455261 6.4263606071 9.5110330582
-42.1119689941 6.4381666183 9.3281879425
-42.1554985046 6.4480476379 9.1421566010
-42.1899185181 6.4563336372 8.9534721375
-42.2200317383 6.4638657570 8.7635431290
-42.2502746582 6.4714198112 8.5736780167
-42.2826576233 6.4793477058 8.3844757080
-42.3171463013 6.4876441956 8.1959314346
-42.3521461487 6.4960303307 8.0075731277
-42.3843841553 6.5039324760 7.8184170723
-42.4100608826 6.5106859207 7.6273188591
-42.4273834229 6.5159773827 7.4337258339
-42.4379158020 6.5200810432 7.2380938530
-42.4456253052 6.5236897469 7.0416073799
-42.4551582336 6.5276184082 6.8456716537
-42.4710121155 6.5326523781 6.6516542435
-42.4971847534 6.5394921303 6.4607844353
-42.5359802246 6.5485396385 6.2737851143
-42.5857772827 6.5595111847 6.0901846886
-42.6401824951 6.5712876320 5.9080471992
-42.6908683777 6.5824131966 5.7248258591
-42.7325248718 6.5919594765 5.5388803482
-42.7655792236 6.6000003815 5.3503246307
-42.7949638367 6.6073989868 5.1606645584
-42.8270454407 6.6152691841 4.9718642235
-42.8668670654 6.6244926453 4.7854938507
-42.9159240723 6.6353306770 4.6020326614
-42.9709663391 6.6472144127 4.4204854965
-43.0252685547 6.6589684486 4.2387666702
-43.0724945068 6.6694841385 4.0548911095
-43.1102600098 6.6783452034 3.8680989742
-43.1407814026 6.6859397888 3.6790683270
-43.1689300537 6.6931190491 3.4893164635
-43.1996536255 6.7007479668 3.3004000187
-43.2360343933 6.7093653679 3.1132981777
-43.2786178589 6.7190675735 2.9281954765
-43.3262901306 6.7296581268 2.7447497845
-43.3774490356 6.7408571243 2.5624606609
-43.4298896790 6.7522807121 2.3806350231
-43.4801254272 6.7633175850 2.1981589794
-43.5240249634 6.7732467651 2.0137088299
-43.5589866638 6.7816133499 1.8264372349
-43.5855789185 6.7885165215 1.6365087032
-43.6074142456 6.7945885658 1.4450701475
-43.6298217773 6.8007607460 1.2538323402
-43.6583404541 6.8080000877 1.0645846128
-43.6971702576 6.8170409203 0.8787008524
-43.7479591370 6.8281712532 0.6967352629
-43.8095893860 6.8411936760 0.5183466077
-43.8790435791 6.8555836678 0.3425760865
-43.9525299072 6.8706765175 0.1681976169
-33.1997985840 15.6356229782 80.5045623779
-33.1932907104 15.6346616745 80.3063964844
-33.1830787659 15.6317224503 80.1079559326
-33.1721229553 15.6283893585 79.9094390869
-33.1655235291 15.6273784637 79.7111968994
-33.1687355042 15.6316022873 79.5136337280
-33.1846466064 15.6425991058 79.3169860840
-33.2119216919 15.6596574783 79.1211700439
-33.2456092834 15.6801338196 78.9258575439
-33.2788887024 15.7003946304 78.7305450439
-33.3053092957 15.7169952393 78.5347595215
-33.3210678101 15.7279090881 78.3381881714
-33.3260421753 15.7330703735 78.1408081055
-33.3228263855 15.7338666916 77.9427871704
-33.3148956299 15.7321472168 77.7443771362
-33.3052558899 15.7295169830 77.5458221436
-33.2960014343 15.7270908356 77.3472595215
-33.2883911133 15.7255439758 77.1488113403
-33.2830505371 15.7252073288 76.9505233765
-33.2800559998 15.7261190414 76.7524032593
-33.2789573669 15.7280454636 76.5544204712
-33.2789840698 15.7305717468 76.3565216064
-33.2793273926 15.7332658768 76.1586380005
-33.2793922424 15.7358112335 75.9607162476
-33.2788619995 15.7380409241 75.7627334595
-33.2775650024 15.7398605347 75.5646743774
-33.2751693726 15.7410955429 75.3665008545
-33.2708587646 15.7413091660 75.1681518555
-33.2632637024 15.7397737503 74.9694900513
-33.2512512207 15.7358818054 74.7704238892
-33.2355232239 15.7300081253 74.5709838867
-33.2196998596 15.7240858078 74.3715133667
-33.2094078064 15.7211122513 74.1725006104
-33.2098464966 15.7238597870 73.9744491577
-33.2237472534 15.7337846756 73.7776184082
-33.2504653931 15.7505416870 73.5819854736
-33.2858352661 15.7719135284 73.3871841431
-33.3230400085 15.7942600250 73.1925964355
-33.3547172546 15.8136615753 72.9975280762
-33.3755683899 15.8272895813 72.8014526367
-33.3837013245 15.8341388702 72.6041717529
-33.3801040649 15.8347358704 72.4057540894
-33.3671684265 15.8303527832 72.2064056396
-33.3477821350 15.8225326538 72.0063934326
-33.3250503540 15.8129310608 71.8060150146
-33.3015594482 15.8029232025 71.6055068970
-33.2782783508 15.7930307388 71.4049835205
-33.2548637390 15.7830638885 71.2043914795
-33.2316703796 15.7732181549 71.0037841797
-33.2114486694 15.7649564743 70.8034362793
-33.1985282898 15.7605867386 70.6037979126
-33.1962585449 15.7618942261 70.4052429199
-33.2050247192 15.7690830231 70.2078247070
-33.2219657898 15.7806272507 70.0112762451
-33.2420158386 15.7938308716 69.8150634766
-33.2598037720 15.8058271408 69.6186218262
-33.2714653015 15.8145589828 69.4215393066
-33.2753410339 15.8191423416 69.2236175537
-33.2717971802 15.8197708130 69.0248794556
-33.2633094788 15.8177633286 68.8255844116
-33.2545089722 15.8155918121 68.6262283325
-33.2505111694 15.8159799576 68.4273834229
-33.2537612915 15.8202295303 68.2293243408
-33.2623672485 15.8273334503 68.0318679810
-33.2719078064 15.8349342346 67.8345184326
-33.2787857056 15.8411178589 67.6368637085
-33.2819976807 15.8453483582 67.4387817383
-33.2825012207 15.8481349945 67.2403869629
-33.2817878723 15.8502731323 67.0418395996
-33.2810592651 15.8524045944 66.8432693481
-33.2810783386 15.8549327850 66.6447830200
-33.2823410034 15.8581237793 66.4464263916
-33.2853698730 15.8622579575 66.2482757568
-33.2910614014 15.8678092957 66.0504302979
-33.3006706238 15.8754482269 65.8530502319
-33.3149642944 15.8855819702 65.6562423706
-33.3326416016 15.8975200653 65.4598541260
-33.3495559692 15.9090490341 65.2633895874
-33.3602409363 15.9172630310 65.0661621094
-33.3611907959 15.9202871323 64.8677368164
-33.3532028198 15.9185514450 64.6681823730
-33.3410186768 15.9145803452 64.4680786133
-33.3303909302 15.9114389420 64.2681427002
-33.3248291016 15.9109973907 64.0688247681
-33.3243560791 15.9132652283 63.8701362610
-33.3266639709 15.9170169830 63.6717872620
-33.3290519714 15.9208087921 63.4734420776
-33.3295478821 15.9235944748 63.2748413086
-33.3271675110 15.9248485565 63.0758552551
-33.3218269348 15.9245243073 62.8764648438
-33.3142967224 15.9230356216 62.6767692566
-33.3062362671 15.9212646484 62.4769783020
-33.2998161316 15.9203672409 62.2773818970
-33.2966117859 15.9211816788 62.0781936646
-33.2962951660 15.9235363007 61.8793792725
-33.2966537476 15.9262504578 61.6806411743
-33.2952461243 15.9280233383 61.4816551208
-33.2909431458 15.9282541275 61.2822570801
-33.2839241028 15.9270401001 61.0824661255
-33.2751731873 15.9249019623 60.8824157715
-33.2667465210 15.9229383469 60.6823844910
-33.2620582581 15.9229650497 60.4828529358
-33.2647552490 15.9269256592 60.2843360901
-33.2765846252 15.9357481003 60.0871009827
-33.2960853577 15.9486579895 59.8909568787
-33.3197021484 15.9637565613 59.6954154968
-33.3445396423 15.9795074463 59.5000686646
-33.3707046509 15.9959630966 59.3049392700
-33.4012413025 16.0147457123 59.1104660034
-33.4393348694 16.0375537872 58.9171218872
-33.4842109680 16.0639705658 58.7248077393
-33.5291137695 16.0904006958 58.5325508118
-33.5639991760 16.1114978790 58.3388710022
-33.5810852051 16.1231193542 58.1425895691
-33.5785827637 16.1243095398 57.9434051514
-33.5602149963 16.1170539856 57.7418327332
-33.5323104858 16.1047191620 57.5387840271
-33.5013275146 16.0907497406 57.3352241516
-33.4731712341 16.0782852173 57.1320343018
-33.4528808594 16.0700073242 56.9299888611
-33.4434394836 16.0675067902 56.7295684814
-33.4446983337 16.0707015991 56.5307655334
-33.4542427063 16.0783081055 56.3332366943
-33.4698448181 16.0891380310 56.1366462708
-33.4909362793 16.1028919220 55.9409217834
-33.5177307129 16.1196804047 55.7461128235
-33.5492744446 16.1389961243 55.5520744324
-33.5826454163 16.1592826843 55.3583564758
-33.6141395569 16.1785736084 55.1643791199
-33.6411590576 16.1954803467 54.9697227478
-33.6624450684 16.2093353271 54.7741699219
-33.6763267517 16.2192478180 54.5774421692
-33.6797676086 16.2236042023 54.3790359497
-33.6705245972 16.2212085724 54.1785621643
-33.6503639221 16.2130050659 53.9762802124
-33.6250038147 16.2020339966 53.7731094360
-33.6005897522 16.1915664673 53.5700416565
-33.5808868408 16.1836071014 53.3677062988
-33.5674285889 16.1789703369 53.1663703918
-33.5608024597 16.1779708862 52.9661369324
-33.5615005493 16.1808700562 52.7671127319
-33.5704841614 16.1881790161 52.5694694519
-33.5890121460 16.2005653381 52.3734359741
-33.6169471741 16.2179584503 52.1790161133
-33.6506805420 16.2384338379 51.9856071472
-33.6834983826 16.2584266663 51.7920799255
-33.7091140747 16.2745838165 51.5973472595
-33.7251434326 16.2856388092 51.4009895325
-33.7335014343 16.2926139832 51.2033157349
-33.7381668091 16.2976226807 51.0049972534
-33.7428588867 16.3026466370 50.8066787720
-33.7499809265 16.3089637756 50.6087799072
-33.7604331970 16.3170528412 50.4114646912
-33.7737693787 16.3266735077 50.2146606445
-33.7885551453 16.3370685577 50.0181236267
-33.8029785156 16.3472690582 49.8215293884
-33.8154640198 16.3564395905 49.6245994568
-33.8253288269 16.3642158508 49.4272003174
-33.8331832886 16.3709220886 49.2294464111
-33.8409309387 16.3775711060 49.0316658020
-33.8511466980 16.3855342865 48.8343391418
-33.8658599854 16.3958892822 48.6378288269
-33.8849105835 16.4085521698 48.4421272278
-33.9051094055 16.4218235016 48.2466468811
-33.9214553833 16.4330463409 48.0504760742
-33.9298324585 16.4400310516 47.8528366089
-33.9290580750 16.4421463013 47.6534996033
-33.9211502075 16.4404678345 47.4528121948
-33.9104576111 16.4373092651 47.2515830994
-33.9024200439 16.4355621338 47.0508232117
-33.9020957947 16.4379196167 46.8514976501
-33.9127693176 16.4461250305 46.6542472839
-33.9349708557 16.4604606628 46.4591903687
-33.9661102295 16.4795532227 46.2658576965
-34.0007171631 16.5004863739 46.0732269287
-34.0318603516 16.5195789337 45.8799629211
-34.0539741516 16.5338706970 45.6849899292
-34.0656127930 16.5425872803 45.4880065918
-34.0696449280 16.5472602844 45.2895431519
-34.0704841614 16.5502357483 45.0904541016
-34.0708122253 16.5529384613 44.8912544250
-34.0709800720 16.5555572510 44.6920089722
-34.0711326599 16.5581684113 44.4927482605
-34.0729560852 16.5616664886 44.2938079834
-34.0790367126 16.5674285889 44.0957031250
-34.0911941528 16.5764217377 43.8988075256
-34.1095237732 16.5886993408 43.7031555176
-34.1321487427 16.6032600403 43.5083808899
-34.1556282043 16.6182746887 43.3137969971
-34.1767883301 16.6320533752 43.1187667847
-34.1949310303 16.6442298889 42.9231414795
-34.2119789124 16.6558227539 42.7273063660
-34.2299880981 16.6679286957 42.5316810608
-34.2488441467 16.6804847717 42.3362426758
-34.2667160034 16.6925163269 42.1406135559
-34.2823715210 16.7033672333 41.9445419312
-34.2966346741 16.7134819031 41.7481918335
-34.3116989136 16.7240180969 41.5520172119
-34.3291473389 16.7358245850 41.3563461304
-34.3480491638 16.7484035492 41.1609992981
-34.3645133972 16.7596855164 40.9651489258
-34.3738822937 16.7671947479 40.7678146362
-34.3744850159 16.7700443268 40.5686264038
-34.3695564270 16.7699546814 40.3682479858
-34.3651466370 16.7701396942 40.1679649353
-34.3656120300 16.7729167938 39.9687042236
-34.3704872131 16.7780380249 39.7703781128
-34.3750419617 16.7829895020 39.5719795227
-34.3741416931 16.7850418091 39.3723945618
-34.3660621643 16.7832775116 39.1712417603
-34.3530616760 16.7788982391 38.9689941406
-34.3390731812 16.7739925385 38.7664985657
-34.3275947571 16.7704238892 38.5645217896
-34.3215141296 16.7697219849 38.3637008667
-34.3238677979 16.7735061646 38.1647186279
-34.3381385803 16.7836227417 37.9683647156
-34.3675346375 16.8017768860 37.7753677368
-34.4135742188 16.8287773132 37.5861091614
-34.4748001099 16.8638477325 37.4002914429
-34.5464401245 16.9044532776 37.2168846130
-34.6214332581 16.9468383789 37.0343170166
-34.6922340393 16.9869956970 36.8509025574
-34.7525596619 17.0215816498 36.6652107239
-34.7984352112 17.0484924316 36.4763145447
-34.8285789490 17.0670394897 36.2838897705
-34.8440284729 17.0777778625 36.0881462097
-34.8467750549 17.0817661285 35.8894996643
-34.8379974365 17.0796318054 35.6882019043
-34.8179702759 17.0715179443 35.4842872620
-34.7881813049 17.0582180023 35.2780723572
-34.7532234192 17.0421733856 35.0706062317
-34.7200202942 17.0270614624 34.8634834290
-34.6952095032 17.0164089203 34.6582603455
-34.6830062866 17.0124568939 34.4559402466
-34.6840171814 17.0155258179 34.2566947937
-34.6951446533 17.0239696503 34.0598144531
-34.7115020752 17.0351924896 33.8641738892
-34.7295188904 17.0472946167 33.6689414978
-34.7483940125 17.0598545074 33.4739227295
-34.7685661316 17.0731029510 33.2792282104
-34.7889823914 17.0864810944 33.0846099854
-34.8066482544 17.0983982086 32.8893508911
-34.8195877075 17.1078033447 32.6929664612
-34.8297576904 17.1157379150 32.4959220886
-34.8417205811 17.1246242523 32.2993125916
-34.8582839966 17.1359558105 32.1038246155
-34.8784065247 17.1491775513 31.9092121124
-34.8990669250 17.1626834869 31.7147483826
-34.9178619385 17.1751995087 31.5198478699
-34.9337615967 17.1861743927 31.3242492676
-34.9466590881 17.1955585480 31.1279220581
-34.9572639465 17.2037220001 30.9310359955
-34.9673080444 17.2115898132 30.7340145111
-34.9794311523 17.2205600739 30.5375099182
-34.9960784912 17.2319335938 30.3421382904
-35.0180168152 17.2461185455 30.1481018066
-35.0439300537 17.2624149323 29.9550781250
-35.0719146729 17.2798080444 29.7625999451
-35.1013526917 17.2979755402 29.5705165863
-35.1329002380 17.3172607422 29.3789958954
-35.1669692993 17.3378849030 29.1881465912
-35.2031593323 17.3596363068 28.9978752136
-35.2409934998 17.3822593689 28.8080615997
-35.2801513672 17.4055862427 28.6186275482
-35.3198547363 17.4291992188 28.4293785095
-35.3587570190 17.4523906708 28.2399673462
-35.3956489563 17.4745101929 28.0500831604
-35.4298133850 17.4951820374 27.8595333099
-35.4609298706 17.5142345428 27.6682319641
-35.4888114929 17.5315704346 27.4761219025
-35.5129928589 17.5469417572 27.2830753326
-35.5326004028 17.5598812103 27.0888557434
-35.5467491150 17.5699253082 26.8932247162
-35.5547370911 17.5766944885 26.6959800720
-35.5556297302 17.5796966553 26.4968662262
-35.5484619141 17.5784206390 26.2956123352
-35.5336036682 17.5730648041 26.0922985077
-35.5138549805 17.5651092529 25.8876533508
-35.4935226440 17.5568447113 25.6828098297
-35.4762001038 17.5501785278 25.4787292480
-35.4634704590 17.5459518433 25.2758426666
-35.4555320740 17.5442695618 25.0742111206
-35.4529151917 17.5454120636 24.8739871979
-35.4577064514 17.5504875183 24.6757488251
-35.4729614258 17.5611171722 24.4803352356
-35.5001296997 17.5780735016 24.2881660461
-35.5368499756 17.6000976563 24.0986232758
-35.5777091980 17.6243209839 23.9102497101
-35.6177940369 17.6481285095 23.7217102051
-35.6557960510 17.6708316803 23.5326442719
-35.6940116882 17.6936492920 23.3436813354
-35.7353057861 17.7180995941 23.1556110382
-35.7797126770 17.7442016602 22.9684448242
-35.8231887817 17.7698078156 22.7810764313
-35.8592300415 17.7914676666 22.5916881561
-35.8822708130 17.8062267303 22.3987216949
-35.8910713196 17.8134288788 22.2017974854
-35.8899040222 17.8153400421 22.0020828247
-35.8869171143 17.8162841797 21.8018417358
-35.8911170959 17.8210430145 21.6036090851
-35.9096908569 17.8334331512 21.4094257355
-35.9459648132 17.8552131653 21.2202625275
-35.9985160828 17.8856315613 21.0357589722
-36.0625152588 17.9221286774 20.8545722961
-36.1320114136 17.9615364075 20.6750335693
-36.2006797791 18.0005054474 20.4953441620
-36.2620162964 18.0355854034 20.3136444092
-36.3113555908 18.0642948151 20.1285724640
-36.3484230042 18.0864925385 19.9400272369
-36.3772697449 18.1043262482 19.7491474152
-36.4035148621 18.1207809448 19.5575466156
-36.4315948486 18.1382083893 19.3665027618
-36.4633903503 18.1576080322 19.1765670776
-36.4982337952 18.1786231995 18.9875564575
-36.5338745117 18.2000617981 18.7988147736
-36.5674171448 18.2203845978 18.6094970703
-36.5956649780 18.2378997803 18.4186611176
-36.6156425476 18.2510242462 18.2254180908
-36.6256408691 18.2588577271 18.0292472839
-36.6258163452 18.2614784241 17.8301715851
-36.6179084778 18.2598075867 17.6286849976
-36.6051254272 18.2555541992 17.4257278442
-36.5922851563 18.2512702942 17.2227210999
-36.5847854614 18.2498207092 17.0212802887
-36.5862998962 18.2531509399 16.8225135803
-36.5969238281 18.2613162994 16.6264743805
-36.6135368347 18.2726554871 16.4322395325
-36.6321983337 18.2850837708 16.2386360168
-36.6508674622 18.2975139618 16.0450458527
-36.6702842712 18.3103427887 15.8517007828
-36.6927680969 18.3247985840 15.6593017578
-36.7200012207 18.3417720795 15.4683694839
-36.7512626648 18.3608798981 15.2786931992
-36.7832145691 18.3803558350 15.0892620087
-36.8116416931 18.3979625702 14.8987836838
-36.8339767456 18.4123363495 14.7064609528
-36.8506011963 18.4236812592 14.5123987198
-36.8643722534 18.4335136414 14.3174667358
-36.8793754578 18.4439983368 14.1229248047
-36.8995475769 18.4572257996 13.9299955368
-36.9272117615 18.4744224548 13.7394123077
-36.9621734619 18.4954929352 13.5511341095
-37.0021362305 18.5192127228 13.3644552231
-37.0437927246 18.5438327789 13.1783542633
-37.0838317871 18.5675926208 12.9917917252
-37.1199684143 18.5892810822 12.8040475845
-37.1520843506 18.6088409424 12.6150751114
-37.1820831299 18.6272735596 12.4254674911
-37.2118415833 18.6455802917 12.2358150482
-37.2412300110 18.6636905670 12.0460767746
-37.2682571411 18.6805496216 11.8556165695
-37.2909202576 18.6950912476 11.6637907028
-37.3084793091 18.7069282532 11.4703531265
-37.3213386536 18.7162723541 11.2754240036
-37.3303909302 18.7235984802 11.0792770386
-37.3368682861 18.7295589447 10.8823032379
-37.3425521851 18.7350997925 10.6850709915
-37.3498306274 18.7414836884 10.4883489609
-37.3613929749 18.7501411438 10.2930135727
-37.3794326782 18.7622299194 10.0997867584
-37.4044723511 18.7780323029 9.9088535309
-37.4348716736 18.7966766357 9.7196912766
-37.4681892395 18.8168659210 9.5315160751
-37.5037002563 18.8382167816 9.3440933228
-37.5434265137 18.8618030548 9.1580963135
-37.5904350281 18.8892478943 8.9745407104
-37.6458282471 18.9211387634 8.7938060760
-37.7069320679 18.9560546875 8.6150283813
-37.7676773071 18.9907817841 8.4362077713
-37.8209304810 19.0215339661 8.2549743652
-37.8618659973 19.0457553864 8.0697069168
-37.8904113770 19.0634117126 7.8803563118
-37.9109458923 19.0768184662 7.6883563995
-37.9296379089 19.0892486572 7.4957566261
-37.9514083862 19.1033134460 7.3042063713
-37.9779815674 19.1199207306 7.1142902374
-38.0076980591 19.1381950378 6.9254593849
-38.0374412537 19.1564807892 6.7366685867
-38.0657005310 19.1739826202 6.5474066734
-38.0943222046 19.1916751862 6.3582959175
-38.1270637512 19.2115497589 6.1706151962
-38.1658096313 19.2346057892 5.9850149155
-38.2079811096 19.2594776154 5.8006291389
-38.2481689453 19.2832984924 5.6156134605
-38.2825317383 19.3040313721 5.4286460876
-38.3115234375 19.3219184875 5.2398715019
-38.3389892578 19.3389949799 5.0506005287
-38.3693389893 19.3575992584 4.8623523712
-38.4051589966 19.3791007996 4.6760263443
-38.4463615417 19.4034557343 4.4916062355
-38.4911155701 19.4296913147 4.3084664345
-38.5373992920 19.4567394257 4.1259126663
-38.5837669373 19.4838275909 3.9434418678
-38.6290435791 19.5103397369 3.7606458664
-38.6717453003 19.5354843140 3.5770003796
-38.7098388672 19.5581874847 3.3917884827
-38.7415313721 19.5775012970 3.2043697834
-38.7666473389 19.5933265686 3.0146667957
-38.7870826721 19.6066722870 2.8233351707
-38.8055114746 19.6189556122 2.6313118935
-38.8234481812 19.6309795380 2.4391288757
-38.8406753540 19.6426258087 2.2467079163
-38.8566780090 19.6536216736 2.0538620949
-38.8720932007 19.6643085480 1.8608191013
-38.8881340027 19.6753253937 1.6680095196
-38.9049758911 19.6867675781 1.4754979610
-38.9216232300 19.6981067657 1.2829293013
-38.9371871948 19.7088699341 1.0899819136
-38.9517784119 19.7191200256 0.8966957331
-38.9665908813 19.7294845581 0.7034972310
-38.9836578369 19.7410449982 0.5111235976
-39.0054702759 19.7551193237 0.3204833567
-39.0343589783 19.7729396820 0.1324317902
-26.6259498596 25.0079078674 80.4944305420
-26.6197605133 25.0046749115 80.2961349487
-26.6100425720 24.9977779388 80.0975112915
-26.5972194672 24.9876575470 79.8985748291
-26.5811119080 24.9741287231 79.6993103027
-26.5617065430 24.9571762085 79.4997100830
-26.5406265259 24.9384841919 79.2999114990
-26.5210208893 24.9213256836 79.1001968384
-26.5054435730 24.9083480835 78.9008178711
-26.4941787720 24.8998489380 78.7018051147
-26.4857673645 24.8943119049 78.5030288696
-26.4786014557 24.8900699615 78.3043518066
-26.4717903137 24.8861961365 78.1056900024
-26.4650287628 24.8823738098 77.9070053101
-26.4585075378 24.8788013458 77.7083206177
-26.4535121918 24.8768138885 77.5097656250
-26.4527034760 24.8791732788 77.3116149902
-26.4589080811 24.8888111115 77.1141586304
-26.4731483459 24.9067935944 76.9175338745
-26.4939270020 24.9315605164 76.7216033936
-26.5180416107 24.9597892761 76.5260391235
-26.5417041779 24.9875488281 76.3304672241
-26.5614776611 25.0112724304 76.1345138550
-26.5751247406 25.0286350250 75.9379272461
-26.5819873810 25.0389556885 75.7406234741
-26.5828170776 25.0430145264 75.5426635742
-26.5793952942 25.0426616669 75.3442230225
-26.5739574432 25.0402145386 75.1455535889
-26.5684318542 25.0376796722 74.9468460083
-26.5641136169 25.0363941193 74.7482528687
-26.5618076324 25.0372009277 74.5498733521
-26.5616798401 25.0402679443 74.3517227173
-26.5629539490 25.0447883606 74.1537246704
-26.5644073486 25.0494976044 73.9557418823
-26.5653324127 25.0536556244 73.7576904297
-26.5657997131 25.0573406219 73.5595703125
-26.5662193298 25.0609779358 73.3614425659
-26.5668849945 25.0648689270 73.1633300781
-26.5678901672 25.0691108704 72.9652481079
-26.5692253113 25.0736961365 72.7671966553
-26.5709075928 25.0786418915 72.5691833496
-26.5731410980 25.0841617584 72.3712234497
-26.5766010284 25.0909519196 72.1734161377
-26.5826931000 25.1004753113 71.9759292603
-26.5933952332 25.1147823334 71.7790222168
-26.6103076935 25.1355323792 71.5829162598
-26.6334075928 25.1627025604 71.3876190186
-26.6605129242 25.1940288544 71.1928710938
-26.6880187988 25.2257709503 70.9982147217
-26.7123451233 25.2542114258 70.8031768799
-26.7311000824 25.2768726349 70.6074447632
-26.7432708740 25.2926998138 70.4108581543
-26.7486400604 25.3014717102 70.2133865356
-26.7473468781 25.3033294678 70.0150070190
-26.7401580811 25.2990722656 69.8158264160
-26.7291564941 25.2908573151 69.6161041260
-26.7173919678 25.2818527222 69.4162445068
-26.7068977356 25.2741661072 69.2165298462
-26.6968708038 25.2669658661 69.0168533325
-26.6844902039 25.2573223114 68.8168106079
-26.6677799225 25.2431888580 68.6161346436
-26.6474990845 25.2253513336 68.4149093628
-26.6266059875 25.2068786621 68.2135543823
-26.6084156036 25.1912136078 68.0125350952
-26.5950794220 25.1805820465 67.8121719360
-26.5871925354 25.1756038666 67.6125564575
-26.5844154358 25.1759281158 67.4136734009
-26.5865516663 25.1813488007 67.2154846191
-26.5942935944 25.1925849915 67.0181274414
-26.6086215973 25.2106533051 66.8217468262
-26.6287479401 25.2347354889 66.6262435913
-26.6507663727 25.2607784271 66.4310607910
-26.6692638397 25.2831707001 66.2353668213
-26.6807594299 25.2983016968 66.0386352539
-26.6854343414 25.3063545227 65.8408660889
-26.6859226227 25.3100643158 65.6424484253
-26.6851596832 25.3124790192 65.4438247681
-26.6851406097 25.3156642914 65.2453155518
-26.6866741180 25.3204612732 65.0470275879
-26.6895961761 25.3266963959 64.8489608765
-26.6932392120 25.3336811066 64.6509933472
-26.6970672607 25.3408584595 64.4530563354
-26.7012443542 25.3483963013 64.2551727295
-26.7068347931 25.3573989868 64.0575103760
-26.7151851654 25.3692646027 63.8602943420
-26.7265720367 25.3842811584 63.6635818481
-26.7393245697 25.4007110596 63.4670982361
-26.7506732941 25.4156875610 63.2704010010
-26.7586479187 25.4271640778 63.0731506348
-26.7630081177 25.4348907471 62.8753013611
-26.7645473480 25.4396953583 62.6769790649
-26.7638187408 25.4421463013 62.4782638550
-26.7604465485 25.4418544769 62.2790908813
-26.7533264160 25.4376792908 62.0792617798
-26.7415733337 25.4286975861 61.8786163330
-26.7257442474 25.4154911041 61.6772384644
-26.7083435059 25.4006557465 61.4755516052
-26.6929321289 25.3878841400 61.2741622925
-26.6825656891 25.3803443909 61.0736198425
-26.6789398193 25.3797931671 60.8742332458
-26.6823272705 25.3865165710 60.6760673523
-26.6915092468 25.3992443085 60.4789237976
-26.7036972046 25.4150905609 60.2823257446
-26.7153949738 25.4304294586 60.0856475830
-26.7239952087 25.4425563812 59.8884239197
-26.7288227081 25.4507694244 59.6905212402
-26.7309284210 25.4561634064 59.4921188354
-26.7322063446 25.4606971741 59.2935600281
-26.7345371246 25.4663238525 59.0951881409
-26.7391014099 25.4742660522 58.8972206116
-26.7458839417 25.4845066071 58.6996612549
-26.7536525726 25.4957714081 58.5022888184
-26.7605113983 25.5060920715 58.3047485352
-26.7646293640 25.5135707855 58.1066932678
-26.7647342682 25.5168914795 57.9078750610
-26.7603626251 25.5155677795 57.7081947327
-26.7521533966 25.5102710724 57.5077667236
-26.7422504425 25.5032157898 57.3069839478
-26.7341632843 25.4980430603 57.1065216064
-26.7314281464 25.4984207153 56.9070739746
-26.7355060577 25.5058593750 56.7089347839
-26.7449302673 25.5188407898 56.5118408203
-26.7568206787 25.5343761444 56.3152351379
-26.7693176270 25.5505447388 56.1187629700
-26.7827415466 25.5676708221 55.9224853516
-26.7989006042 25.5876293182 55.7267646790
-26.8196735382 25.6123733521 55.5319862366
-26.8457717896 25.6426353455 55.3383064270
-26.8761825562 25.6773662567 55.1455345154
-26.9084320068 25.7140026093 54.9531822205
-26.9393062592 25.7492122650 54.7605934143
-26.9655208588 25.7795925140 54.5670967102
-26.9843940735 25.8023643494 54.3721275330
-26.9946117401 25.8161621094 54.1753959656
-26.9965591431 25.8213920593 53.9769554138
-26.9918270111 25.8196983337 53.7771186829
-26.9821376801 25.8128681183 53.5762252808
-26.9685745239 25.8020229340 53.3744850159
-26.9516296387 25.7876758575 53.1720008850
-26.9315204620 25.7700481415 52.9688034058
-26.9080314636 25.7489185333 52.7648391724
-26.8809204102 25.7240390778 52.5600471497
-26.8516426086 25.6969127655 52.3547286987
-26.8243141174 25.6718082428 52.1497688293
-26.8040275574 25.6540012360 51.9462699890
-26.7940788269 25.6469078064 51.7449760437
-26.7949790955 25.6510562897 51.5460166931
-26.8054237366 25.6650943756 51.3491401672
-26.8234367371 25.6869735718 51.1539421082
-26.8466300964 25.7142219543 50.9599075317
-26.8722114563 25.7439422607 50.7664337158
-26.8975257874 25.7733879089 50.5729370117
-26.9205646515 25.8004741669 50.3789634705
-26.9398937225 25.8237133026 50.1841926575
-26.9544506073 25.8420124054 49.9883651733
-26.9633216858 25.8544158936 49.7912712097
-26.9653816223 25.8597660065 49.5926284790
-26.9597663879 25.8571624756 49.3922309875
-26.9473590851 25.8475246429 49.1902542114
-26.9312667847 25.8340682983 48.9873962402
-26.9151458740 25.8205833435 48.7844924927
-26.9013538361 25.8095111847 48.5820884705
-26.8907928467 25.8017883301 48.3804016113
-26.8835315704 25.7974815369 48.1794548035
-26.8791389465 25.7961483002 47.9791564941
-26.8770160675 25.7971668243 47.7793769836
-26.8769741058 25.8003425598 47.5800704956
-26.8795776367 25.8062553406 47.3813819885
-26.8856620789 25.8157787323 47.1835212708
-26.8952407837 25.8289184570 46.9864921570
-26.9069805145 25.8442955017 46.7899894714
-26.9193572998 25.8603363037 46.5936508179
-26.9325542450 25.8772239685 46.3975219727
-26.9485530853 25.8970127106 46.2020874023
-26.9688758850 25.9212818146 46.0077247620
-26.9924221039 25.9488887787 45.8141746521
-27.0158729553 25.9763946533 45.6206359863
-27.0360946655 26.0005569458 45.4263305664
-27.0521430969 26.0203952789 45.2310218811
-27.0655517578 26.0375003815 45.0350723267
-27.0791625977 26.0548152924 44.8391914368
-27.0952434540 26.0746879578 44.6439399719
-27.1141529083 26.0974884033 44.4494171143
-27.1345901489 26.1218719482 44.2553024292
-27.1547336578 26.1459503174 44.0611381531
-27.1726207733 26.1676902771 43.8664321899
-27.1860141754 26.1847782135 43.6706008911
-27.1936836243 26.1959381104 43.4733200073
-27.1977787018 26.2033958435 43.2751235962
-27.2042484283 26.2133121490 43.0775375366
-27.2196502686 26.2324790955 42.8822593689
-27.2469272614 26.2639427185 42.6900787354
-27.2837734222 26.3053150177 42.5004196167
-27.3241252899 26.3503150940 42.3117332458
-27.3610706329 26.3917884827 42.1222190857
-27.3896522522 26.4246006012 41.9305648804
-27.4083309174 26.4471549988 41.7363357544
-27.4181938171 26.4605846405 41.5398025513
-27.4208049774 26.4665031433 41.3413467407
-27.4167060852 26.4654750824 41.1410980225
-27.4058303833 26.4574298859 40.9390220642
-27.3890991211 26.4433231354 40.7353439331
-27.3692951202 26.4260349274 40.5307960510
-27.3499011993 26.4091701508 40.3263130188
-27.3329601288 26.3948497772 40.1224479675
-27.3184680939 26.3830623627 39.9192085266
-27.3059768677 26.3733482361 39.7164764404
-27.2964706421 26.3667259216 39.5145301819
-27.2924804688 26.3658142090 39.3140678406
-27.2966346741 26.3733329773 39.1158332825
-27.3099517822 26.3903408051 38.9201278687
-27.3308143616 26.4151592255 38.7265281677
-27.3555488586 26.4439811707 38.5340309143
-27.3810520172 26.4736022949 38.3417854309
-27.4072227478 26.5039119720 38.1497612000
-27.4360351563 26.5369567871 37.9585151672
-27.4681053162 26.5733737946 37.7682304382
-27.5008430481 26.6104793549 37.5781822205
-27.5301017761 26.6439857483 37.3871955872
-27.5531406403 26.6710491180 37.1944808960
-27.5700283051 26.6917495728 37.0000419617
-27.5827884674 26.7081737518 36.8044395447
-27.5933418274 26.7223129272 36.6082153320
-27.6019821167 26.7344741821 36.4114494324
-27.6077041626 26.7436141968 36.2138442993
-27.6100826263 26.7492923737 36.0152664185
-27.6107273102 26.7531795502 35.8161811829
-27.6127681732 26.7585086823 35.6174926758
-27.6190776825 26.7682571411 35.4200439453
-27.6308002472 26.7836074829 35.2241897583
-27.6470737457 26.8036670685 35.0296859741
-27.6660423279 26.8265171051 34.8359985352
-27.6860771179 26.8504695892 34.6426506042
-27.7058143616 26.8741130829 34.4492378235
-27.7233448029 26.8954715729 34.2551918030
-27.7361774445 26.9119701385 34.0597648621
-27.7421970367 26.9214172363 33.8623046875
-27.7400970459 26.9224605560 33.6623992920
-27.7290096283 26.9142055511 33.4597663879
-27.7088069916 26.8965167999 33.2543411255
-27.6819076538 26.8718986511 33.0468330383
-27.6546058655 26.8468666077 32.8391456604
-27.6353645325 26.8301773071 32.6338615417
-27.6304683685 26.8283309937 32.4329261780
-27.6406154633 26.8420486450 32.2365951538
-27.6611652374 26.8665332794 32.0434761047
-27.6855106354 26.8949432373 31.8515625000
-27.7085800171 26.9220352173 31.6592845917
-27.7279872894 26.9453353882 31.4658985138
-27.7431468964 26.9642410278 31.2712135315
-27.7544746399 26.9791812897 31.0753440857
-27.7633419037 26.9915752411 30.8787136078
-27.7719554901 27.0037059784 30.6820106506
-27.7827739716 27.0181198120 30.4860057831
-27.7978458405 27.0369319916 30.2913570404
-27.8182106018 27.0612220764 30.0984058380
-27.8432826996 27.0903797150 29.9069786072
-27.8707923889 27.1220607758 29.7163639069
-27.8978900909 27.1533126831 29.5256576538
-27.9225044250 27.1819972992 29.3341922760
-27.9434032440 27.2068367004 29.1415653229
-27.9591331482 27.2263259888 28.9472961426
-27.9679698944 27.2386875153 28.7508125305
-27.9697360992 27.2437343597 28.5520401001
-27.9676704407 27.2448139191 28.3520107269
-27.9679851532 27.2483596802 28.1527442932
-27.9767704010 27.2606678009 27.9562416077
-27.9965515137 27.2843475342 27.7633533478
-28.0251712799 27.3171710968 27.5734024048
-28.0572357178 27.3535575867 27.3846302032
-28.0863189697 27.3868579865 27.1949195862
-28.1070041656 27.4114723206 27.0024604797
-28.1168460846 27.4248695374 26.8064193726
-28.1174030304 27.4286651611 26.6072864532
-28.1131401062 27.4274749756 26.4065303802
-28.1089229584 27.4263305664 26.2057704926
-28.1082839966 27.4288883209 26.0061950684
-28.1130485535 27.4370365143 25.8084335327
-28.1232795715 27.4508361816 25.6125183105
-28.1372909546 27.4685459137 25.4178943634
-28.1526393890 27.4876403809 25.2237415314
-28.1678447723 27.5065841675 25.0295543671
-28.1831493378 27.5256309509 24.8354206085
-28.1994323730 27.5456886292 24.6416378021
-28.2162628174 27.5663146973 24.4480628967
-28.2309818268 27.5847549438 24.2537803650
-28.2398605347 27.5971565247 24.0574951172
-28.2405834198 27.6011219025 23.8583869934
-28.2340888977 27.5976257324 23.6567611694
-28.2243766785 27.5908012390 23.4539909363
-28.2164955139 27.5858707428 23.2518329620
-28.2143630981 27.5868854523 23.0516624451
-28.2199153900 27.5958461761 22.8541774750
-28.2333774567 27.6129875183 22.6594753265
-28.2534370422 27.6369495392 22.4671173096
-28.2772979736 27.6648406982 22.2761306763
-28.3017482758 27.6933422089 22.0853862762
-28.3250541687 27.7206592560 21.8942680359
-28.3477592468 27.7473564148 21.7029666901
-28.3715629578 27.7751865387 21.5120906830
-28.3977642059 27.8054962158 21.3221073151
-28.4268093109 27.8387451172 21.1331806183
-28.4585628510 27.8747920990 20.9452743530
-28.4923458099 27.9129409790 20.7581481934
-28.5267982483 27.9517765045 20.5713138580
-28.5599060059 27.9892234802 20.3840465546
-28.5892906189 28.0228195190 20.1954708099
-28.6129283905 28.0504741669 20.0048427582
-28.6302986145 28.0716495514 19.8119525909
-28.6430282593 28.0880260468 19.6173820496
-28.6543674469 28.1029644012 19.4223136902
-28.6677341461 28.1199989319 19.2280006409
-28.6851520538 28.1412239075 19.0352001190
-28.7065715790 28.1665821075 18.8439025879
-28.7306594849 28.1946983337 18.6536235809
-28.7563056946 28.2244243622 18.4639587402
-28.7830638885 28.2553005219 18.2747440338
-28.8101253510 28.2864913940 18.0856819153
-28.8356018066 28.3160400391 17.8960628510
-28.8575305939 28.3419227600 17.7051486969
-28.8754329681 28.3636436462 17.5127429962
-28.8901615143 28.3820800781 17.3191623688
-28.9023685455 28.3979129791 17.1246433258
-28.9118423462 28.4109210968 16.9290981293
-28.9183826447 28.4208965302 16.7324428558
-28.9226627350 28.4285354614 16.5349273682
-28.9259471893 28.4351463318 16.3370285034
-28.9293022156 28.4418296814 16.1391506195
-28.9332294464 28.4491043091 15.9414882660
-28.9378089905 28.4570522308 15.7440738678
-28.9430885315 28.4657249451 15.5469264984
-28.9494647980 28.4755306244 15.3502035141
-28.9580059052 28.4875736237 15.1543207169
-28.9705467224 28.5037498474 14.9599971771
-28.9894027710 28.5264530182 14.7681465149
-29.0164394379 28.5576095581 14.5795145035
-29.0514793396 28.5970344543 14.3940544128
-29.0910491943 28.6411418915 14.2104263306
-29.1292686462 28.6838512421 14.0263271332
-29.1609973907 28.7198524475 13.8397293091
-29.1847171783 28.7475776672 13.6500148773
-29.2026634216 28.7693347931 13.4580450058
-29.2187652588 28.7891883850 13.2653656006
-29.2365131378 28.8107433319 13.0733604431
-29.2578544617 28.8360080719 12.8828096390
-29.2831592560 28.8653678894 12.6938705444
-29.3119201660 28.8982982635 12.5063533783
-29.3432197571 28.9338531494 12.3198966980
-29.3752784729 28.9701881409 12.1337919235
-29.4051303864 29.0042438507 11.9468450546
-29.4299106598 29.0330600739 11.7578916550
-29.4488906860 29.0558834076 11.5666227341
-29.4638767242 29.0745773315 11.3737554550
-29.4774703979 29.0918350220 11.1803388596
-29.4914913177 29.1095314026 10.9871091843
-29.5064868927 29.1282367706 10.7942943573
-29.5211067200 29.1465511322 10.6013402939
-29.5319519043 29.1609668732 10.4068536758
-29.5366344452 29.1690177917 10.2098388672
-29.5381050110 29.1737480164 10.0114965439
-29.5440540314 29.1831073761 9.8149976730
-29.5604686737 29.2032756805 9.6228361130
-29.5866241455 29.2335090637 9.4347400665
-29.6170997620 29.2682018280 9.2484788895
-29.6477699280 29.3030929565 9.0623435974
-29.6790046692 29.3385715485 8.8764905930
-29.7136535645 29.3775730133 8.6921138763
-29.7527465820 29.4211635590 8.5096569061
-29.7932739258 29.4662361145 8.3278636932
-29.8299236298 29.5073013306 8.1444997787
-29.8589267731 29.5404682159 7.9579596519
-29.8803997040 29.5658588409 7.7682723999
-29.8976612091 29.5868949890 7.5768256187
-29.9147834778 29.6077899933 7.3853406906
-29.9344692230 29.6313323975 7.1949701309
-29.9573287964 29.6581497192 7.0059800148
-29.9824848175 29.6873397827 6.8180041313
-30.0083999634 29.7173137665 6.6303906441
-30.0332851410 29.7462234497 6.4423704147
-30.0556240082 29.7725028992 6.2532877922
-30.0750846863 29.7958068848 6.0629920959
-30.0926589966 29.8171653748 5.8719053268
-30.1095542908 29.8378200531 5.6805453300
-30.1259632111 29.8579750061 5.4889945984
-30.1409568787 29.8766670227 5.2968468666
-30.1533985138 29.8927211761 5.1036014557
-30.1630954742 29.9059429169 4.9091682434
-30.1714534760 29.9177837372 4.7141551971
-30.1810092926 29.9308586121 4.5196723938
-30.1939640045 29.9474430084 4.3266921043
-30.2110404968 29.9682846069 4.1355433464
-30.2318840027 29.9930133820 3.9460794926
-30.2561988831 30.0213279724 3.7581810951
-30.2838993073 30.0531387329 3.5718193054
-30.3142452240 30.0876789093 3.3866732121
-30.3454856873 30.1231422424 3.2019712925
-30.3753929138 30.1572284698 3.0167207718
-30.4018077850 30.1877079010 2.8299515247
-30.4230670929 30.2128639221 2.6409082413
-30.4385623932 30.2320671082 2.4493031502
-30.4489650726 30.2460136414 2.2554233074
-30.4557285309 30.2562026978 2.0599098206
-30.4603481293 30.2641792297 1.8634294271
-30.4639816284 30.2711372375 1.6664991379
-30.4674453735 30.2779178619 1.4694877863
-30.4713726044 30.2851791382 1.2726830244
-30.4764671326 30.2936458588 1.0764070749
-30.4837074280 30.3043270111 0.8811089396
-30.4940834045 30.3182449341 0.6872484684
-30.5078487396 30.3356628418 0.4949504733
-30.5242347717 30.3557834625 0.3038706183
-30.5426635742 30.3780136108 0.1137504205
-17.5016708374 31.8199748993 80.4816513062
-17.4939174652 31.8090915680 80.2828292847
-17.4813632965 31.7883358002 80.0832977295
-17.4647598267 31.7592525482 79.8831558228
-17.4451484680 31.7239780426 79.6825256348
-17.4247779846 31.6871452332 79.4817276001
-17.4073562622 31.6563816071 79.2812881470
-17.3966083527 31.6393470764 79.0817794800
-17.3941745758 31.6394157410 78.8834609985
-17.3988208771 31.6540489197 78.6861877441
-17.4077720642 31.6775360107 78.4895706177
-17.4187946320 31.7052841187 78.2932968140
-17.4310016632 31.7354698181 78.0972213745
