-1.2891287804 52.5074615479 23.4639453888
-1.2893278599 52.5380783081 23.2784843445
-1.2893458605 52.5650024414 23.0922107697
-1.2890125513 52.5847587585 22.9043292999
-1.2882121801 52.5949935913 22.7142848969
-1.2869361639 52.5955314636 22.5220241547
-1.2852847576 52.5884208679 22.3279991150
-1.2834345102 52.5772628784 22.1330261230
-1.2816007137 52.5664405823 21.9381084442
-1.2799925804 52.5602149963 21.7442378998
-1.2787616253 52.5616836548 21.5521392822
-1.2779655457 52.5720062256 21.3620986938
-1.2775585651 52.5902557373 21.1739139557
-1.2774059772 52.6136856079 20.9869575500
-1.2773162127 52.6383934021 20.8003215790
-1.2770886421 52.6602897644 20.6130485535
-1.2765704393 52.6762657166 20.4243965149
-1.2756969929 52.6850051880 20.2340469360
-1.2745019197 52.6871986389 20.0421466827
-1.2730956078 52.6850891113 19.8492221832
-1.2716276646 52.6817283630 19.6559886932
-1.2702448368 52.6800994873 19.4631576538
-1.2690558434 52.6824188232 19.2712631226
-1.2681080103 52.6896476746 19.0805435181
-1.2673833370 52.7014122009 18.8909206390
-1.2668092251 52.7162475586 18.7020416260
-1.2662802935 52.7319946289 18.5133972168
-1.2656778097 52.7462463379 18.3244018555
-1.2648845911 52.7566108704 18.1344718933
-1.2637970448 52.7609977722 17.9430885315
-1.2623414993 52.7578887939 17.7498741150
-1.2604932785 52.7468032837 17.5546932220
-1.2583028078 52.7287559509 17.3577842712
-1.2559174299 52.7067527771 17.1598739624
-1.2535852194 52.6858291626 16.9621963501
-1.2516175508 52.6723289490 16.7663211823
-1.2503172159 52.6723937988 16.5737876892
-1.2498891354 52.6901931763 16.3856544495
-1.2503547668 52.7261543274 16.2020606995
-1.2514978647 52.7758827209 16.0219421387
-1.2529025078 52.8309173584 15.8432064056
-1.2541036606 52.8818092346 15.6634902954
-1.2547688484 52.9218025208 15.4810857773
-1.2547981739 52.9488716125 15.2954645157
-1.2542999983 52.9652214050 15.1071586609
-1.2534877062 52.9751853943 14.9172477722
-1.2525706291 52.9830207825 14.7268018723
-1.2516819239 52.9914321899 14.5365047455
-1.2508448362 53.0008926392 14.3464794159
-1.2499773502 53.0097312927 14.1562995911
-1.2489335537 53.0149917603 13.9652051926
-1.2475658655 53.0136756897 13.7724208832
-1.2457722425 53.0037155151 13.5774011612
-1.2435032129 52.9841041565 13.3798704147
-1.2407580614 52.9548339844 13.1798095703
-1.2376194000 52.9175796509 12.9776353836
-1.2342909575 52.8764839172 12.7744102478
-1.2310639620 52.8374481201 12.5716676712
-1.2282282114 52.8063659668 12.3709468842
-1.2260102034 52.7878227234 12.1734638214
-1.2245546579 52.7847518921 11.9800138474
-1.2239185572 52.7983093262 11.7909259796
-1.2240639925 52.8277168274 11.6060256958
-1.2248607874 52.8703346252 11.4246444702
-1.2261006832 52.9219360352 11.2456874847
-1.2275307178 52.9773826599 11.0678062439
-1.2289069891 53.0317306519 10.8896923065
-1.2300552130 53.0814476013 10.7104024887
-1.2308861017 53.1247253418 10.5294446945
-1.2313439846 53.1604309082 10.3465042114
-1.2313528061 53.1870269775 10.1611557007
-1.2308421135 53.2030906677 9.9729976654
-1.2298324108 53.2090377808 9.7821245193
-1.2284812927 53.2080650330 9.5893812180
-1.2270355225 53.2051734924 9.3961105347
-1.2257310152 53.2051506042 9.2036075592
-1.2247102261 53.2108726501 9.0126609802
-1.2239919901 53.2227287292 8.8233871460
-1.2234939337 53.2390403748 8.6353387833
-1.2230788469 53.2570343018 8.4477624893
-1.2225937843 53.2736091614 8.2598123550
-1.2218912840 53.2857742310 8.0706634521
-1.2208487988 53.2910537720 7.8796234131
-1.2194072008 53.2882537842 7.6863493919
-1.2176166773 53.2783889771 7.4911103249
-1.2156494856 53.2649497986 7.2948598862
-1.2137528658 53.2529411316 7.0989847183
-1.2121627331 53.2471389771 6.9048180580
-1.2110241652 53.2504806519 6.7131910324
-1.2103508711 53.2632408142 6.5241980553
-1.2100378275 53.2832908630 6.3372573853
-1.2099133730 53.3071556091 6.1514072418
-1.2098007202 53.3312568665 5.9656448364
-1.2095526457 53.3526115417 5.7791304588
-1.2090604305 53.3690261841 5.5912370682
-1.2082545757 53.3790931702 5.4015564919
-1.2071075439 53.3822593689 5.2099208832
-1.2056399584 53.3789405823 5.0164351463
-1.2039288282 53.3707008362 4.8215341568
-1.2021236420 53.3605575562 4.6260724068
-1.2004563808 53.3532066345 4.4313921928
-1.1992181540 53.3545303345 4.2391872406
-1.1986728907 53.3698692322 4.0510091782
-1.1989352703 53.4015350342 3.8675510883
-1.1998898983 53.4471893311 3.6881668568
-1.2012147903 53.5003242493 3.5109961033
-1.2024896145 53.5524368286 3.3335871696
-1.2033240795 53.5956459045 3.1536440849
-1.2034821510 53.6251754761 2.9697613716
-1.2030105591 53.6419792175 2.7821910381
-1.2023266554 53.6544876099 2.5933787823
-1.2021651268 53.6775512695 2.4076681137
-1.2033222914 53.7272529602 2.2298052311
-1.2062909603 53.8135414124 2.0627663136
-1.2110227346 53.9354286194 1.9063265324
-1.2170133591 54.0827255249 1.7575372458
-1.2236311436 54.2426605225 1.6126639843
-1.2303835154 54.4052886963 1.4687764645
-1.2369358540 54.5638542175 1.3238692284
-1.2429994345 54.7125244141 1.1761981249
-1.2482793331 54.8453483582 1.0239682198
-1.2525207996 54.9571914673 0.8656129241
-1.2555944920 55.0454406738 0.7003124356
-1.2575453520 55.1110153198 0.5282993913
-1.2585544586 55.1575698853 0.3506334424
-1.2588666677 55.1900558472 0.1687724888
-44.8672676086 -15.5162849426 29.5497589111
-44.8231239319 -15.5008773804 29.3039512634
-44.7608489990 -15.4797620773 29.0614967346
-44.7030677795 -15.4600610733 28.8182964325
-44.6607513428 -15.4452285767 28.5723247528
-44.6316261292 -15.4345493317 28.3239688873
-44.6081008911 -15.4256334305 28.0746097565
-44.5848808289 -15.4168138504 27.8252143860
-44.5605888367 -15.4076566696 27.5760421753
-44.5345039368 -15.3979349136 27.3272266388
-44.5037918091 -15.3867568970 27.0793075562
-44.4646606445 -15.3729286194 26.8330020905
-44.4154624939 -15.3559322357 26.5886421204
-44.3579063416 -15.3363056183 26.3459205627
-44.2958602905 -15.3152666092 26.1041221619
-44.2339820862 -15.2942800522 25.8623638153
-44.1772537231 -15.2749147415 25.6196937561
-44.1305847168 -15.2587175369 25.3751564026
-44.0978507996 -15.2469053268 25.1279850006
-44.0809211731 -15.2400665283 24.8777923584
-44.0794296265 -15.2380876541 24.6246147156
-44.0912551880 -15.2403011322 24.3688354492
-44.1130676270 -15.2456560135 24.1110820770
-44.1401557922 -15.2526721954 23.8522548676
-44.1652374268 -15.2590551376 23.5937805176
-44.1774444580 -15.2613868713 23.3378028870
-44.1642379761 -15.2557210922 23.0868358612
-44.1176452637 -15.2395486832 22.8425140381
-44.0414085388 -15.2140455246 22.6041584015
-43.9524765015 -15.1845493317 22.3684329987
-43.8742027283 -15.1584081650 22.1306781769
-43.8264846802 -15.1418819427 21.8868637085
50.5262947083 14.6078414917 31.1459617615
50.5736846924 14.6238842010 30.9658946991
50.6522865295 14.6497421265 30.7932662964
50.7461547852 14.6803989410 30.6243572235
50.8408355713 14.7113122940 30.4557590485
50.9255752563 14.7390966415 30.2849082947
50.9934844971 14.7615890503 30.1101379395
51.0419464111 14.7779655457 29.9307861328
51.0723419189 14.7886610031 29.7471466064
51.0883865356 14.7948436737 29.5600814819
51.0940513611 14.7977619171 29.3705196381
51.0922889709 14.7983446121 29.1791553497
51.0848617554 14.7971467972 28.9864063263
51.0730819702 14.7945795059 28.7925796509
51.0592155457 14.7913570404 28.5982208252
51.0477828979 14.7888984680 28.4044322968
51.0455513000 14.7893352509 28.2128849030
51.0599899292 14.7950115204 28.0254364014
51.0969467163 14.8077697754 27.8435688019
51.1586189270 14.8282976151 27.6678676605
51.2423171997 14.8557491302 27.4977130890
51.3407554626 14.8878355026 27.3313369751
51.4438705444 14.9213914871 27.1662540436
51.5412330627 14.9531383514 26.9998607635
51.6239967346 14.9802951813 26.8299236298
51.6861076355 15.0009565353 26.6548881531
51.7246818542 15.0142192841 26.4739875793
51.7394790649 15.0200071335 26.2871112823
51.7321586609 15.0188407898 26.0946350098
51.7062683105 15.0118350983 25.8974170685
51.6675338745 15.0007934570 25.6968803406
51.6233596802 14.9880428314 25.4948959351
51.5815353394 14.9760303497 25.2934474945
51.5490989685 14.9669704437 25.0943508148
51.5315971375 14.9626045227 24.8990554810
51.5322532654 14.9639472961 24.7084217072
51.5512199402 14.9710454941 24.5225296021
51.5855903625 14.9829854965 24.3406543732
51.6303749084 14.9981994629 24.1615333557
51.6797866821 15.0148668289 23.9836730957
51.7278289795 15.0311040878 23.8055114746
51.7685279846 15.0450325012 23.6254825592
51.7965850830 15.0549869537 23.4421730042
51.8084869385 15.0598630905 23.2546329498
51.8032264709 15.0593452454 23.0625648499
51.7822914124 15.0539007187 22.8663272858
51.7492980957 15.0446662903 22.6668510437
51.7093505859 15.0332469940 22.4654712677
51.6683845520 15.0215072632 22.2637596130
51.6325836182 15.0113916397 22.0633697510
51.6075935364 15.0046739578 21.8658294678
51.5973587036 15.0025939941 21.6722183228
51.6031303406 15.0055437088 21.4829044342
51.6231079102 15.0129594803 21.2974338531
51.6527366638 15.0234079361 21.1145992279
51.6857528687 15.0349206924 20.9327182770
51.7159194946 15.0455369949 20.7500972748
51.7385787964 15.0537948608 20.5654621124
51.7508888245 15.0587987900 20.3780155182
51.7507934570 15.0599050522 20.1871738434
51.7360305786 15.0564031601 19.9922924042
51.7042007446 15.0475368500 19.7926788330
51.6539840698 15.0328922272 19.5879344940
51.5867004395 15.0128870010 19.3783874512
51.5070037842 14.9889812469 19.1652984619
51.4219741821 14.9633989334 18.9506092072
51.3389701843 14.9384555817 18.7363681793
51.2635917664 14.9159088135 18.5241413116
51.1991195679 14.8967885971 18.3148670197
51.1476173401 14.8817443848 18.1091442108
51.1109313965 14.8713560104 17.9075222015
51.0898208618 14.8658628464 17.7102432251
51.0821151733 14.8645811081 17.5167217255
51.0823135376 14.8657827377 17.3254261017
51.0831031799 14.8671703339 17.1342945099
51.0770759583 14.8664159775 16.9412117004
51.0577125549 14.8614721298 16.7443046570
51.0201187134 14.8508005142 16.5421466827
50.9614143372 14.8334970474 16.3338699341
50.8799591064 14.8090457916 16.1189651489
50.7740135193 14.7769021988 15.8968811035
50.6419830322 14.7365636826 15.6671104431
50.4851455688 14.6884326935 15.4299716949
50.3108482361 14.6348180771 15.1875467300
50.1327590942 14.5800132751 14.9437808990
49.9668693542 14.5290422440 14.7033281326
49.8254890442 14.4857740402 14.4698162079
49.7134323120 14.4517164230 14.2447004318
49.6285133362 14.4261856079 14.0273990631
49.5651092529 14.4074134827 13.8163108826
49.5175209045 14.3936109543 13.6097993851
49.4812812805 14.3833742142 13.4065732956
49.4523620605 14.3754358292 13.2054605484
49.4258079529 14.3682422638 13.0050058365
49.3956298828 14.3599100113 12.8034305573
49.3561286926 14.3486490250 12.5990266800
49.3033485413 14.3332166672 12.3905916214
49.2357482910 14.3131313324 12.1776399612
49.1543655396 14.2887163162 11.9604511261
49.0626716614 14.2610645294 11.7400445938
48.9664993286 14.2320060730 11.5181579590
48.8743896484 14.2042245865 11.2973642349
48.7980957031 14.1814117432 11.0812339783
48.7523880005 14.1682052612 10.8742828369
48.7533569336 14.1696605682 10.6814727783
48.8143463135 14.1899642944 10.5069608688
48.9396286011 14.2304611206 10.3521785736
49.1196289063 14.2881422043 10.2143182755
49.3326606750 14.3561954498 10.0868320465
49.5533065796 14.4266386032 9.9619665146
49.7612762451 14.4930982590 9.8334779739
49.9455680847 14.5521211624 9.6979436874
50.1038513184 14.6029739380 9.5545949936
50.2392120361 14.6466283798 9.4043359756
50.3565711975 14.6846275330 9.2486524582
50.4604377747 14.7183885574 9.0889129639
50.5539054871 14.7488842010 8.9260578156
50.6378784180 14.7763967514 8.7603483200
50.7108535767 14.8004560471 8.5912952423
50.7703285217 14.8202753067 8.4180879593
50.8153343201 14.8355493546 8.2403955460
50.8477210999 14.8468608856 8.0587739944
50.8710746765 14.8553361893 7.8743305206
50.8884429932 14.8619327545 7.6880154610
50.9005889893 14.8668880463 7.5000562668
50.9053573608 14.8695278168 7.3097591400
50.8982086182 14.8684263229 7.1156606674
50.8739852905 14.8619623184 6.9160871506
50.8299522400 14.8492803574 6.7101302147
50.7689094543 14.8312559128 6.4986462593
50.6999130249 14.8107366562 6.2845168114
50.6351852417 14.7915563583 6.0716638565
50.5845031738 14.7767887115 5.8632559776
50.5500106812 14.7671031952 5.6600131989
50.5234069824 14.7598953247 5.4592766762
50.4869804382 14.7496032715 5.2553052902
50.4194107056 14.7295341492 5.0411367416
50.3056640625 14.6949682236 4.8118019104
50.1469841003 14.6462974548 4.5676164627
49.9642066956 14.5900630951 4.3153176308
49.7894935608 14.5363616943 4.0654153824
49.6501655579 14.4937686920 3.8269143105
49.5563163757 14.4654560089 3.6032149792
49.5007095337 14.4491481781 3.3920159340
49.4687461853 14.4402627945 3.1885616779
49.4500236511 14.4355344772 2.9894499779
49.4435005188 14.4346361160 2.7943613529
49.4537887573 14.4390134811 2.6048545837
49.4837379456 14.4495630264 2.4219150543
49.5303344727 14.4653387070 2.2445752621
49.5853652954 14.4837617874 2.0701165199
49.6384162903 14.5015621185 1.8950592279
49.6808357239 14.5160245895 1.7164902687
49.7092018127 14.5260772705 1.5332362652
49.7254791260 14.5323343277 1.3459315300
49.7336196899 14.5360374451 1.1558877230
49.7358551025 14.5378875732 0.9638476372
49.7313346863 14.5376167297 0.7695075870
49.7171478271 14.5343122482 0.5718660951
49.6906776428 14.5271530151 0.3700107336
49.6513977051 14.5159721375 0.1637348682
-8.3278131485 -43.6950645447 30.5629367828
-8.3227968216 -43.6798782349 30.3157958984
-8.3148317337 -43.6510734558 30.0708618164
-8.3055953979 -43.6163940430 29.8269062042
-8.2961912155 -43.5809440613 29.5831108093
-8.2859792709 -43.5417594910 29.3399581909
-8.2731971741 -43.4907035828 29.0987911224
-8.2567415237 -43.4226837158 28.8604660034
-8.2371072769 -43.3399772644 28.6246395111
-8.2158918381 -43.2499694824 28.3901138306
-8.1948385239 -43.1607055664 28.1555671692
-8.1753435135 -43.0786323547 27.9199218750
-8.1584186554 -43.0084304810 27.6823806763
-8.1445436478 -42.9523124695 27.4425506592
-8.1333494186 -42.9085731506 27.2006931305
-8.1238079071 -42.8724670410 26.9575881958
-8.1150836945 -42.8401374817 26.7138786316
-8.1072216034 -42.8117866516 26.4695205688
-8.1009664536 -42.7908554077 26.2239208221
-8.0970497131 -42.7807312012 25.9764823914
-8.0957365036 -42.7826309204 25.7269744873
-8.0967607498 -42.7953300476 25.4755897522
-8.0992660522 -42.8148727417 25.2229938507
-8.1017570496 -42.8343467712 24.9703769684
-8.1025066376 -42.8457832336 24.7191314697
-8.1004362106 -42.8441810608 24.4701519012
-8.0958423615 -42.8309288025 24.2232170105
-8.0903186798 -42.8133811951 23.9770469666
-8.0857896805 -42.8004264832 23.7300777435
-8.0833902359 -42.7973098755 23.4813652039
-8.0830202103 -42.8035736084 23.2309741974
-8.0836553574 -42.8144798279 22.9797363281
-8.0839252472 -42.8236999512 22.7287807465
12.1287651062 50.2746429443 30.2210369110
12.1392478943 50.3169631958 30.0373344421
12.1557130814 50.3869514465 29.8594989777
12.1737003326 50.4639816284 29.6832294464
12.1899375916 50.5329246521 29.5053348541
12.2032842636 50.5884971619 29.3246822357
12.2141237259 50.6324729919 29.1416244507
12.2232036591 50.6683120728 28.9568767548
12.2307901382 50.6972465515 28.7706890106
12.2365274429 50.7176284790 28.5826950073
12.2399244308 50.7271842957 28.3923892975
12.2409467697 50.7257537842 28.1997184753
12.2401866913 50.7160797119 28.0052528381
12.2385978699 50.7025718689 27.8099365234
12.2372083664 50.6899795532 27.6147975922
12.2369985580 50.6828498840 27.4208297729
12.2388849258 50.6854171753 27.2289676666
12.2436141968 50.7011337280 27.0399913788
12.2515039444 50.7314720154 26.8542461395
12.2620983124 50.7743301392 26.6712970734
12.2741136551 50.8237609863 26.4898471832
12.2859468460 50.8723526001 26.3082675934
12.2964172363 50.9146385193 26.1253356934
12.3050622940 50.9484786987 25.9405651093
12.3119182587 50.9740409851 25.7539768219
12.3173046112 50.9928092957 25.5658874512
12.3218574524 51.0077171326 25.3769454956
12.3265466690 51.0232582092 25.1881580353
12.3324327469 51.0443382263 25.0006389618
12.3402805328 51.0744934082 24.8151969910
12.3502864838 51.1146430969 24.6320610046
12.3620510101 51.1629257202 24.4508228302
12.3746862411 51.2152404785 24.2705593109
12.3870162964 51.2661476135 24.0900325775
12.3978767395 51.3102531433 23.9079952240
12.4064416885 51.3437385559 23.7235584259
12.4123630524 51.3649902344 23.5363273621
12.4156532288 51.3740653992 23.3462924957
12.4164857864 51.3717651367 23.1536159515
12.4150676727 51.3590431213 22.9585037231
12.4116268158 51.3369636536 22.7611827850
12.4065265656 51.3071975708 22.5620269775
12.4004373550 51.2728576660 22.3617534637
12.3944253922 51.2388687134 22.1615142822
12.3897352219 51.2110023499 21.9626712799
12.3873586655 51.1938362122 21.7663230896
12.3877048492 51.1892814636 21.5729408264
12.3905858994 51.1964569092 21.3823375702
12.3953695297 51.2124404907 21.1938362122
12.4011249542 51.2329216003 21.0064258575
12.4067430496 51.2527694702 20.8188838959
12.4111185074 51.2668609619 20.6299743652
12.4133720398 51.2711372375 20.4387092590
12.4130430222 51.2634506226 20.2445526123
12.4101743698 51.2440071106 20.0475311279
12.4053211212 51.2153739929 19.8482456207
12.3994894028 51.1822090149 19.6478176117
12.3939571381 51.1504325867 19.4476795197
12.3899841309 51.1258697510 19.2492618561
12.3884944916 51.1128044128 19.0536289215
12.3898258209 51.1128005981 18.8611850739
12.3935985565 51.1241035461 18.6715240479
12.3988103867 51.1420669556 18.4835186005
12.4041814804 51.1607742310 18.2957115173
12.4086170197 51.1751480103 18.1068439484
12.4115304947 51.1824722290 17.9162330627
12.4129209518 51.1827430725 17.7238616943
12.4132404327 51.1780548096 17.5302448273
12.4131956100 51.1716804504 17.3361930847
12.4136037827 51.1673965454 17.1426525116
12.4153413773 51.1692771912 16.9506530762
12.4193382263 51.1816177368 16.7612934113
12.4264650345 51.2084579468 16.5756168365
12.4372415543 51.2521972656 16.3942604065
12.4513902664 51.3115615845 16.2169265747
12.4675350189 51.3801727295 16.0420207977
12.4834156036 51.4475631714 15.8668804169
12.4966945648 51.5029029846 15.6887264252
12.5058364868 51.5390815735 15.5057086945
12.5104255676 51.5541725159 15.3172960281
12.5108575821 51.5500106812 15.1239213943
12.5079307556 51.5302886963 14.9265069962
12.5028238297 51.5004615784 14.7264404297
12.4972963333 51.4686927795 14.5258245468
12.4934988022 51.4449310303 14.3272514343
12.4931373596 51.4370880127 14.1328039169
12.4965972900 51.4469451904 13.9429759979
12.5028352737 51.4696807861 13.7565355301
12.5101318359 51.4973144531 13.5714063644
12.5169763565 51.5228538513 13.3857526779
12.5225124359 51.5423355103 13.1985216141
12.5265340805 51.5548019409 13.0094490051
12.5293512344 51.5616836548 12.8189001083
12.5316495895 51.5661659241 12.6277160645
12.5343437195 51.5724754333 12.4370193481
12.5383310318 51.5847854614 12.2479276657
12.5442008972 51.6058158875 12.0611829758
12.5519704819 51.6356468201 11.8768234253
12.5610570908 51.6715850830 11.6941394806
12.5705423355 51.7093696594 11.5119915009
12.5794763565 51.7445983887 11.3291921616
12.5869331360 51.7729873657 11.1445741653
12.5919675827 51.7901496887 10.9569330215
12.5938425064 51.7926712036 10.7653188705
12.5924844742 51.7802124023 10.5696096420
12.5886621475 51.7563247681 10.3707513809
12.5836658478 51.7270011902 10.1703662872
12.5787649155 51.6981163025 9.9700593948
12.5748157501 51.6736412048 9.7709255219
12.5721883774 51.6552963257 9.5734472275
12.5709218979 51.6432533264 9.3776836395
12.5709314346 51.6371192932 9.1835393906
12.5721330643 51.6365165710 8.9909181595
12.5744771957 51.6412048340 8.7997636795
12.5779428482 51.6510963440 8.6100606918
12.5825386047 51.6662292480 8.4218301773
12.5882177353 51.6863784790 8.2350196838
12.5946626663 51.7100791931 8.0492248535
12.6010665894 51.7335929871 7.8633999825
12.6062154770 51.7512855530 7.6759557724
12.6090288162 51.7581520081 7.4854631424
12.6092529297 51.7530212402 7.2915701866
12.6078310013 51.7402534485 7.0954947472
12.6066484451 51.7285957336 6.8997144699
12.6077442169 51.7275009155 6.7069263458
12.6123580933 51.7427139282 6.5187959671
12.6204586029 51.7740936279 6.3353099823
12.6309976578 51.8167800903 6.1551051140
12.6425228119 51.8640441895 5.9762635231
12.6536216736 51.9093284607 5.7969021797
12.6631164551 51.9471855164 5.6154427528
12.6701974869 51.9738426208 5.4307799339
12.6745147705 51.9876861572 5.2424240112
12.6762075424 51.9893646240 5.0505390167
12.6758108139 51.9813499451 4.8558235168
12.6741027832 51.9672584534 4.6593155861
12.6720790863 51.9516944885 4.4623541832
12.6710300446 51.9406547546 4.2666940689
12.6724615097 51.9411163330 4.0743956566
12.6776905060 51.9591903687 3.8872790337
12.6873645782 51.9978752136 3.7062654495
12.7012100220 52.0559158325 3.5310180187
12.7181024551 52.1280822754 3.3600249290
12.7364158630 52.2068481445 3.1910736561
12.7545576096 52.2848167419 3.0219764709
12.7714586258 52.3570327759 2.8512532711
12.7867918015 52.4219818115 2.6784393787
12.8008251190 52.4809036255 2.5038945675
12.8140916824 52.5362701416 2.3283483982
12.8272209167 52.5909996033 2.1526727676
12.8411178589 52.6492958069 1.9781326056
12.8571891785 52.7176818848 1.8067053556
12.8770914078 52.8038368225 1.6407339573
12.9018964767 52.9127426147 1.4817618132
12.9312591553 53.0427894592 1.3293429613
12.9632863998 53.1852073669 1.1808438301
12.9952564240 53.3273658752 1.0324342251
13.0246181488 53.4574241638 0.8804954290
13.0495986938 53.5671653748 0.7224856019
13.0692100525 53.6520004272 0.5569610596
13.0830373764 53.7100028992 0.3832800090
13.0912580490 53.7419929504 0.2016484439
13.0948486328 53.7525062561 0.0134168677
-46.1307907104 -3.3193230629 29.2548351288
-46.1300086975 -3.3178503513 29.0018367767
-46.1319274902 -3.3164942265 28.7483577728
-46.1321830750 -3.3150663376 28.4951591492
-46.1304550171 -3.3135528564 28.2423000336
-46.1320419312 -3.3121821880 27.9888496399
-46.1437721252 -3.3112497330 27.7335815430
-46.1673240662 -3.3108277321 27.4761829376
-46.1957817078 -3.3106172085 27.2178668976
-46.2162780762 -3.3100626469 26.9609355927
-46.2164840698 -3.3086318970 26.7076263428
-46.1902122498 -3.3060581684 26.4590988159
-46.1393814087 -3.3024244308 26.2150535583
-46.0728187561 -3.2981121540 25.9739303589
-46.0030632019 -3.2936620712 25.7334651947
-45.9420013428 -3.2895879745 25.4914855957
-45.8966712952 -3.2861931324 25.2466754913
-45.8672142029 -3.2834832668 24.9989833832
-45.8484268188 -3.2812337875 24.7493419647
-45.8342819214 -3.2791850567 24.4988517761
-45.8219757080 -3.2772154808 24.2480258942
-45.8118362427 -3.2753393650 23.9968013763
-45.8038253784 -3.2735550404 23.7451801300
-45.7951469421 -3.2717421055 23.4936866760
-45.7815361023 -3.2697162628 23.2431259155
-45.7601089478 -3.2673535347 22.9940586090
-45.7310981750 -3.2646639347 22.7464523315
-45.6980285645 -3.2617993355 22.4996490479
-45.6665916443 -3.2590055466 22.2525653839
-45.6417770386 -3.2564973831 22.0042400360
-45.6249732971 -3.2543346882 21.7543888092
-45.6141242981 -3.2524282932 21.5033988953
53.1911430359 1.0600067377 31.0910682678
53.2253837585 1.0625613928 30.9078674316
53.2790641785 1.0659501553 30.7291049957
53.3386650085 1.0695923567 30.5517482758
53.3919563293 1.0729635954 30.3730220795
53.4306449890 1.0757079124 30.1910228729
53.4507904053 1.0776567459 30.0048179626
53.4530181885 1.0788369179 29.8145160675
53.4425277710 1.0794715881 29.6212825775
53.4276924133 1.0799200535 29.4270248413
53.4171142578 1.0805511475 29.2337265015
53.4163703918 1.0816041231 29.0426921844
53.4265289307 1.0831245184 28.8541870117
53.4455757141 1.0850260258 28.6677646637
53.4713630676 1.0872163773 28.4829368591
53.5032958984 1.0896699429 28.2995777130
53.5416831970 1.0923998356 28.1177711487
53.5861625671 1.0953906775 27.9374427795
53.6347160339 1.0985560417 27.7581291199
53.6838417053 1.1017453671 27.5790061951
53.7295150757 1.1047863960 27.3991165161
53.7683944702 1.1075363159 27.2176589966
53.7987174988 1.1099191904 27.0341949463
53.8206253052 1.1119415760 26.8487453461
53.8359413147 1.1136814356 26.6617317200
53.8472671509 1.1152504683 26.4737682343
53.8567276001 1.1167395115 26.2853622437
53.8651466370 1.1181838512 26.0967082977
53.8724288940 1.1195795536 25.9077835083
53.8787117004 1.1209324598 25.7186145782
53.8850097656 1.1222860813 25.5294532776
53.8928833008 1.1237070560 25.3406772614
53.9037094116 1.1252543926 25.1526298523
53.9182319641 1.1269599199 24.9654979706
53.9364738464 1.1288244724 24.7792949677
53.9576568604 1.1308150291 24.5938377380
53.9799575806 1.1328530312 24.4086780548
54.0004005432 1.1348114014 24.2230758667
54.0154266357 1.1365381479 24.0361442566
54.0221061707 1.1379076242 23.8471355438
54.0190696716 1.1388616562 23.6556968689
54.0068130493 1.1394212246 23.4619274139
53.9875526428 1.1396815777 23.2663745880
53.9651527405 1.1398078203 23.0699977875
53.9446907043 1.1400169134 22.8740730286
53.9313087463 1.1405291557 22.6799144745
53.9287605286 1.1415046453 22.4884872437
53.9382438660 1.1429944038 22.3001194000
53.9578323364 1.1449161768 22.1143398285
53.9827575684 1.1470658779 21.9299449921
54.0068244934 1.1491787434 21.7453556061
54.0243721008 1.1510130167 21.5591106415
54.0314064026 1.1523977518 21.3701648712
54.0255012512 1.1532298326 21.1778736115
54.0055732727 1.1534627676 20.9819278717
53.9724197388 1.1531310081 20.7825107574
53.9295501709 1.1523844004 20.5805091858
53.8827743530 1.1514713764 20.3774280548
53.8381996155 1.1506527662 20.1748542786
53.8001632690 1.1501135826 19.9739360809
53.7706489563 1.1499387026 19.7752056122
53.7499847412 1.1501420736 19.5787677765
53.7375526428 1.1506969929 19.3844738007
53.7319107056 1.1515417099 19.1919574738
53.7307662964 1.1525788307 19.0006237030
53.7312698364 1.1536860466 18.8097190857
53.7304267883 1.1547359228 18.6184501648
53.7253799438 1.1556066275 18.4260463715
53.7133255005 1.1561782360 18.2317504883
53.6913185120 1.1563253403 18.0347537994
53.6564636230 1.1559243202 17.8342552185
53.6063919067 1.1548746824 17.6295967102
53.5398483276 1.1531227827 17.4204044342
53.4570236206 1.1506767273 17.2066974640
53.3596115112 1.1476093531 16.9889087677
53.2506027222 1.1440480947 16.7678260803
53.1340904236 1.1401677132 16.5445442200
53.0157814026 1.1362113953 16.3206157684
52.9037208557 1.1325227022 16.0982475281
52.8079109192 1.1295274496 15.8802042007
52.7379722595 1.1276358366 15.6691722870
52.7001152039 1.1271122694 15.4669189453
52.6955833435 1.1280093193 15.2738513947
52.7213897705 1.1301995516 15.0892028809
52.7720336914 1.1334480047 14.9114980698
52.8406066895 1.1374599934 14.7388544083
52.9190940857 1.1418939829 14.5690670013
52.9987640381 1.1463778019 14.3997030258
53.0712432861 1.1505548954 14.2284126282
53.1299934387 1.1541465521 14.0533399582
53.1709060669 1.1569781303 13.8732976913
53.1919174194 1.1589620113 13.6876697540
53.1928863525 1.1600919962 13.4963750839
53.1762351990 1.1604719162 13.3000669479
53.1470184326 1.1603169441 13.1001510620
53.1115112305 1.1598943472 12.8983945847
53.0755004883 1.1594507694 12.6964426041
53.0437049866 1.1591868401 12.4956464767
53.0202903748 1.1592797041 12.2972106934
53.0093040466 1.1599020958 12.1023197174
53.0140457153 1.1611937284 11.9119491577
53.0357856750 1.1632086039 11.7264938354
53.0734024048 1.1658990383 11.5456647873
53.1244850159 1.1691621542 11.3687906265
53.1865959167 1.1728940010 11.1951856613
53.2572784424 1.1769900322 11.0241556168
53.3330612183 1.1813026667 10.8546991348
53.4093093872 1.1856344938 10.6854696274
53.4818992615 1.1898103952 10.5152559280
53.5490303040 1.1937534809 10.3435192108
53.6108818054 1.1974717379 10.1703042984
53.6675796509 1.2009704113 9.9956350327
53.7177276611 1.2041903734 9.8190917969
53.7589149475 1.2070289850 9.6399431229
53.7889404297 1.2093929052 9.4575176239
53.8063812256 1.2112218142 9.2713718414
53.8105125427 1.2124849558 9.0812616348
53.8014564514 1.2131876945 8.8871994019
53.7807426453 1.2133954763 8.6896209717
53.7517089844 1.2132495642 8.4895048141
53.7192993164 1.2129607201 8.2883272171
53.6895599365 1.2127854824 8.0879087448
53.6688308716 1.2129932642 7.8901729584
53.6621780396 1.2137989998 7.6966733932
53.6712684631 1.2152734995 7.5079445839
53.6936302185 1.2173115015 7.3232622147
53.7245826721 1.2197142839 7.1412248611
53.7604408264 1.2223250866 6.9607200623
53.8000221252 1.2250937223 6.7813954353
53.8437042236 1.2280362844 6.6033735275
53.8917198181 1.2311625481 6.4267349243
53.9434661865 1.2344467640 6.2513008118
53.9976043701 1.2378320694 6.0766639709
54.0521049500 1.2412325144 5.9022026062
54.1043510437 1.2445368767 5.7271032333
54.1516075134 1.2476294041 5.5505132675
54.1915092468 1.2504092455 5.3716821671
54.2220611572 1.2527924776 5.1899766922
54.2416381836 1.2547098398 5.0048694611
54.2493400574 1.2561234236 4.8160557747
54.2455825806 1.2570511103 4.6236457825
54.2322769165 1.2575737238 4.4282169342
54.2123641968 1.2578164339 4.2306804657
54.1894340515 1.2579314709 4.0321588516
54.1679840088 1.2581093311 3.8340680599
54.1535682678 1.2585856915 3.6381769180
54.1515769958 1.2595888376 3.4462108612
54.1648521423 1.2612390518 3.2590992451
54.1925010681 1.2634985447 3.0765879154
54.2311630249 1.2662243843 2.8976264000
54.2770805359 1.2692576647 2.7210345268
54.3269767761 1.2724591494 2.5457711220
54.3778877258 1.2757031918 2.3708903790
54.4275169373 1.2788928747 2.1956560612
54.4749259949 1.2819879055 2.0197594166
54.5200119019 1.2849843502 1.8431639671
54.5618324280 1.2878422737 1.6655607224
54.5974693298 1.2904378176 1.4859925508
54.6226348877 1.2925899029 1.3030538559
54.6334915161 1.2941360474 1.1154718399
54.6281852722 1.2949976921 0.9226123691
54.6074523926 1.2952063084 0.7246860266
54.5743103027 1.2948899269 0.5226542950
54.5330123901 1.2942285538 0.3178906143
54.4877319336 1.2933988571 0.1117555276
-19.2983951569 -39.9480018616 30.3315887451
-19.2926101685 -39.9404449463 30.0834884644
-19.2837791443 -39.9269676208 29.8364429474
-19.2741870880 -39.9120063782 29.5896739960
-19.2638969421 -39.8956909180 29.3431606293
-19.2513923645 -39.8750686646 29.0974349976
-19.2357444763 -39.8483352661 28.8528347015
-19.2176666260 -39.8168754578 28.6091194153
-19.1986141205 -39.7835197449 28.3657836914
-19.1792259216 -39.7495117188 28.1226024628
-19.1586341858 -39.7131614685 27.8798904419
-19.1348323822 -39.6705703735 27.6383686066
-19.1056861877 -39.6175842285 27.3988151550
-19.0704288483 -39.5527191162 27.1615276337
-19.0309143066 -39.4795684814 26.9258613586
-18.9911670685 -39.4059715271 26.6903686523
-18.9550666809 -39.3394622803 26.4536399841
-18.9243946075 -39.2835044861 26.2150077820
-18.8992919922 -39.2383766174 25.9743995667
-18.8800048828 -39.2045593262 25.7317028046
-18.8672714233 -39.1834793091 25.4866218567
-18.8607120514 -39.1744117737 25.2392711639
-18.8572540283 -39.1713752747 24.9907703400
-18.8518238068 -39.1644973755 24.7430019379
-18.8406162262 -39.1463890076 24.4974021912
-18.8244934082 -39.1187210083 24.2536678314
-18.8088951111 -39.0920715332 24.0097637177
-18.7995223999 -39.0775299072 23.7635326385
-18.7974185944 -39.0771255493 23.5145473480
-18.7984924316 -39.0829010010 23.2643432617
24.7705421448 45.5118217468 30.6264381409
24.7844448090 45.5360260010 30.4395580292
24.8083477020 45.5796852112 30.2571773529
24.8383331299 45.6351814270 30.0775756836
24.8710861206 45.6960601807 29.8992900848
24.9042053223 45.7576599121 29.7212448120
24.9357070923 45.8161087036 29.5425453186
24.9636592865 45.8676490784 29.3623085022
24.9863281250 45.9089164734 29.1797313690
25.0025291443 45.9375953674 28.9942531586
25.0117855072 45.9527587891 28.8056278229
25.0142803192 45.9547691345 28.6139144897
25.0109481812 45.9454383850 28.4195156097
25.0036430359 45.9283790588 28.2232646942
24.9948654175 45.9084510803 28.0263004303
24.9870262146 45.8903503418 27.8297405243
24.9819259644 45.8775787354 27.6344261169
24.9807682037 45.8724784851 27.4409294128
24.9843387604 45.8765792847 27.2496318817
24.9928436279 45.8902854919 27.0606517792
25.0054912567 45.9120521545 26.8736343384
25.0203609467 45.9381408691 26.6876907349
25.0349788666 45.9637413025 26.5016555786
25.0472011566 45.9846801758 26.3145122528
25.0557422638 45.9984550476 26.1256389618
25.0601902008 46.0042648315 25.9348239899
25.0608558655 46.0027160645 25.7422008514
25.0587081909 45.9956893921 25.5482177734
25.0553874969 45.9863777161 25.3536548615
25.0532226563 45.9793167114 25.1596317291
25.0551261902 45.9801750183 24.9675617218
25.0641937256 45.9949760437 24.7789649963
25.0828514099 46.0284423828 24.5950489044
25.1116199493 46.0815887451 24.4161052704
25.1480026245 46.1495513916 24.2409534454
25.1864738464 46.2215881348 24.0669136047
25.2202033997 46.2843894958 23.8906326294
25.2436790466 46.3272399902 23.7093715668
25.2545623779 46.3455810547 23.5219364166
25.2538948059 46.3414344788 23.3287906647
25.2451801300 46.3216247559 23.1316318512
25.2331428528 46.2953491211 22.9327850342
25.2223644257 46.2715263367 22.7345256805
25.2160663605 46.2564201355 22.5384731293
25.2156066895 46.2526779175 22.3453273773
25.2208290100 46.2599983215 22.1550350189
25.2306137085 46.2761993408 21.9670505524
25.2431240082 46.2977027893 21.7804603577
25.2559719086 46.3198661804 21.5940666199
25.2667007446 46.3379058838 21.4066181183
25.2734031677 46.3481063843 21.2171325684
25.2750549316 46.3484764099 21.0250701904
25.2715206146 46.3387489319 20.8303413391
25.2635498047 46.3203849792 20.6333122253
25.2527828217 46.2965812683 20.4348106384
25.2414340973 46.2716407776 20.2359695435
25.2316627502 46.2497673035 20.0379047394
25.2250576019 46.2340621948 19.8414516449
25.2224769592 46.2261886597 19.6470661163
25.2240848541 46.2264709473 19.4548530579
25.2294025421 46.2339744568 19.2645759583
25.2374095917 46.2467155457 19.0757160187
25.2467975616 46.2621421814 18.8875923157
25.2563514709 46.2778930664 18.6995716095
25.2652778625 46.2924270630 18.5112342834
25.2732315063 46.3050651550 18.3223953247
25.2800350189 46.3154640198 18.1329574585
25.2854747772 46.3232040405 17.9427986145
25.2894783020 46.3281517029 17.7518787384
25.2925300598 46.3312454224 17.5604496002
25.2957057953 46.3345794678 17.3690853119
25.3002338409 46.3405456543 17.1784458160
25.3069648743 46.3508033752 16.9889984131
25.3160820007 46.3657073975 16.8008499146
25.3270530701 46.3842201233 16.6137180328
25.3385753632 46.4038085938 16.4269065857
25.3485832214 46.4204444885 16.2392902374
25.3547153473 46.4295387268 16.0495758057
25.3554744720 46.4281654358 15.8569240570
25.3512859344 46.4171600342 15.6615514755
25.3443279266 46.4007644653 15.4646348953
25.3371810913 46.3839988708 15.2675848007
25.3316116333 46.3703002930 15.0713777542
25.3283710480 46.3611450195 14.8764371872
25.3276424408 46.3568725586 14.6828718185
25.3294506073 46.3575439453 14.4907073975
25.3338584900 46.3632774353 14.2999887466
25.3409099579 46.3741607666 14.1107501984
25.3502941132 46.3895835876 13.9228277206
25.3608016968 46.4071998596 13.7355518341
25.3701457977 46.4225463867 13.5476388931
25.3756637573 46.4304428101 13.3575801849
25.3756618500 46.4275856018 13.1644020081
25.3702869415 46.4142684937 12.9681663513
25.3613109589 46.3939399719 12.7698612213
25.3513755798 46.3717346191 12.5709743500
25.3435382843 46.3536224365 12.3732500076
25.3410053253 46.3458366394 12.1785306931
25.3463172913 46.3533287048 11.9882974625
25.3602390289 46.3775939941 11.8030204773
25.3813514709 46.4158592224 11.6219148636
25.4066772461 46.4623336792 11.4432897568
25.4326782227 46.5101242065 11.2651128769
25.4559803009 46.5526618958 11.0854291916
25.4738559723 46.5846252441 10.9026393890
25.4846248627 46.6027488708 10.7157430649
25.4880371094 46.6065483093 10.5245676041
25.4855365753 46.5988273621 10.3299264908
25.4801883698 46.5855598450 10.1335983276
25.4759922028 46.5745353699 9.9379234314
25.4765548706 46.5727806091 9.7450332642
25.4837913513 46.5840263367 9.5560808182
25.4974422455 46.6077613831 9.3709344864
25.5155162811 46.6401176453 9.1884422302
25.5352363586 46.6756782532 9.0069665909
25.5539836884 46.7093505859 8.8249540329
25.5699863434 46.7376708984 8.6413402557
25.5824642181 46.7591285706 8.4556484222
25.5913696289 46.7736282349 8.2678346634
25.5969924927 46.7817306519 8.0780601501
25.5997447968 46.7842407227 7.8865585327
25.6001529694 46.7821846008 7.6936392784
25.5989799500 46.7770538330 7.4997539520
25.5972824097 46.7708930969 7.3055362701
25.5964012146 46.7663230896 7.1118006706
25.5979862213 46.7665634155 6.9195566177
25.6039733887 46.7753753662 6.7299971581
25.6162242889 46.7963905334 6.5442767143
25.6356410980 46.8313674927 6.3629755974
25.6610984802 46.8781127930 6.1854310036
25.6891517639 46.9299201965 6.0095434189
25.7152175903 46.9778518677 5.8324923515
25.7355308533 47.0145759583 5.6519408226
25.7482910156 47.0365905762 5.4667491913
25.7534999847 47.0438842773 5.2768874168
25.7524414063 47.0389785767 5.0831289291
25.7476730347 47.0268363953 4.8870406151
25.7430915833 47.0150604248 4.6910462379
25.7432785034 47.0125770569 4.4980192184
25.7520275116 47.0267715454 4.3103609085
25.7709064484 47.0607070923 4.1290917397
25.7986602783 47.1119308472 3.9534599781
25.8317680359 47.1735916138 3.7812764645
25.8660106659 47.2374649048 3.6098897457
25.8981838226 47.2973060608 3.4372706413
25.9267520905 47.3501243591 3.2624340057
25.9512023926 47.3949203491 3.0850389004
25.9711780548 47.4309959412 2.9048397541
25.9863967896 47.4578018188 2.7216398716
25.9972438812 47.4760932922 2.5356667042
26.0053291321 47.4890022278 2.3479378223
26.0136680603 47.5024070740 2.1603834629
26.0263557434 47.5242843628 1.9756474495
26.0475292206 47.5626945496 1.7964218855
26.0797691345 47.6226768494 1.6244153976
26.1227989197 47.7036819458 1.4594888687
26.1732940674 47.7992401123 1.2995249033
26.2260246277 47.8991546631 1.1411426067
26.2757549286 47.9932250977 0.9809300900
26.3190288544 48.0747146606 0.8166133761
26.3549060822 48.1417884827 0.6475492120
26.3842926025 48.1962203979 0.4743051529
26.4086551666 48.2408561707 0.2978197038
26.4291782379 48.2780151367 0.1188557744
-44.8388061523 8.6075639725 28.8523006439
-44.8268203735 8.6063709259 28.6016120911
-44.8114814758 8.6044340134 28.3515338898
-44.7970886230 8.6027069092 28.1012954712
-44.7903022766 8.6026697159 27.8496818542
-44.7953720093 8.6052665710 27.5959033966
-44.8098907471 8.6099624634 27.3403778076
-44.8249435425 8.6147775650 27.0847263336
-44.8291931152 8.6171922684 26.8310375214
-44.8135833740 8.6151952744 26.5810108185
-44.7745285034 8.6079874039 26.3353500366
-44.7158622742 8.5964221954 26.0933895111
-44.6487846375 8.5829858780 25.8530673981
-44.5880126953 8.5709514618 25.6116390228
-44.5455055237 8.5629758835 25.3668365479
-44.5259437561 8.5600986481 25.1177444458
-44.5260200500 8.5615854263 24.8649406433
-44.5367546082 8.5654411316 24.6100997925
-44.5472831726 8.5692510605 24.3552761078
-44.5483894348 8.5709676743 24.1022319794
-44.5340881348 8.5692596436 23.8521404266
-44.5016059875 8.5635108948 23.6055660248
-44.4516105652 8.5538692474 23.3624134064
-44.3891716003 8.5414619446 23.1217327118
-44.3241004944 8.5284690857 22.8816356659
-44.2691307068 8.5177202225 22.6396389008
-44.2353515625 8.5116825104 22.3935470581
-44.2264671326 8.5111761093 22.1425895691
-44.2360801697 8.5147829056 21.8879814148
-44.2517013550 8.5197257996 21.6321601868
-44.2626419067 8.5236272812 21.3772392273
-44.2644653320 8.5255022049 21.1241130829
52.2127952576 -12.8653039932 30.8388195038
52.2549896240 -12.8735837936 30.6579780579
52.3174285889 -12.8863658905 30.4819011688
52.3784484863 -12.8988351822 30.3055667877
52.4228134155 -12.9075975418 30.1254005432
52.4458503723 -12.9116153717 29.9402694702
52.4506797791 -12.9115819931 29.7508716583
52.4436836243 -12.9089164734 29.5586757660
52.4314727783 -12.9050922394 29.3652286530
52.4194602966 -12.9013099670 29.1718044281
52.4111022949 -12.8983421326 28.9792289734
52.4077758789 -12.8964929581 28.7878379822
52.4094009399 -12.8957462311 28.5976219177
52.4155960083 -12.8960161209 28.4084987640
52.4266166687 -12.8973608017 28.2205390930
52.4435729980 -12.9000253677 28.0340194702
52.4677276611 -12.9042921066 27.8492565155
52.4991798401 -12.9101829529 27.6662921906
52.5357666016 -12.9172172546 27.4846115112
52.5732612610 -12.9244537354 27.3031921387
52.6069602966 -12.9308452606 27.1208839417
52.6335220337 -12.9356489182 26.9368629456
52.6519660950 -12.9386453629 26.7508697510
52.6635856628 -12.9401235580 26.5632095337
52.6712455750 -12.9407205582 26.3745765686
52.6783561707 -12.9411954880 26.1858119965
52.6878547668 -12.9422006607 25.9976406097
52.7016220093 -12.9441576004 25.8105411530
52.7205162048 -12.9472551346 25.6247329712
52.7445411682 -12.9514951706 25.4402275085
52.7726707458 -12.9566478729 25.2567787170
52.8026657104 -12.9622173309 25.0738277435
52.8316688538 -12.9675655365 24.8906593323
52.8572082520 -12.9721431732 24.7066440582
52.8776550293 -12.9755868912 24.5213603973
52.8918762207 -12.9776449203 24.3345127106
52.8988800049 -12.9780969620 24.1458339691
52.8979644775 -12.9767847061 23.9551296234
52.8890304565 -12.9736881256 23.7623615265
52.8727989197 -12.9689664841 23.5676975250
52.8510398865 -12.9630146027 23.3715801239
52.8269844055 -12.9565515518 23.1748332977
52.8052864075 -12.9506120682 22.9786586761
52.7909889221 -12.9463205338 22.7843723297
52.7880821228 -12.9445648193 22.5930252075
52.7985649109 -12.9457902908 22.4051628113
52.8221702576 -12.9499378204 22.2207393646
52.8562278748 -12.9564123154 22.0390815735
52.8957633972 -12.9641075134 21.8589019775
52.9343528748 -12.9715919495 21.6785182953
52.9655838013 -12.9774379730 21.4962310791
52.9845962524 -12.9805631638 21.3107414246
52.9895782471 -12.9805641174 21.1215400696
52.9826469421 -12.9779129028 20.9291687012
52.9690132141 -12.9737682343 20.7349910736
52.9545326233 -12.9694356918 20.5405616760
52.9435081482 -12.9658727646 20.3470344543
52.9379615784 -12.9635295868 20.1549568176
52.9379386902 -12.9624156952 19.9643535614
52.9419860840 -12.9622077942 19.7748432159
52.9475708008 -12.9623441696 19.5857467651
52.9516029358 -12.9621334076 19.3962287903
52.9512176514 -12.9609384537 19.2055053711
52.9447021484 -12.9583797455 19.0131053925
52.9318809509 -12.9544153214 18.8189640045
52.9132690430 -12.9491605759 18.6232109070
52.8889198303 -12.9426288605 18.4258499146
52.8585624695 -12.9347581863 18.2267971039
52.8231353760 -12.9257574081 18.0262966156
52.7857322693 -12.9163169861 17.8251972198
52.7506675720 -12.9073972702 17.6246910095
52.7215576172 -12.8998031616 17.4257850647
52.7001838684 -12.8939323425 17.2289905548
52.6863822937 -12.8897476196 17.0342750549
52.6782951355 -12.8868360519 16.8411331177
52.6727867126 -12.8844985962 16.6486988068
52.6662330627 -12.8819284439 16.4559555054
52.6553840637 -12.8784017563 16.2619838715
52.6378860474 -12.8733930588 16.0661144257
52.6125679016 -12.8666429520 15.8680000305
52.5798454285 -12.8582420349 15.6677436829
52.5421066284 -12.8487234116 15.4660100937
52.5034675598 -12.8390035629 15.2639636993
52.4684944153 -12.8301010132 15.0629072189
52.4403686523 -12.8227233887 14.8637590408
52.4196205139 -12.8169889450 14.6666851044
52.4043388367 -12.8124723434 14.4711494446
52.3916053772 -12.8085241318 14.2763214111
52.3792457581 -12.8046579361 14.0815773010
52.3671989441 -12.8008623123 13.8869009018
52.3579406738 -12.7976865768 13.6930103302
52.3554534912 -12.7960214615 13.5010719299
52.3632965088 -12.7966566086 13.3121337891
52.3833045959 -12.8000030518 13.1267547607
52.4157943726 -12.8061304092 12.9450502396
52.4601440430 -12.8149013519 12.7668628693
52.5147972107 -12.8259687424 12.5917577744
52.5771751404 -12.8387575150 12.4189939499
52.6440505981 -12.8525495529 12.2476339340
52.7116699219 -12.8665075302 12.0765724182
52.7752723694 -12.8795709610 11.9044008255
52.8292922974 -12.8904991150 11.7294540405
52.8690643311 -12.8982524872 11.5503225327
52.8929519653 -12.9024658203 11.3664894104
52.9029235840 -12.9035778046 11.1785125732
52.9034118652 -12.9025754929 10.9876956940
52.9002380371 -12.9007568359 10.7957706451
52.9005279541 -12.8997116089 10.6048784256
52.9124565125 -12.9012594223 10.4174947739
52.9432868958 -12.9070205688 10.2358407974
52.9965553284 -12.9177837372 10.0610256195
53.0706138611 -12.9331808090 9.8925933838
53.1594467163 -12.9518718719 9.7287511826
53.2550430298 -12.9720706940 9.5670824051
53.3502922058 -12.9921932220 9.4054241180
53.4411239624 -13.0113315582 9.2425289154
53.5262756348 -13.0292053223 9.0780000687
53.6049919128 -13.0456447601 8.9115934372
53.6751518250 -13.0601758957 8.7426395416
53.7337036133 -13.0721206665 8.5701828003
53.7787170410 -13.0810480118 8.3935995102
53.8112144470 -13.0871849060 8.2131805420
53.8356246948 -13.0915193558 8.0302810669
53.8586845398 -13.0955524445 7.8469843864
53.8872070313 -13.1008033752 7.6654171944
53.9259414673 -13.1083326340 7.4870791435
53.9767799377 -13.1185598373 7.3125805855
54.0393257141 -13.1313982010 7.1418228149
54.1117095947 -13.1464290619 6.9742388725
54.1905059814 -13.1628913879 6.8087668419
54.2704963684 -13.1796207428 6.6437673569
54.3456764221 -13.1952772141 6.4773402214
54.4113044739 -13.2088050842 6.3079700470
54.4652557373 -13.2197294235 6.1349606514
54.5079727173 -13.2281484604 5.9584293365
54.5415763855 -13.2345361710 5.7790341377
54.5683708191 -13.2394056320 5.5974955559
54.5889625549 -13.2428913116 5.4139928818
54.6013221741 -13.2445421219 5.2278623581
54.6023101807 -13.2436571121 5.0380764008
54.5910034180 -13.2400302887 4.8443140984
54.5711593628 -13.2344989777 4.6477675438
54.5509033203 -13.2288751602 4.4510545731
54.5402717590 -13.2253990173 4.2574348450
54.5482406616 -13.2260704041 4.0698480606
54.5801734924 -13.2320861816 3.8900802135
54.6363983154 -13.2435197830 3.7182862759
54.7128448486 -13.2594652176 3.5531816483
54.8035163879 -13.2785825729 3.3928360939
54.9028701782 -13.2996377945 3.2354562283
55.0065345764 -13.3216552734 3.0796182156
55.1107864380 -13.3438034058 2.9241025448
55.2122840881 -13.3653392792 2.7678053379
55.3083267212 -13.3856592178 2.6098251343
55.3968925476 -13.4043111801 2.4494805336
55.4762229919 -13.4209041595 2.2861714363
55.5442123413 -13.4349679947 2.1191782951
55.5980758667 -13.4458808899 1.9475487471
55.6347656250 -13.4529628754 1.7702351809
55.6520690918 -13.4557199478 1.5864608288
55.6495742798 -13.4540615082 1.3960508108
55.6289062500 -13.4483480453 1.1995130777
55.5930480957 -13.4392452240 0.9978179932
55.5450744629 -13.4274396896 0.7919750214
55.4873847961 -13.4134654999 0.5827718973
55.4224395752 -13.3978729248 0.3710259199
55.3542785645 -13.3815612793 0.1580931693
-28.9267692566 -33.5332145691 30.3440589905
-28.9153747559 -33.5231666565 30.0969085693
-28.8935947418 -33.5016746521 29.8522148132
-28.8628692627 -33.4703216553 29.6096630096
-28.8235797882 -33.4295310974 29.3691864014
-28.7757568359 -33.3793334961 29.1308021545
-28.7206020355 -33.3210525513 28.8942451477
-28.6613483429 -33.2582550049 28.6587581635
-28.6022205353 -33.1955947876 28.4233379364
-28.5460243225 -33.1361656189 28.1873016357
-28.4927825928 -33.0799942017 27.9506378174
-28.4411220551 -33.0255584717 27.7136726379
-28.3906974792 -32.9724884033 27.4764862061
-28.3425617218 -32.9219398499 27.2388191223
-28.2975063324 -32.8747863770 27.0004673004
-28.2552242279 -32.8306884766 26.7614994049
-28.2156028748 -32.7895240784 26.5219364166
-28.1800346375 -32.7528228760 26.2814235687
-28.1504821777 -32.7227554321 26.0394611359
-28.1269664764 -32.6993408203 25.7960281372
-28.1062507629 -32.6790122986 25.5519199371
-28.0833778381 -32.6563072205 25.3083839417
-28.0549583435 -32.6274833679 25.0662822723
-28.0213527679 -32.5929450989 24.8255386353
-27.9860820770 -32.5565719604 24.5852680206
-27.9536571503 -32.5233345032 24.3443222046
-27.9280471802 -32.4976081848 24.1016731262
-27.9120178223 -32.4824447632 23.8565864563
-27.9060802460 -32.4784011841 23.6089076996
-27.9073791504 -32.4823417664 23.3593502045
-27.9105167389 -32.4883041382 23.1093006134
35.2420959473 37.0385475159 30.4861602783
35.2563743591 37.0523529053 30.2972221375
35.2808265686 37.0773773193 30.1113986969
35.3095436096 37.1071014404 29.9269104004
35.3364334106 37.1348152161 29.7419071198
35.3583374023 37.1570320129 29.5554122925
35.3761520386 37.1747360229 29.3676891327
35.3933563232 37.1917686462 29.1798000336
