-43.4123229980 21.7622032166 23.4530353546
-43.3583374023 21.7333221436 23.2445144653
-43.2834205627 21.6932525635 23.0299625397
-43.1929931641 21.6448955536 22.8108787537
-43.0951690674 21.5925846100 22.5895481110
-42.9989700317 21.5411434174 22.3685321808
-42.9130821228 21.4952125549 22.1503276825
-42.8452644348 21.4589385986 21.9371871948
-42.8017768860 21.4356651306 21.7309532166
-42.7856788635 21.4270305634 21.5325641632
-42.7945060730 21.4317169189 21.3413619995
-42.8204231262 21.4455356598 21.1551284790
-42.8540687561 21.4634819031 20.9711723328
-42.8887214661 21.4819698334 20.7875499725
-42.9215431213 21.4994773865 20.6034317017
-42.9522514343 21.5158557892 20.4187335968
-42.9810638428 21.5312213898 20.2335147858
-43.0070838928 21.5450935364 20.0475044250
-43.0281181335 21.5563030243 19.8600502014
-43.0415840149 21.5634670258 19.6703777313
-43.0450019836 21.5652618408 19.4777317047
-43.0358200073 21.5603237152 19.2813339233
-43.0119590759 21.5475387573 19.0805339813
-42.9733123779 21.5268535614 18.8752727509
-42.9228935242 21.4998760223 18.6664180756
-42.8662986755 21.4696006775 18.4556293488
-42.8100051880 21.4394836426 18.2448387146
-42.7600097656 21.4127330780 18.0358619690
-42.7220916748 21.3924388885 17.8304595947
-42.7026481628 21.3820152283 17.6305961609
-42.7080039978 21.3848438263 17.4382362366
-42.7419548035 21.4029560089 17.2545890808
-42.8032112122 21.4356613159 17.0793228149
-42.8841362000 21.4788761139 16.9101581573
-42.9716911316 21.5256328583 16.7431335449
-43.0513076782 21.5681476593 16.5737857819
-43.1123733521 21.6007499695 16.3988246918
-43.1518325806 21.6218070984 16.2172660828
-43.1735534668 21.6333808899 16.0302600861
-43.1846427917 21.6392765045 15.8399763107
-43.1918640137 21.6431026459 15.6484956741
-43.1996688843 21.6472415924 15.4571990967
-43.2096939087 21.6525669098 15.2665996552
-43.2211990356 21.6586818695 15.0764694214
-43.2321281433 21.6644916534 14.8861656189
-43.2403335571 21.6688442230 14.6950130463
-43.2442703247 21.6709175110 14.5025167465
-43.2430114746 21.6702117920 14.3083744049
-43.2358894348 21.6663722992 14.1123628616
-43.2223587036 21.6591091156 13.9142971039
-43.2024917603 21.6484603882 13.7141866684
-43.1780433655 21.6353626251 13.5125770569
-43.1529312134 21.6219100952 13.3107118607
-43.1322517395 21.6108264923 13.1102228165
-43.1206054688 21.6045703888 12.9125967026
-43.1213264465 21.6049251556 12.7189273834
-43.1363563538 21.6129245758 12.5298690796
-43.1655197144 21.6284770966 12.3453922272
-43.2059669495 21.6500606537 12.1646070480
-43.2536430359 21.6755084991 11.9862203598
-43.3059921265 21.7034492493 11.8094139099
-43.3626213074 21.7336807251 11.6340713501
-43.4225730896 21.7656898499 11.4598884583
-43.4813690186 21.7970771790 11.2854032516
-43.5320358276 21.8241233826 11.1083250046
-43.5693893433 21.8440532684 10.9269285202
-43.5926742554 21.8564643860 10.7409353256
-43.6042556763 21.8626213074 10.5510997772
-43.6065673828 21.8638248444 10.3582019806
-43.6002273560 21.8604049683 10.1624259949
-43.5842895508 21.8518543243 9.9634370804
-43.5578765869 21.8377075195 9.7609252930
-43.5216255188 21.8183021545 9.5550794601
-43.4780921936 21.7950057983 9.3467330933
-43.4319152832 21.7702960968 9.1374301910
-43.3908081055 21.7482929230 8.9297552109
-43.3660583496 21.7350368500 8.7275276184
-43.3702011108 21.7372169495 8.5350141525
-43.4117546082 21.7593917847 8.3551607132
-43.4907417297 21.8015708923 8.1880569458
-43.5984344482 21.8590927124 8.0308170319
-43.7211494446 21.9246406555 7.8788390160
-43.8454475403 21.9910354614 7.7275710106
-43.9625816345 22.0536022186 7.5740213394
-44.0699043274 22.1109256744 7.4172697067
-44.1684646606 22.1635646820 7.2576522827
-44.2595329285 22.2122001648 7.0955886841
-44.3432197571 22.2568931580 6.9311032295
-44.4183769226 22.2970256805 6.7637796402
-44.4822959900 22.3311538696 6.5926637650
-44.5315437317 22.3574409485 6.4165377617
-44.5640754700 22.3747920990 6.2346591949
-44.5800132751 22.3832778931 6.0470356941
-44.5798950195 22.3831844330 5.8538188934
-44.5627937317 22.3740119934 5.6546497345
-44.5269241333 22.3548107147 5.4488639832
-44.4726371765 22.3257675171 5.2365465164
-44.4051055908 22.2896442413 5.0194778442
-44.3338966370 22.2515563965 4.8010048866
-44.2696189880 22.2171745300 4.5848736763
-44.2203483582 22.1908111572 4.3739571571
-44.1899070740 22.1745109558 4.1696472168
-44.1782951355 22.1682720184 3.9719827175
-44.1833152771 22.1709232330 3.7802228928
-44.2022628784 22.1810169220 3.5934352875
-44.2324256897 22.1971035004 3.4106814861
-44.2702522278 22.2172870636 3.2307107449
-44.3105163574 22.2387733459 3.0516622066
-44.3472137451 22.2583522797 2.8713786602
-44.3756484985 22.2735157013 2.6881580353
-44.3935470581 22.2830505371 2.5011610985
-44.4002685547 22.2866115570 2.3101336956
-44.3955650330 22.2840652466 2.1149592400
-44.3794250488 22.2754058838 1.9156106710
-44.3529205322 22.2612094879 1.7124536037
-44.3184013367 22.2427310944 1.5063241720
-44.2780189514 22.2211170197 1.2979913950
-44.2319908142 22.1964855194 1.0875211954
-44.1792106628 22.1682472229 0.8744983673
-44.1201896667 22.1366729736 0.6590924263
-44.0590515137 22.1039657593 0.4428130090
-44.0023498535 22.0736331940 0.2280774713
-43.9552078247 22.0484066010 0.0167880449
-19.5221862793 -11.6117124557 88.0734481812
-19.5454292297 -11.6278820038 87.8668136597
-19.5923614502 -11.6591215134 87.6608276367
-19.6557197571 -11.7008104324 87.4553375244
-19.7304611206 -11.7497386932 87.2502441406
-19.8157596588 -11.8053827286 87.0455551147
-19.9128589630 -11.8685321808 86.8413162231
-20.0213603973 -11.9389352798 86.6375503540
-20.1374626160 -12.0141716003 86.4341583252
-20.2547054291 -12.0901317596 86.2309570313
-20.3659858704 -12.1622991562 86.0277252197
-20.4655189514 -12.2269916534 85.8242492676
-20.5496921539 -12.2819147110 85.6203994751
-20.6168575287 -12.3260173798 85.4160766602
-20.6669254303 -12.3592443466 85.2112426758
-20.7015514374 -12.3826484680 85.0059204102
-20.7251338959 -12.3990268707 84.8002395630
-20.7464828491 -12.4139852524 84.5945053101
-20.7809734344 -12.4373016357 84.3892822266
-20.8525810242 -12.4842281342 84.1855163574
-20.9927730560 -12.5747776031 83.9845352173
-21.2301864624 -12.7271642685 83.7876052856
-21.5705852509 -12.9450531006 83.5951690674
-21.9821681976 -13.2082138062 83.4061431885
-22.4058208466 -13.4790487289 83.2181930542
-22.7870998383 -13.7229290009 83.0290298462
-23.1021022797 -13.9246511459 82.8375244141
-23.3571529388 -14.0882396698 82.6438140869
-23.5703678131 -14.2252159119 82.4485855103
-23.7553825378 -14.3442554474 82.2523651123
-23.9167976379 -14.4482831955 82.0553054810
-24.0534229279 -14.5365438461 81.8573150635
-24.1627330780 -14.6074285507 81.6581954956
-24.2435264587 -14.6601762772 81.4578552246
-24.2962398529 -14.6950654984 81.2562408447
-24.3216724396 -14.7126035690 81.0533447266
-24.3196640015 -14.7126884460 80.8490829468
-24.2890625000 -14.6945886612 80.6433563232
-24.2292480469 -14.6579122543 80.4360580444
-24.1427497864 -14.6042642593 80.2272644043
-24.0377216339 -14.5388326645 80.0173568726
-23.9280128479 -14.4704275131 79.8070373535
-23.8293075562 -14.4090194702 79.5971603394
-23.7529335022 -14.3618135452 79.3883666992
-23.7014522552 -14.3304414749 79.1808471680
-23.6691913605 -14.3112907410 78.9743423462
-23.6472492218 -14.2987031937 78.7683715820
-23.6292495728 -14.2886228561 78.5625991821
-23.6139030457 -14.2802305222 78.3569412231
-23.6039752960 -14.2752838135 78.1515731812
-23.6041812897 -14.2767820358 77.9468002319
-23.6201648712 -14.2883129120 77.7429733276
-23.6583023071 -14.3139324188 77.5405349731
-23.7248058319 -14.3575897217 77.3399047852
-23.8232116699 -14.4215326309 77.1413726807
-23.9511985779 -14.5042858124 76.9448699951
-24.0990982056 -14.5996999741 76.7498168945
-24.2520618439 -14.6983337402 76.5552902222
-24.3956108093 -14.7909784317 76.3603591919
-24.5212593079 -14.8722391129 76.1644210815
-24.6281566620 -14.9415750504 75.9673919678
-24.7199592590 -15.0013132095 75.7694778442
-24.8007240295 -15.0540304184 75.5709304810
-24.8758792877 -15.1031808853 75.3720932007
-24.9612293243 -15.1588125229 75.1740722656
-25.0970478058 -15.2465353012 74.9797363281
-25.3518180847 -15.4098901749 74.7941055298
-25.7915306091 -15.6908378601 74.6222000122
-26.4174346924 -16.0901679993 74.4645080566
-27.1307506561 -16.5450725555 74.3141403198
-27.7814140320 -16.9601345062 74.1601104736
-28.2647819519 -17.2688179016 73.9944152832
-28.5703563690 -17.4644546509 73.8159103394
-28.7509651184 -17.5806331635 73.6282577515
-28.8668365479 -17.6556491852 73.4358520508
-28.9565334320 -17.7140216827 73.2415618896
-29.0364742279 -17.7661914825 73.0466232300
-29.1096897125 -17.8140850067 72.8512573242
-29.1734218597 -17.8559474945 72.6552200317
-29.2243309021 -17.8896579742 72.4582290649
-29.2615833282 -17.9146842957 72.2601928711
-29.2884082794 -17.9330806732 72.0613403320
-29.3116645813 -17.9492073059 71.8622207642
-29.3395652771 -17.9682884216 71.6635131836
-29.3791713715 -17.9948101044 71.4658203125
-29.4352855682 -18.0318279266 71.2695846558
-29.5104331970 -18.0809440613 71.0750503540
-29.6048107147 -18.1422863007 70.8822784424
-29.7168407440 -18.2148475647 70.6911697388
-29.8451805115 -18.2977790833 70.5016479492
-29.9902877808 -18.3913669586 70.3137817383
-30.1526870728 -18.4959487915 70.1276550293
-30.3291015625 -18.6094379425 69.9430160522
-30.5106315613 -18.7261791229 69.7590789795
-30.6848144531 -18.8382453918 69.5747146606
-30.8394527435 -18.9378871918 69.3887939453
-30.9661521912 -19.0197658539 69.2004928589
-31.0628643036 -19.0825805664 69.0095443726
-31.1340675354 -19.1291790009 68.8163299561
-31.1873340607 -19.1643733978 68.6214981079
-31.2284317017 -19.1918334961 68.4255752563
-31.2588996887 -19.2125358582 68.2286682129
-31.2772121429 -19.2255096436 68.0306243896
-31.2816333771 -19.2296543121 67.8312301636
-31.2727413177 -19.2253360748 67.6305236816
-31.2540397644 -19.2147808075 67.4288253784
-31.2306499481 -19.2012481689 67.2266235352
-31.2081394196 -19.1882743835 67.0244674683
-31.1933879852 -19.1802310944 66.8230590820
-31.1957893372 -19.1830921173 66.6233673096
-31.2258529663 -19.2035369873 66.4265136719
-31.2911167145 -19.2463550568 66.2333374023
-31.3927364349 -19.3122806549 66.0440368652
-31.5254192352 -19.3979511261 65.8581314087
-31.6803569794 -19.4977664948 65.6747512817
-31.8488521576 -19.6061973572 65.4930267334
-32.0241508484 -19.7189502716 65.3122634888
-32.2004814148 -19.8323574066 65.1318511963
-32.3710594177 -19.9421081543 64.9510574341
-32.5276451111 -20.0429630280 64.7689590454
-32.6618270874 -20.1295757294 64.5846252441
-32.7666130066 -20.1975040436 64.3972167969
-32.8378639221 -20.2441196442 64.2062149048
-32.8756599426 -20.2694683075 64.0115585327
-32.8846092224 -20.2764835358 63.8136940002
-32.8722381592 -20.2699489594 63.6134147644
-32.8463973999 -20.2548522949 63.4115753174
-32.8134918213 -20.2352676392 63.2088775635
-32.7789955139 -20.2146701813 63.0059394836
-32.7499504089 -20.1975402832 62.8035774231
-32.7376251221 -20.1910343170 62.6031227112
-32.7570266724 -20.2046928406 62.4063758850
-32.8223342896 -20.2475280762 62.2150840759
-32.9416542053 -20.3246879578 62.0303077698
-33.1146392822 -20.4359512329 61.8521232605
-33.3325347900 -20.5757560730 61.6795883179
-33.5790481567 -20.7337436676 61.5108261108
-33.8329849243 -20.8964481354 61.3433074951
-34.0739135742 -21.0508823395 61.1745491028
-34.2882614136 -21.1884231567 61.0028419495
-34.4711837769 -21.3059921265 60.8275299072
-34.6234016418 -21.4040470123 60.6486396790
-34.7476272583 -21.4843120575 60.4664459229
-34.8477478027 -21.5492553711 60.2813758850
-34.9286117554 -21.6019630432 60.0939941406
-34.9938049316 -21.6447086334 59.9047164917
-35.0430107117 -21.6772956848 59.7134742737
-35.0724449158 -21.6973209381 59.5197410583
-35.0792083740 -21.7029361725 59.3230972290
-35.0660820007 -21.6959133148 59.1238632202
-35.0423316956 -21.6821384430 58.9232063293
-35.0198364258 -21.6691646576 58.7226715088
-35.0089263916 -21.6635494232 58.5236320496
-35.0176277161 -21.6703987122 58.3271827698
-35.0530509949 -21.6942272186 58.1343193054
-35.1210632324 -21.7387638092 57.9458923340
-35.2238807678 -21.8054122925 57.7622642517
-35.3588104248 -21.8924674988 57.5831451416
-35.5199279785 -21.9961624146 57.4077949524
-35.7000694275 -22.1119422913 57.2352828979
-35.8907775879 -22.2344341278 57.0644798279
-36.0817527771 -22.3570938110 56.8939743042
-36.2623634338 -22.4731674194 56.7222862244
-36.4244651794 -22.5774765015 56.5482444763
-36.5638046265 -22.6673259735 56.3712158203
-36.6792831421 -22.7420101166 56.1909904480
-36.7710037231 -22.8015975952 56.0075302124
-36.8386802673 -22.8459091187 55.8207511902
-36.8815383911 -22.8744506836 55.6304855347
-36.8993682861 -22.8870887756 55.4366493225
-36.8935966492 -22.8847351074 55.2394027710
-36.8678016663 -22.8696556091 55.0392074585
-36.8278198242 -22.8455638885 54.8368873596
-36.7819175720 -22.8177127838 54.6336288452
-36.7415046692 -22.7933502197 54.4311065674
-36.7213935852 -22.7818851471 54.2315444946
-36.7363357544 -22.7926902771 54.0371932983
-36.7936019897 -22.8303852081 53.8492164612
-36.8882255554 -22.8918113708 53.6669616699
-37.0069389343 -22.9685440063 53.4884872437
-37.1374015808 -23.0527381897 53.3119621277
-37.2738265991 -23.1407203674 53.1365318298
-37.4156379700 -23.2321243286 52.9621162415
-37.5630493164 -23.3270816803 52.7887573242
-37.7141151428 -23.4243602753 52.6161689758
-37.8644828796 -23.5211925507 52.4436759949
-38.0081367493 -23.6137619019 52.2703399658
-38.1381034851 -23.6976337433 52.0950393677
-38.2479133606 -23.7686996460 51.9167289734
-38.3342933655 -23.8248786926 51.7348442078
-38.3986244202 -23.8670501709 51.5495491028
-38.4447021484 -23.8976249695 51.3614158630
-38.4747123718 -23.9179954529 51.1707496643
-38.4880218506 -23.9277553558 50.9774131775
-38.4838714600 -23.9264221191 50.7812538147
-38.4646072388 -23.9154911041 50.5826110840
-38.4365577698 -23.8989791870 50.3824958801
-38.4088401794 -23.8826770782 50.1823844910
-38.3916168213 -23.8730430603 49.9839591980
-38.3943176270 -23.8760643005 49.7888107300
-38.4241142273 -23.8962936401 49.5981712341
-38.4847564697 -23.9361209869 49.4127388000
-38.5760955811 -23.9954452515 49.2325401306
-38.6945571899 -24.0719966888 49.0570487976
-38.8344268799 -24.1621456146 48.8853454590
-38.9888305664 -24.2615242004 48.7163085938
-39.1497306824 -24.3650283813 48.5485954285
-39.3078498840 -24.4667663574 48.3806228638
-39.4540901184 -24.5609550476 48.2108192444
-39.5822525024 -24.6436614990 48.0380859375
-39.6905975342 -24.7137775421 47.8620796204
-39.7804222107 -24.7721309662 47.6829872131
-39.8535118103 -24.8198547363 47.5010833740
-39.9111289978 -24.8577499390 47.3165473938
-39.9544830322 -24.8865852356 47.1295661926
-39.9848899841 -24.9071960449 46.9403381348
-40.0035781860 -24.9203643799 46.7490615845
-40.0118522644 -24.9269199371 46.5559387207
-40.0113563538 -24.9279022217 46.3612442017
-40.0038719177 -24.9244480133 46.1652793884
-39.9913215637 -24.9177761078 45.9683799744
-39.9764175415 -24.9096107483 45.7710227966
-39.9635467529 -24.9027347565 45.5740127563
-39.9591255188 -24.9012260437 45.3785171509
-39.9708061218 -24.9099445343 45.1859703064
-40.0052375793 -24.9331130981 44.9976310730
-40.0656623840 -24.9727859497 44.8141479492
-40.1511917114 -25.0284042358 44.6354103088
-40.2582473755 -25.0976905823 44.4608078003
-40.3825416565 -25.1779251099 44.2895774841
-40.5202026367 -25.2666473389 44.1210327148
-40.6672782898 -25.3613471985 43.9544525146
-40.8182487488 -25.4585189819 43.7888107300
-40.9655075073 -25.5533332825 43.6226730347
-41.1010055542 -25.6406764984 43.4544868469
-41.2184486389 -25.7165508270 43.2830276489
-41.3138694763 -25.7784442902 43.1074867249
-41.3850440979 -25.8249359131 42.9273948669
-41.4314613342 -25.8557052612 42.7425956726
-41.4549293518 -25.8719005585 42.5533866882
-41.4592895508 -25.8759632111 42.3604774475
-41.4491233826 -25.8708019257 42.1647148132
-41.4288406372 -25.8592147827 41.9669380188
-41.4029808044 -25.8440876007 41.7680244446
-41.3767585754 -25.8287296295 41.5689964294
-41.3554954529 -25.8165225983 41.3709068298
-41.3434104919 -25.8101425171 41.1746101379
-41.3432312012 -25.8113231659 40.9806709290
-41.3568725586 -25.8212776184 40.7894973755
-41.3858718872 -25.8409881592 40.6014366150
-41.4313850403 -25.8711814880 40.4167518616
-41.4941902161 -25.9123554230 40.2356338501
-41.5747032166 -25.9647712708 40.0582046509
-41.6722259521 -26.0279884338 39.8843650818
-41.7839012146 -26.1001892090 39.7135581970
-41.9044685364 -26.1780357361 39.5447311401
-42.0271949768 -26.2572536469 39.3765182495
-42.1452293396 -26.3334884644 39.2074966431
-42.2526626587 -26.4029941559 39.0364303589
-42.3452224731 -26.4630527496 38.8624038696
-42.4206161499 -26.5122127533 38.6849021912
-42.4783592224 -26.5501670837 38.5037918091
-42.5193138123 -26.5774574280 38.3192100525
-42.5453948975 -26.5953063965 38.1315307617
-42.5594406128 -26.6055126190 37.9413261414
-42.5644073486 -26.6099567413 37.7491950989
-42.5621528625 -26.6098155975 37.5555229187
-42.5527725220 -26.6051502228 37.3603057861
-42.5353393555 -26.5953693390 37.1633338928
-42.5095787048 -26.5803070068 36.9645347595
-42.4774742126 -26.5612144470 36.7643127441
-42.4434471130 -26.5409011841 36.5636177063
-42.4132499695 -26.5230197906 36.3637008667
-42.3925285339 -26.5111560822 36.1658058167
-42.3857078552 -26.5081157684 35.9709281921
-42.3949279785 -26.5152606964 35.7795600891
-42.4198532104 -26.5323772430 35.5916709900
-42.4591217041 -26.5585956573 35.4069862366
-42.5119934082 -26.5934524536 35.2253761292
-42.5777130127 -26.6364631653 35.0466957092
-42.6531333923 -26.6856327057 34.8702735901
-42.7323112488 -26.7371864319 34.6947975159
-42.8094902039 -26.7874717712 34.5189743042
-42.8820991516 -26.8348541260 34.3422203064
-42.9501075745 -26.8793163300 34.1645164490
-43.0130195618 -26.9205398560 33.9857444763
-43.0687866211 -26.9572296143 33.8054237366
-43.1157073975 -26.9883060455 33.6231498718
-43.1543846130 -27.0141448975 33.4390449524
-43.1870384216 -27.0361595154 33.2535972595
-43.2148056030 -27.0550746918 33.0670585632
-43.2359962463 -27.0698146820 32.8790283203
-43.2476615906 -27.0785064697 32.6888046265
-43.2492675781 -27.0808143616 32.4962463379
-43.2444610596 -27.0790519714 32.3021812439
-43.2391662598 -27.0769786835 32.1079902649
-43.2386245728 -27.0779209137 31.9148960114
-43.2461662292 -27.0839958191 31.7237033844
-43.2636222839 -27.0963668823 31.5348587036
-43.2917594910 -27.1155147552 31.3485660553
-43.3304557800 -27.1413631439 31.1648197174
-43.3791198730 -27.1735401154 30.9835014343
-43.4369850159 -27.2115573883 30.8044471741
-43.5026473999 -27.2545223236 30.6273422241
-43.5737342834 -27.3009281158 30.4516277313
-43.6476478577 -27.3491287231 30.2766914368
-43.7227516174 -27.3980846405 30.1021404266
-43.7984886169 -27.4474411011 29.9278411865
-43.8741073608 -27.4967231750 29.7536144257
-43.9469833374 -27.5442619324 29.5788173676
-44.0121612549 -27.5869140625 29.4022254944
-44.0641517639 -27.6211986542 29.2224769592
-44.0997161865 -27.6450538635 29.0387420654
-44.1189613342 -27.6585540771 28.8510093689
-44.1240005493 -27.6630363464 28.6597728729
-44.1168365479 -27.6597747803 28.4654979706
-44.0982856750 -27.6492862701 28.2683620453
-44.0682754517 -27.6315250397 28.0683250427
-44.0266456604 -27.6063919067 27.8653182983
-43.9733810425 -27.5738716125 27.6593151093
-43.9081687927 -27.5337715149 27.4502105713
-43.8308296204 -27.4859752655 27.2379341125
-43.7435073853 -27.4318466187 27.0230064392
-43.6525344849 -27.3753986359 26.8070144653
-43.5672492981 -27.3225631714 26.5923366547
-43.4968147278 -27.2791519165 26.3813285828
-43.4478187561 -27.2493476868 26.1757164001
-43.4237937927 -27.2353897095 25.9764537811
-43.4255180359 -27.2377738953 25.7837944031
-43.4513053894 -27.2554264069 25.5973606110
-43.4971542358 -27.2858104706 25.4161605835
-43.5569648743 -27.3250541687 25.2386531830
-43.6231460571 -27.3683395386 25.0628852844
-43.6881027222 -27.4108486176 24.8868846893
-43.7461624146 -27.4489784241 24.7091579437
-43.7942771912 -27.4807987213 24.5288887024
-43.8311271667 -27.5054702759 24.3457069397
-43.8561744690 -27.5226516724 24.1594467163
-43.8697853088 -27.5325756073 23.9701786041
-43.8734283447 -27.5361766815 23.7782707214
-43.8690185547 -27.5346641541 23.5842113495
-43.8579788208 -27.5289459229 23.3883628845
-43.8410148621 -27.5194721222 23.1909046173
-43.8185310364 -27.5064926147 22.9919261932
-43.7908096313 -27.4901905060 22.7914962769
-43.7577171326 -27.4704818726 22.5895652771
-43.7187538147 -27.4470462799 22.3859863281
-43.6740989685 -27.4200019836 22.1807975769
-43.6257476807 -27.3906097412 21.9745273590
-43.5774612427 -27.3612613678 21.7681999207
-43.5337333679 -27.3348083496 21.5630416870
-43.4989089966 -27.3140010834 21.3602581024
-43.4769058228 -27.3013305664 21.1609458923
-43.4705963135 -27.2986164093 20.9659271240
-43.4806518555 -27.3062877655 20.7754192352
-43.5054473877 -27.3233089447 20.5890083313
-43.5425682068 -27.3481502533 20.4060535431
-43.5902633667 -27.3797016144 20.2260932922
-43.6471214294 -27.4170665741 20.0487556458
-43.7106437683 -27.4586582184 19.8733596802
-43.7764015198 -27.5016670227 19.6986732483
-43.8385009766 -27.5423545837 19.5230426788
-43.8908004761 -27.5768241882 19.3447227478
-43.9278144836 -27.6015949249 19.1621417999
-43.9450645447 -27.6138286591 18.9739933014
-43.9398002625 -27.6117763519 18.7794494629
-43.9121894836 -27.5955486298 18.5785140991
-43.8657951355 -27.5674057007 18.3721561432
-43.8064956665 -27.5310745239 18.1620216370
-43.7407264709 -27.4906387329 17.9499340057
-43.6742401123 -27.4497489929 17.7375354767
-43.6118240356 -27.4114437103 17.5262107849
-43.5580520630 -27.3786201477 17.3172893524
-43.5183715820 -27.3547401428 17.1123771667
-43.4992408752 -27.3438930511 16.9133815765
-43.5062675476 -27.3496437073 16.7219829559
-43.5414161682 -27.3732318878 16.5388145447
-43.6011352539 -27.4124069214 16.3628940582
-43.6772193909 -27.4619617462 16.1918621063
-43.7603187561 -27.5159664154 16.0229988098
-43.8435325623 -27.5700454712 15.8542795181
-43.9232864380 -27.6219272614 15.6846475601
-43.9976730347 -27.6704025269 15.5135269165
-44.0650482178 -27.7144298553 15.3404178619
-44.1242713928 -27.7532882690 15.1649665833
-44.1751632690 -27.7868576050 14.9870996475
-44.2179489136 -27.8152866364 14.8068675995
-44.2520790100 -27.8382244110 14.6240873337
-44.2753944397 -27.8543033600 14.4380922318
-44.2846221924 -27.8614444733 14.2478675842
-44.2769889832 -27.8578910828 14.0525455475
-44.2517585754 -27.8431758881 13.8518657684
-44.2105674744 -27.8183364868 13.6462888718
-44.1568031311 -27.7855243683 13.4368124008
-44.0948371887 -27.7475090027 13.2247457504
-44.0296287537 -27.7074394226 13.0115880966
-43.9665832520 -27.6687393188 12.7989912033
-43.9113616943 -27.6350040436 12.5887022018
-43.8697319031 -27.6098918915 12.3825178146
-43.8472480774 -27.5969200134 12.1821813583
-43.8483009338 -27.5988807678 11.9890966415
-43.8748512268 -27.6170101166 11.8039216995
-43.9259147644 -27.6506881714 11.6264066696
-43.9980163574 -27.6977081299 11.4555187225
-44.0857009888 -27.7546119690 11.2895984650
-44.1820640564 -27.8170185089 11.1265153885
-44.2795372009 -27.8801288605 10.9639110565
-44.3708114624 -27.9393062592 10.7994861603
-44.4497756958 -27.9906768799 10.6313009262
-44.5123367310 -28.0316429138 10.4580326080
-44.5567855835 -28.0611190796 10.2791032791
-44.5836296082 -28.0794334412 10.0946369171
-44.5950088501 -28.0879364014 9.9052762985
-44.5934906006 -28.0882625580 9.7118082047
-44.5809669495 -28.0816097260 9.5148086548
-44.5584449768 -28.0686149597 9.3145771027
-44.5266494751 -28.0497398376 9.1113252640
-44.4865112305 -28.0255737305 8.9053325653
-44.4394721985 -27.9970302582 8.6970462799
-44.3881187439 -27.9657535553 8.4872894287
-44.3367538452 -27.9344692230 8.2774457932
-44.2911872864 -27.9068622589 8.0694036484
-44.2579383850 -27.8870677948 7.8652982712
-44.2431068420 -27.8789539337 7.6671476364
-44.2509574890 -27.8852233887 7.4763841629
-44.2826347351 -27.9066009521 7.2934331894
-44.3359451294 -27.9416961670 7.1176252365
-44.4066047668 -27.9877948761 6.9475984573
-44.4899826050 -28.0419559479 6.7818584442
-44.5816307068 -28.1013622284 6.6189661026
-44.6767616272 -28.1629753113 6.4573512077
-44.7702941895 -28.2235736847 6.2953333855
-44.8580131531 -28.2804851532 6.1315069199
-44.9373054504 -28.3320503235 5.9649872780
-45.0065727234 -28.3772621155 5.7952237129
-45.0643310547 -28.4151706696 5.6216945648
-45.1089553833 -28.4447555542 5.4438328743
-45.1391487122 -28.4651870728 5.2611713409
-45.1543006897 -28.4760818481 5.0734744072
-45.1543121338 -28.4773769379 4.8806757927
-45.1390495300 -28.4689865112 4.6826972961
-45.1081123352 -28.4506568909 4.4793701172
-45.0611648560 -28.4221763611 4.2705464363
-44.9984855652 -28.3837223053 4.0562872887
-44.9215393066 -28.3362236023 3.8370583057
-44.8337478638 -28.2818470001 3.6139981747
-44.7413139343 -28.2245292664 3.3892114162
-44.6530609131 -28.1698665619 3.1657214165
-44.5781707764 -28.1236724854 2.9466948509
-44.5225334167 -28.0896873474 2.7341961861
-44.4866294861 -28.0682144165 2.5284307003
-44.4665031433 -28.0567455292 2.3280727863
-44.4565429688 -28.0517196655 2.1312055588
-44.4514770508 -28.0497989655 1.9360193014
-44.4468955994 -28.0481872559 1.7409868240
-44.4389953613 -28.0444698334 1.5447788239
-44.4243621826 -28.0364837646 1.3461939096
-44.4001235962 -28.0224094391 1.1442103386
-44.3642921448 -28.0009841919 0.9381076694
-44.3158988953 -27.9715957642 0.7275199294
-44.2548904419 -27.9342098236 0.5124012828
-44.1822052002 -27.8894233704 0.2930578887
-44.0999450684 -27.8385658264 0.0702061281
-25.0772533417 37.9389801025 93.1657791138
-25.0879383087 37.9561042786 92.9741134644
-25.1058750153 37.9848861694 92.7827682495
-25.1301975250 38.0239410400 92.5917282104
-25.1600055695 38.0718078613 92.4009857178
-25.1941509247 38.1266517639 92.2105026245
-25.2315597534 38.1867408752 92.0202407837
-25.2716655731 38.2511672974 91.8301925659
-25.3141784668 38.3194656372 91.6403503418
-25.3582992554 38.3903465271 91.4506759644
-25.4018421173 38.4602966309 91.2610702515
-25.4410171509 38.5232238770 91.0713272095
-25.4718055725 38.5726699829 90.8812179565
-25.4922752380 38.6055259705 90.6906051636
-25.5031642914 38.6229820251 90.4994888306
-25.5059242249 38.6273651123 90.3079299927
-25.5007686615 38.6190223694 90.1159057617
-25.4869079590 38.5966835022 89.9233398438
-25.4635448456 38.5590705872 89.7301483154
-25.4296455383 38.5045166016 89.5362472534
-25.3836059570 38.4304466248 89.3414916992
-25.3253154755 38.3366775513 89.1458206177
-25.2596092224 38.2309837341 88.9495239258
-25.1969738007 38.1302299500 88.7532730103
-25.1499519348 38.0545806885 88.5579223633
-25.1284561157 38.0199661255 88.3642120361
-25.1372947693 38.0341224670 88.1725845337
-25.1759357452 38.0961952209 87.9830932617
-25.2393989563 38.1981735229 87.7954940796
-25.3200473785 38.3277778625 87.6092987061
-25.4097919464 38.4720115662 87.4239730835
-25.5016994476 38.6197204590 87.2390136719
-25.5904407501 38.7623405457 87.0540161133
-25.6719989777 38.8934097290 86.8686599731
-25.7433567047 39.0080795288 86.6826705933
-25.8027324677 39.1034889221 86.4958724976
-25.8499412537 39.1793327332 86.3082046509
-25.8859844208 39.2372283936 86.1197128296
-25.9119548798 39.2789268494 85.9304428101
-25.9283561707 39.3052444458 85.7404098511
-25.9352664948 39.3162994385 85.5495834351
-25.9326686859 39.3120727539 85.3579254150
-25.9206676483 39.2927246094 85.1654205322
-25.8996658325 39.2589073181 84.9720611572
-25.8704280853 39.2118453979 84.7778854370
-25.8339309692 39.1531143188 84.5829620361
-25.7915096283 39.0848579407 84.3873901367
-25.7456455231 39.0110702515 84.1913833618
-25.7007083893 38.9387702942 83.9953460693
-25.6624584198 38.8772201538 83.7998504639
-25.6362953186 38.8351058960 83.6054458618
-25.6256790161 38.8179817200 83.4125213623
-25.6317615509 38.8277091980 83.2212448120
-25.6536560059 38.8628578186 83.0316009521
-25.6885814667 38.9189529419 82.8433380127
-25.7323322296 38.9892425537 82.6560745239
-25.7803173065 39.0663375854 82.4693527222
-25.8286228180 39.1439437866 82.2827758789
-25.8748798370 39.2182617188 82.0960769653
-25.9188594818 39.2889137268 81.9092330933
-25.9618453979 39.3579711914 81.7223739624
-26.0046024323 39.4266624451 81.5355758667
-26.0459556580 39.4930915833 81.3487167358
-26.0836696625 39.5536727905 81.1615371704
-26.1163806915 39.6062126160 80.9738616943
-26.1441249847 39.6507644653 80.7856674194
-26.1670913696 39.6876373291 80.5969772339
-26.1844444275 39.7154808044 80.4076690674
-26.1946697235 39.7318687439 80.2175292969
-26.1970691681 39.7356719971 80.0264663696
-26.1928901672 39.7289009094 79.8345947266
-26.1852607727 39.7165794373 79.6422805786
-26.1776962280 39.7043647766 79.4499435425
-26.1719131470 39.6950149536 79.2578048706
-26.1669883728 39.6870460510 79.0657577515
-26.1612606049 39.6777839661 78.8735809326
-26.1550903320 39.6678085327 78.6813278198
-26.1515827179 39.6621170044 78.4894027710
-26.1551113129 39.6677360535 78.2983856201
-26.1695365906 39.6908760071 78.1088104248
-26.1967716217 39.7346115112 77.9209823608
-26.2357101440 39.7971611023 77.7347946167
-26.2823371887 39.8720703125 77.5497436523
-26.3313255310 39.9507789612 77.3651123047
-26.3779163361 40.0256347656 77.1802520752
-26.4191341400 40.0918464661 76.9947509766
-26.4542865753 40.1483078003 76.8084793091
-26.4847431183 40.1972236633 76.6216125488
-26.5127735138 40.2422370911 76.4344635010
-26.5401763916 40.2862396240 76.2472763062
-26.5677433014 40.3305091858 76.0601730347
-26.5952529907 40.3746833801 75.8731231689
-26.6211376190 40.4162483215 75.6858825684
-26.6420516968 40.4498176575 75.4979553223
-26.6534633636 40.4681129456 75.3086395264
-26.6515293121 40.4649505615 75.1173095703
-26.6352596283 40.4387397766 74.9237823486
-26.6075820923 40.3941879272 74.7284393311
-26.5744266510 40.3408317566 74.5321807861
-26.5419521332 40.2885627747 74.3359375000
-26.5140419006 40.2436408997 74.1403350830
-26.4928455353 40.2095108032 73.9457168579
-26.4811515808 40.1906509399 73.7525634766
-26.4824085236 40.1926231384 73.5614624023
-26.4983062744 40.2181282043 73.3727340698
-26.5279960632 40.2658081055 73.1862945557
-26.5696620941 40.3327445984 73.0018920898
-26.6211166382 40.4154167175 72.8191986084
-26.6789093018 40.5082817078 72.6376800537
-26.7385845184 40.6041717529 72.4566040039
-26.7966728210 40.6975097656 72.2753982544
-26.8520374298 40.7864685059 72.0938491821
-26.9050636292 40.8716697693 71.9120254517
-26.9559288025 40.9533958435 71.7299423218
-27.0037975311 41.0303039551 71.5474548340
-27.0473346710 41.1002502441 71.3643035889
-27.0852546692 41.1611633301 71.1802597046
-27.1160945892 41.2106895447 70.9950408936
-27.1379642487 41.2458000183 70.8082809448
-27.1490230560 41.2635269165 70.6196136475
-27.1480350494 41.2618865967 70.4287796021
-27.1345157623 41.2400970459 70.2356414795
-27.1087188721 41.1985702515 70.0402145386
-27.0716400146 41.1389045715 69.8426361084
-27.0247821808 41.0635147095 69.6431350708
-26.9702053070 40.9757156372 69.4420700073
-26.9114780426 40.8812408447 69.2400817871
-26.8547859192 40.7900428772 69.0383377075
-26.8084049225 40.7154197693 68.8384170532
-26.7799663544 40.6696434021 68.6418228149
-26.7734222412 40.6590690613 68.4493789673
-26.7882595062 40.6828727722 68.2610702515
-26.8210086823 40.7354698181 68.0762939453
-26.8669986725 40.8093605042 67.8941879272
-26.9212818146 40.8965797424 67.7138290405
-26.9794368744 40.9900283813 67.5343627930
-27.0385456085 41.0850067139 67.3552093506
-27.0971641541 41.1791992188 67.1760940552
-27.1542491913 41.2709274292 66.9967956543
-27.2084693909 41.3580474854 66.8170394897
-27.2584514618 41.4383544922 66.6365356445
-27.3030605316 41.5100212097 66.4550399780
-27.3412971497 41.5714416504 66.2723083496
-27.3724136353 41.6214179993 66.0881805420
-27.3960933685 41.6594352722 65.9025573730
-27.4118995667 41.6847953796 65.7153244019
-27.4182853699 41.6950111389 65.5261154175
-27.4126853943 41.6859550476 65.3343582153
-27.3931045532 41.6544189453 65.1395797729
-27.3593482971 41.6000938416 64.9416885376
-27.3123626709 41.5244979858 64.7408447266
-27.2529926300 41.4289932251 64.5371780396
-27.1827316284 41.3159790039 64.3309707642
-27.1063442230 41.1931114197 64.1232376099
-27.0328235626 41.0748519897 63.9159507751
-26.9723377228 40.9775543213 63.7113876343
-26.9314556122 40.9117698669 63.5110626221
-26.9111728668 40.8791084290 63.3152732849
-26.9086856842 40.8750572205 63.1234550476
-26.9197845459 40.8928489685 62.9347152710
-26.9395370483 40.9245529175 62.7479705811
-26.9623889923 40.9612388611 62.5619773865
-26.9833374023 40.9948654175 62.3755912781
-26.9990329742 41.0200500488 62.1880264282
-27.0070800781 41.0329322815 61.9987030029
-27.0049438477 41.0294456482 61.8070030212
-26.9909954071 41.0069694519 61.6125030518
-26.9663772583 40.9673347473 61.4154281616
-26.9346313477 40.9162406921 61.2165908813
-26.8994560242 40.8596305847 61.0168495178
-26.8636302948 40.8019790649 60.8168601990
-26.8294715881 40.7470054626 60.6171798706
-26.7984943390 40.6971511841 60.4181823730
-26.7701549530 40.6515350342 60.2197456360
-26.7422142029 40.6065559387 60.0213356018
-26.7142257690 40.5615043640 59.8228340149
-26.6916847229 40.5252113342 59.6256103516
-26.6857585907 40.5156326294 59.4324607849
-26.7061843872 40.5484161377 59.2458763123
-26.7525882721 40.6229705811 59.0658645630
-26.8135910034 40.7209968567 58.8896369934
-26.8757286072 40.8208465576 58.7138366699
-26.9330272675 40.9129180908 58.5369415283
-26.9880352020 41.0013046265 58.3595848083
-27.0456314087 41.0938568115 58.1830177307
-27.1074657440 41.1932182312 58.0076751709
-27.1715641022 41.2962188721 57.8330574036
-27.2352676392 41.3985900879 57.6584815979
-27.2974395752 41.4984931946 57.4836463928
-27.3580932617 41.5959587097 57.3085517883
-27.4167404175 41.6902008057 57.1330642700
-27.4716815948 41.7784805298 56.9567184448
-27.5209064484 41.8575668335 56.7789726257
-27.5630722046 41.9253120422 56.5994453430
-27.5970821381 41.9799346924 56.4178123474
-27.6210536957 42.0184249878 56.2335433960
-27.6322898865 42.0364379883 56.0458602905
-27.6278381348 42.0292282104 55.8539199829
-27.6047630310 41.9920768738 55.6568603516
-27.5609397888 41.9215621948 55.4540290833
-27.4973430634 41.8192596436 55.2456245422
-27.4199619293 41.6947937012 55.0332374573
-27.3388614655 41.5643501282 54.8196220398
-27.2651309967 41.4457550049 54.6078681946
-27.2085304260 41.3546981812 54.4007415771
-27.1760120392 41.3023643494 54.2002677917
-27.1690883636 41.2911796570 54.0069618225
-27.1814498901 41.3110008240 53.8191184998
-27.2017421722 41.3435745239 53.6335601807
-27.2218132019 41.3757896423 53.4479827881
-27.2424678802 41.4089469910 53.2626075745
-27.2704334259 41.4538536072 53.0793914795
-27.3107471466 41.5186195374 52.8998222351
-27.3626213074 41.6019668579 52.7237091064
-27.4205646515 41.6950759888 52.5494880676
-27.4773998260 41.7864036560 52.3750724792
-27.5267429352 41.8656806946 52.1985702515
-27.5646820068 41.9266281128 52.0187988281
-27.5905437469 41.9681549072 51.8355102539
-27.6062469482 41.9933509827 51.6492424011
-27.6147499084 42.0069656372 51.4608421326
-27.6183872223 42.0127639771 51.2709884644
-27.6176872253 42.0115852356 51.0798263550
-27.6109447479 42.0006904602 50.8868141174
-27.5951671600 41.9752693176 50.6910285950
-27.5681190491 41.9317283630 50.4917488098
-27.5293750763 41.8693809509 50.2887992859
-27.4792060852 41.7886695862 50.0822334290
-27.4177036285 41.6897354126 49.8720283508
-27.3469600677 41.5759391785 49.6587944031
-27.2739219666 41.4584579468 49.4446716309
-27.2088718414 41.3538169861 49.2328681946
-27.1600685120 41.2752952576 49.0260047913
-27.1305618286 41.2278022766 48.8251075745
-27.1201648712 41.2110366821 48.6301803589
-27.1288604736 41.2249603271 48.4412879944
-27.1569786072 41.2701148987 48.2586059570
-27.2023429871 41.3429985046 48.0815048218
-27.2583370209 41.4329757690 47.9079208374
-27.3153285980 41.5245513916 47.7347831726
-27.3640880585 41.6028938293 47.5591049194
-27.3989257813 41.6588516235 47.3790130615
-27.4192104340 41.6914138794 47.1942443848
-27.4282150269 41.7058372498 47.0058288574
-27.4296016693 41.7080154419 46.8149185181
-27.4243831635 41.6995697021 46.6218261719
-27.4110660553 41.6781044006 46.4260330200
-27.3881435394 41.6411972046 46.2270126343
-27.3562107086 41.5898056030 46.0249214172
-27.3181495667 41.5285530090 45.8206977844
-27.2777919769 41.4636154175 45.6156044006
-27.2384319305 41.4002799988 45.4107437134
-27.2022876740 41.3421134949 45.2068634033
-27.1710453033 41.2918281555 45.0045547485
-27.1464862823 41.2522888184 44.8044395447
-27.1304397583 41.2264366150 44.6071662903
-27.1242942810 41.2165031433 44.4132385254
-27.1285266876 41.2232551575 44.2228584290
-27.1422252655 41.2452239990 44.0357475281
-27.1625251770 41.2778129578 43.8509521484
-27.1847381592 41.3134689331 43.6668548584
-27.2041206360 41.3445816040 43.4818191528
-27.2187957764 41.3681221008 43.2951736450
-27.2313251495 41.3882179260 43.1077995300
-27.2471961975 41.4136810303 42.9216232300
-27.2711238861 41.4520950317 42.7383270264
-27.3038654327 41.5046882629 42.5582046509
-27.3412818909 41.5647888184 42.3798179626
-27.3758010864 41.6202392578 42.2004776001
-27.3997364044 41.6586685181 42.0174140930
-27.4089221954 41.6733856201 41.8291015625
-27.4041576385 41.6656723022 41.6357688904
-27.3890953064 41.6414031982 41.4386863708
-27.3663864136 41.6048355103 41.2387886047
-27.3358116150 41.5556259155 41.0359573364
-27.2961254120 41.4917640686 40.8297195435
-27.2486648560 41.4154014587 40.6205253601
-27.1986293793 41.3349037170 40.4102630615
-27.1522998810 41.2603607178 40.2012405396
-27.1133518219 41.1976852417 39.9948310852
-27.0824127197 41.1478881836 39.7912940979
-27.0592708588 41.1106262207 39.5905838013
-27.0441112518 41.0862007141 39.3927917480
-27.0368099213 41.0744056702 39.1979026794
-27.0361232758 41.0732498169 39.0054779053
-27.0400657654 41.0795364380 38.8147888184
-27.0472106934 41.0909729004 38.6253128052
-27.0577526093 41.1078681946 38.4371337891
-27.0730819702 41.1324615479 38.2507972717
-27.0942344666 41.1664161682 38.0667152405
-27.1208591461 41.2091712952 37.8847694397
-27.1510143280 41.2575988770 37.7042388916
-27.1809482574 41.3056755066 37.5236892700
-27.2053108215 41.3447914124 37.3410415649
-27.2187747955 41.3663864136 37.1542167664
-27.2183418274 41.3656387329 36.9620018005
-27.2044792175 41.3432960510 36.7645378113
-27.1803512573 41.3044509888 36.5630073547
-27.1498603821 41.2553710938 36.3589096069
-27.1159267426 41.2007598877 36.1533775330
-27.0801467896 41.1431808472 35.9470252991
-27.0435829163 41.0843391418 35.7402687073
-27.0073852539 41.0260848999 35.5335617065
-26.9725055695 40.9699516296 35.3272819519
-26.9391059875 40.9161987305 35.1215095520
-26.9068565369 40.8642921448 34.9161033630
-26.8765697479 40.8155441284 34.7114067078
-26.8518867493 40.7758064270 34.5088882446
-26.8386249542 40.7544288635 34.3109283447
-26.8414573669 40.7589302063 34.1194610596
-26.8608875275 40.7901153564 33.9347534180
-26.8932342529 40.8420715332 33.7553558350
-26.9325332642 40.9052047729 33.5788764954
-26.9720039368 40.9686126709 33.4025535583
-27.0049076080 41.0214614868 33.2236099243
-27.0258102417 41.0550155640 33.0397796631
-27.0319747925 41.0648727417 32.8498802185
-27.0236263275 41.0513954163 32.6539573669
-27.0027809143 41.0178298950 32.4528007507
-26.9714775085 40.9674453735 32.2472076416
-26.9307155609 40.9018554688 32.0375709534
-26.8806972504 40.8213806152 31.8239383698
-26.8216323853 40.7263603210 31.6063632965
-26.7546043396 40.6185340881 31.3852691650
-26.6828022003 40.5030364990 31.1619853973
-26.6124362946 40.3898506165 30.9391326904
-26.5514068604 40.2916679382 30.7200813293
-26.5063018799 40.2190971375 30.5076866150
-26.4806823730 40.1778488159 30.3035278320
-26.4752998352 40.1691398621 30.1079998016
-26.4881477356 40.1897468567 29.9203090668
-26.5139598846 40.2311935425 29.7382469177
-26.5452976227 40.2815246582 29.5586318970
-26.5755023956 40.3300361633 29.3785915375
-26.6010055542 40.3709869385 29.1965637207
-26.6215038300 40.4038925171 29.0124034882
-26.6389694214 40.4319190979 28.8269519806
-26.6565532684 40.4601402283 28.6415882111
-26.6770305634 40.4930114746 28.4575309753
-26.7002754211 40.5303306580 28.2747383118
-26.7214069366 40.5642509460 28.0910549164
-26.7321281433 40.5814361572 27.9027900696
-26.7247829437 40.5695724487 27.7064933777
-26.6958141327 40.5229415894 27.5005130768
-26.6465835571 40.4437370300 27.2853813171
-26.5821418762 40.3400688171 27.0632915497
-26.5093002319 40.2229003906 26.8372592926
-26.4358215332 40.1047058105 26.6107559204
-26.3713169098 40.0009384155 26.3881301880
-26.3267326355 39.9291992188 26.1743812561
-26.3088207245 39.9003448486 25.9726524353
-26.3141918182 39.9089279175 25.7814960480
-26.3320693970 39.9376182556 25.5960655212
-26.3542690277 39.9732589722 25.4126491547
-26.3806285858 40.0155868530 25.2311916351
-26.4150524139 40.0708808899 25.0535068512
-26.4590644836 40.1415901184 24.8803253174
-26.5094909668 40.2226142883 24.7102146149
-26.5602226257 40.3041305542 24.5403575897
-26.6051311493 40.3762817383 24.3679008484
-26.6398506165 40.4320526123 24.1907844543
-26.6618537903 40.4673767090 24.0077896118
-26.6700763702 40.4805450439 23.8183708191
-26.6649475098 40.4722404480 23.6226806641
-26.6480274200 40.4449844360 23.4214057922
-26.6211738586 40.4017524719 23.2153854370
-26.5863342285 40.3456840515 23.0055046082
-26.5457477570 40.2803726196 22.7927989960
-26.5011310577 40.2085838318 22.5780696869
-26.4524879456 40.1303215027 22.3612995148
-26.3986339569 40.0436782837 22.1419086456
-26.3394470215 39.9484634399 21.9198207855
-26.2775192261 39.8488388062 21.6962623596
-26.2177066803 39.7526130676 21.4735679626
-26.1653728485 39.6684150696 21.2543392181
-26.1247520447 39.6030502319 21.0406570435
-26.0980205536 39.5600128174 20.8336200714
-26.0852108002 39.5393638611 20.6332969666
-26.0848598480 39.5387496948 20.4390201569
-26.0946445465 39.5544281006 20.2496986389
-26.1113815308 39.5812835693 20.0638027191
-26.1309928894 39.6127624512 19.8793544769
-26.1494655609 39.6424064636 19.6943817139
-26.1643505096 39.6662864685 19.5076713562
-26.1751823425 39.6836509705 19.3189792633
-26.1823005676 39.6950416565 19.1284580231
-26.1856060028 39.7003021240 18.9360466003
-26.1844692230 39.6984214783 18.7414169312
-26.1781673431 39.6882324219 18.5441913605
-26.1660442352 39.6686859131 18.3440208435
-26.1477260590 39.6391792297 18.1406974792
-26.1235790253 39.6002998352 17.9343833923
-26.0948047638 39.5539855957 17.7256641388
-26.0631237030 39.5029907227 17.5153961182
-26.0306415558 39.4507102966 17.3046360016
-25.9999675751 39.4013366699 17.0947093964
-25.9739856720 39.3595085144 16.8870944977
-25.9551658630 39.3291969299 16.6830711365
-25.9449901581 39.3127822876 16.4834232330
-25.9440040588 39.3111419678 16.2884635925
-25.9521732330 39.3242225647 16.0982074738
-25.9687881470 39.3508834839 15.9123191833
-25.9918994904 39.3879890442 15.7298240662
-26.0183258057 39.4304237366 15.5490942001
-26.0447635651 39.4728813171 15.3684244156
-26.0690231323 39.5118331909 15.1866760254
-26.0900535583 39.5455894470 15.0032892227
-26.1069126129 39.5726432800 14.8177633286
-26.1181564331 39.5906677246 14.6293239594
-26.1224346161 39.5974922180 14.4372415543
-26.1195297241 39.5927658081 14.2413749695
-26.1106452942 39.5784301758 14.0423364639
-26.0976486206 39.5574798584 13.8410921097
-26.0822811127 39.5327148438 13.6385488510
-26.0663986206 39.5071258545 13.4356870651
-26.0526962280 39.4850425720 13.2339410782
-26.0443172455 39.4715156555 13.0349960327
-26.0432777405 39.4697875977 12.8399505615
-26.0494728088 39.4796981812 12.6487760544
-26.0611953735 39.4984893799 12.4605779648
-26.0760898590 39.5223846436 12.2741098404
-26.0914497375 39.5470275879 12.0879201889
-26.1044178009 39.5678253174 11.9004640579
-26.1129264832 39.5814514160 11.7106103897
-26.1168785095 39.5877494812 11.5182924271
-26.1184005737 39.5901451111 11.3246517181
-26.1207962036 39.5939407349 11.1314821243
-26.1269607544 39.6037979126 10.9403724670
-26.1382217407 39.6218528748 10.7520647049
-26.1538085938 39.6468582153 10.5661525726
-26.1709537506 39.6743736267 10.3811283112
-26.1858215332 39.6982231140 10.1948785782
-26.1949748993 39.7128868103 10.0054950714
-26.1964721680 39.7152404785 9.8118801117
-26.1902427673 39.7051734924 9.6139659882
-26.1782073975 39.6857643127 9.4127950668
-26.1641502380 39.6631088257 9.2104597092
-26.1528110504 39.6448249817 9.0096015930
-26.1485004425 39.6378402710 8.8126459122
-26.1544075012 39.6472816467 8.6214103699
-26.1729087830 39.6769752502 8.4372692108
-26.2058792114 39.7299346924 8.2613267899
-26.2542686462 39.8076858521 8.0941696167
-26.3173828125 39.9091072083 7.9354605675
-26.3926486969 40.0300750732 7.7837939262
-26.4757366180 40.1636123657 7.6367483139
-26.5604152679 40.2997093201 7.4908003807
-26.6386699677 40.4254798889 7.3413772583
-26.7024383545 40.5279579163 7.1838412285
-26.7465915680 40.5988960266 7.0151968002
-26.7706012726 40.6374473572 6.8350710869
-26.7776317596 40.6486968994 6.6452112198
-26.7724971771 40.6403884888 6.4483394623
-26.7600593567 40.6203346252 6.2472205162
-26.7439899445 40.5944442749 6.0439577103
-26.7260589600 40.5655593872 5.8395671844
-26.7066478729 40.5342941284 5.6342630386
-26.6859855652 40.5010185242 5.4281735420
-26.6646709442 40.4666938782 5.2216453552
-26.6433734894 40.4323997498 5.0150675774
-26.6229476929 40.3995018005 4.8089404106
-26.6050891876 40.3707351685 4.6042671204
-26.5922794342 40.3500862122 4.4025163651
-26.5863933563 40.3405647278 4.2048139572
-26.5871582031 40.3417396545 4.0110244751
-26.5919399261 40.3493728638 3.8196098804
-26.5974121094 40.3581199646 3.6286096573
-26.6021175385 40.3656311035 3.4371554852
-26.6078128815 40.3747367859 3.2462959290
-26.6183128357 40.3915634155 3.0583131313
-26.6366615295 40.4210128784 2.8750472069
-26.6629104614 40.4631652832 2.6965587139
-26.6939067841 40.5129508972 2.5209784508
-26.7247772217 40.5625305176 2.3453879356
-26.7510166168 40.6046676636 2.1670684814
-26.7700252533 40.6351776123 1.9844282866
-26.7813148499 40.6532745361 1.7971466780
-26.7856674194 40.6602172852 1.6056714058
-26.7842540741 40.6578941345 1.4106891155
-26.7783279419 40.6483116150 1.2129433155
-26.7689933777 40.6332473755 1.0130923986
-26.7563495636 40.6128654480 0.8111847639
-26.7385025024 40.5841140747 0.6060465574
-26.7119846344 40.5414237976 0.3955274224
-26.6741542816 40.4805412292 0.1779713631
-22.3365745544 -0.2799436152 87.8580551147
-22.3503608704 -0.2817060649 87.6508789063
-22.3820972443 -0.2842402756 87.4441223145
-22.4287738800 -0.2874167264 87.2377395630
-22.4862823486 -0.2910586298 87.0316619873
-22.5499134064 -0.2949633896 86.8257980347
-22.6157512665 -0.2989626229 86.6200561523
-22.6805610657 -0.3029173613 86.4143600464
-22.7390804291 -0.3066012561 86.2085571289
-22.7823276520 -0.3096285760 86.0024108887
-22.8007755280 -0.3115898967 85.7956085205
-22.7900753021 -0.3122986257 85.5880050659
-22.7537364960 -0.3119058907 85.3796386719
-22.7009830475 -0.3108082414 85.1707305908
-22.6431102753 -0.3094910681 84.9616012573
-22.5916175842 -0.3084483743 84.7525863647
-22.5578441620 -0.3081672192 84.5440521240
-22.5531501770 -0.3091353178 84.3363952637
-22.5894203186 -0.3118627071 84.1300506592
-22.6786193848 -0.3168629110 83.9254837036
-22.8296108246 -0.3245158792 83.7230911255
-23.0433940887 -0.3348639905 83.5230178833
-23.3099098206 -0.3474746943 83.3250274658
-23.6080379486 -0.3614407182 83.1284561157
-23.9091548920 -0.3755331039 82.9323425293
-24.1846141815 -0.3885222673 82.7356414795
-24.4150810242 -0.3995784521 82.5375823975
-24.5958957672 -0.4085024297 82.3379135132
-24.7339916229 -0.4155918658 82.1368179321
-24.8390026093 -0.4212609231 81.9345779419
-24.9166851044 -0.4257566929 81.7313766479
-24.9692382813 -0.4291738868 81.5272521973
-24.9994087219 -0.4316306114 81.3222656250
-25.0123920441 -0.4333499372 81.1165924072
-25.0138797760 -0.4345760942 80.9104461670
-25.0071773529 -0.4354510903 80.7039413452
-24.9921951294 -0.4359710217 80.4970626831
-24.9667987823 -0.4360445440 80.2896957397
