-32.2618026733 34.9740867615 4.7940149307
-32.2233886719 34.9280319214 4.5806107521
-32.1789550781 34.8748397827 4.3642444611
-32.1344184875 34.8215255737 4.1477332115
-32.0951995850 34.7745208740 3.9336795807
-32.0657768250 34.7391242981 3.7242515087
-32.0491943359 34.7189483643 3.5209453106
-32.0457344055 34.7143325806 3.3239357471
-32.0523033142 34.7216033936 3.1317653656
-32.0639991760 34.7349548340 2.9420852661
-32.0767440796 34.7495498657 2.7529301643
-32.0887718201 34.7632980347 2.5634415150
-32.1001586914 34.7762794495 2.3736541271
-32.1113739014 34.7890586853 2.1837978363
-32.1220130920 34.8011627197 1.9936740398
-32.1303138733 34.8104858398 1.8024131060
-32.1337013245 34.8139877319 1.6087439060
-32.1301879883 34.8093109131 1.4116724730
-32.1195411682 34.7961692810 1.2110620737
-32.1031990051 34.7762794495 1.0076047182
-32.0834579468 34.7523612976 0.8024207950
-32.0629920959 34.7275848389 0.5968309641
-32.0444297791 34.7050590515 0.3921381533
-32.0291671753 34.6864509583 0.1890467405
-55.8685836792 -9.7765998840 86.1056213379
-55.9407386780 -9.7915658951 85.9202117920
-56.0887680054 -9.8206996918 85.7373733521
-56.3064498901 -9.8628387451 85.5570220947
-56.5779685974 -9.9150285721 85.3787536621
-56.8800735474 -9.9729280472 85.2018737793
-57.1892890930 -10.0321521759 85.0255966187
-57.4891395569 -10.0896244049 84.8493499756
-57.7732200623 -10.1441488266 84.6728897095
-58.0433235168 -10.1960611343 84.4962463379
-58.3046951294 -10.2463417053 84.3195953369
-58.5613670349 -10.2957410812 84.1430740356
-58.8131408691 -10.3442249298 83.9666671753
-59.0552558899 -10.3909025192 83.7901763916
-59.2815589905 -10.4346256256 83.6133422852
-59.4895324707 -10.4749250412 83.4360275269
-59.6820831299 -10.5123434067 83.2583160400
-59.8632774353 -10.5476408005 83.0803604126
-60.0324325562 -10.5806884766 82.9021072388
-60.1832695007 -10.6103153229 82.7232589722
-60.3089103699 -10.6352376938 82.5434875488
-60.4061241150 -10.6548528671 82.3625946045
-60.4737167358 -10.6689395905 82.1804885864
-60.5094337463 -10.6770753860 81.9970016479
-60.5123405457 -10.6790885925 81.8120346069
-60.4894409180 -10.6762838364 81.6258621216
-60.4549713135 -10.6713209152 81.4391021729
-60.4166984558 -10.6656494141 81.2521133423
-60.3633537292 -10.6571645737 81.0643310547
-60.2736053467 -10.6418867111 80.8746871948
-60.1420097351 -10.6188020706 80.6828460693
-59.9907455444 -10.5920476913 80.4898376465
-59.8506164551 -10.5673732758 80.2972106934
-59.7341613770 -10.5471172333 80.1056213379
-59.6301803589 -10.5291900635 79.9145355225
-59.5188293457 -10.5098886490 79.7229232788
-59.3864555359 -10.4866657257 79.5300521851
-59.2285652161 -10.4586849213 79.3356246948
-59.0462303162 -10.4261436462 79.1396560669
-58.8451805115 -10.3901128769 78.9424285889
-58.6389236450 -10.3531131744 78.7446517944
-58.4496421814 -10.3192815781 78.5475769043
-58.3013191223 -10.2930927277 78.3526077271
-58.2073631287 -10.2770481110 78.1605758667
-58.1625900269 -10.2701787949 77.9712905884
-58.1489715576 -10.2691211700 77.7837829590
-58.1520881653 -10.2711849213 77.5972442627
-58.1724319458 -10.2764625549 77.4117355347
-58.2194099426 -10.2867078781 77.2278594971
-58.2938461304 -10.3020734787 77.0457153320
-58.3766670227 -10.3190031052 76.8641738892
-58.4349403381 -10.3313531876 76.6811904907
-58.4366302490 -10.3331499100 76.4946975708
-58.3596611023 -10.3202781677 76.3031768799
-58.1966247559 -10.2913551331 76.1060104370
-57.9642677307 -10.2495069504 75.9041290283
-57.7076988220 -10.2031459808 75.7003631592
-57.4796714783 -10.1621093750 75.4981689453
-57.3054122925 -10.1311025620 75.2992858887
-57.1703872681 -10.1074123383 75.1028213501
-57.0424385071 -10.0850439072 74.9066696167
-56.8990325928 -10.0597934723 74.7092895508
-56.7355003357 -10.0307931900 74.5103378296
-56.5617866516 -9.9998950958 74.3104553223
-56.3993835449 -9.9711074829 74.1111602783
-56.2733879089 -9.9491100311 73.9142379761
-56.1976852417 -9.9364900589 73.7207641602
-56.1666107178 -9.9321908951 73.5304183960
-56.1610603333 -9.9326496124 73.3418884277
-56.1609420776 -9.9341211319 73.1537399292
-56.1533355713 -9.9341974258 72.9650344849
-56.1345863342 -9.9321966171 72.7754669189
-56.1089630127 -9.9289150238 72.5853576660
-56.0853080750 -9.9259996414 72.3953552246
-56.0710678101 -9.9248409271 72.2060394287
-56.0646820068 -9.9251451492 72.0173034668
-56.0500793457 -9.9239177704 71.8279037476
-55.9991722107 -9.9159250259 71.6356353760
-55.8842468262 -9.8960018158 71.4382400513
-55.6945800781 -9.8621492386 71.2347335815
-55.4458198547 -9.8172864914 71.0262451172
-55.1743316650 -9.7681903839 70.8156127930
-54.9226913452 -9.7227954865 70.6062545776
-54.7286643982 -9.6881389618 70.4013061523
-54.6182899475 -9.6690740585 70.2030334473
-54.5960311890 -9.6664285660 70.0119628906
-54.6378707886 -9.6757278442 69.8262252808
-54.7021064758 -9.6891994476 69.6424331665
-54.7537612915 -9.7003259659 69.4576416016
-54.7793045044 -9.7065877914 69.2706604004
-54.7807579041 -9.7083606720 69.0816192627
-54.7611808777 -9.7062158585 68.8907394409
-54.7171440125 -9.6995134354 68.6976928711
-54.6433601379 -9.6872701645 68.5019531250
-54.5431518555 -9.6701049805 68.3037719727
-54.4315681458 -9.6508207321 68.1044387817
-54.3231010437 -9.6321191788 67.9052429199
-54.2155113220 -9.6135816574 67.7059783936
-54.0891952515 -9.5915584564 67.5048751831
-53.9234085083 -9.5621824265 67.2999801636
-53.7116241455 -9.5242404938 67.0906143188
-53.4642105103 -9.4796648026 66.8776702881
-53.2029190063 -9.4325065613 66.6631088257
-52.9550132751 -9.3878440857 66.4494857788
-52.7463188171 -9.3504867554 66.2392730713
-52.5911788940 -9.3231058121 66.0339126587
-52.4853973389 -9.3049192429 65.8330993652
-52.4113464355 -9.2926425934 65.6352157593
-52.3530426025 -9.2833003998 65.4387664795
-52.3040771484 -9.2756967545 65.2431564331
-52.2585144043 -9.2687282562 65.0478057861
-52.2000923157 -9.2593650818 64.8511199951
-52.1087417603 -9.2438707352 64.6510696411
-51.9794692993 -9.2213163376 64.4470825195
-51.8318595886 -9.1953487396 64.2410812378
-51.6976242065 -9.1718730927 64.0362472534
-51.5958938599 -9.1544504166 63.8345680237
-51.5183296204 -9.1415281296 63.6352386475
-51.4363403320 -9.1277837753 63.4353485107
-51.3232994080 -9.1082592010 63.2321166992
-51.1723709106 -9.0816812515 63.0247726440
-50.9959869385 -9.0503664017 62.8145523071
-50.8119773865 -9.0176343918 62.6032981873
-50.6336517334 -8.9859609604 62.3924179077
-50.4712181091 -8.9572486877 62.1830101013
-50.3357849121 -8.9335632324 61.9763069153
-50.2369728088 -8.9166975021 61.7733993530
-50.1774597168 -8.9071464539 61.5746421814
-50.1512374878 -8.9037923813 61.3794555664
-50.1458625793 -8.9043197632 61.1865234375
-50.1460800171 -8.9058876038 60.9941940308
-50.1384468079 -8.9059944153 60.8009834290
-50.1154594421 -8.9032430649 60.6060333252
-50.0757255554 -8.8973770142 60.4091606140
-50.0208053589 -8.8886842728 60.2105102539
-49.9533348083 -8.8776559830 60.0103530884
-49.8778152466 -8.8651313782 59.8091812134
-49.8004684448 -8.8522672653 59.6077003479
-49.7256164551 -8.8398685455 59.4064025879
-49.6514778137 -8.8276023865 59.2050895691
-49.5704994202 -8.8140649796 59.0028762817
-49.4754371643 -8.7979087830 58.7988967896
-49.3659515381 -8.7790679932 58.5930900574
-49.2504081726 -8.7591028214 58.3864173889
-49.1426200867 -8.7405815125 58.1805229187
-49.0562629700 -8.7260475159 57.9770622253
-48.9988899231 -8.7169075012 57.7769775391
-48.9677696228 -8.7126531601 57.5799980164
-48.9510955811 -8.7110853195 57.3847351074
-48.9342041016 -8.7094774246 57.1894111633
-48.9053955078 -8.7056531906 56.9925956726
-48.8576812744 -8.6983118057 56.7933921814
-48.7887802124 -8.6870307922 56.5914916992
-48.7015838623 -8.6723470688 56.3872108459
-48.6033897400 -8.6556186676 56.1814346313
-48.5020408630 -8.6383047104 55.9751319885
-48.4006271362 -8.6209793091 55.7686882019
-48.2953567505 -8.6029376984 55.5616188049
-48.1792297363 -8.5828781128 55.3530197144
-48.0485305786 -8.5601091385 55.1423988342
-47.9054756165 -8.5350446701 54.9300117493
-47.7544708252 -8.5085029602 54.7164077759
-47.5969429016 -8.4807491302 54.5017585754
-47.4317703247 -8.4515752792 54.2859077454
-47.2620201111 -8.4215526581 54.0692405701
-47.0999069214 -8.3929510117 53.8533668518
-46.9624671936 -8.3689393997 53.6405639648
-46.8611946106 -8.3516540527 53.4324111938
-46.7962150574 -8.3411178589 53.2289924622
-46.7596397400 -8.3358640671 53.0293121338
-46.7422943115 -8.3341856003 52.8321800232
-46.7368011475 -8.3347110748 52.6366271973
-46.7365226746 -8.3362064362 52.4417724609
-46.7336463928 -8.3372192383 52.2465515137
-46.7187194824 -8.3359909058 52.0496559143
-46.6830825806 -8.3309135437 51.8498687744
-46.6236495972 -8.3214120865 51.6467208862
-46.5455780029 -8.3084478378 51.4408874512
-46.4587936401 -8.2938632965 51.2337303162
-46.3709373474 -8.2790813446 51.0263061523
-46.2835121155 -8.2643804550 50.8188247681
-46.1943969727 -8.2493667603 50.6109848022
-46.1022453308 -8.2337884903 50.4025955200
-46.0066986084 -8.2175807953 50.1935997009
-45.9061889648 -8.2004518509 49.9837608337
-45.8001365662 -8.1822929382 49.7729873657
-45.6950302124 -8.1643114090 49.5622138977
-45.6050109863 -8.1491355896 49.3535003662
-45.5429649353 -8.1391582489 49.1487617493
-45.5109825134 -8.1347694397 48.9483604431
-45.5003356934 -8.1343450546 48.7510566711
-45.4994850159 -8.1357412338 48.5551795959
-45.5012054443 -8.1376152039 48.3596801758
-45.5042915344 -8.1397428513 48.1643753052
-45.5115394592 -8.1426448822 47.9696884155
-45.5268135071 -8.1470375061 47.7762107849
-45.5522270203 -8.1533136368 47.5842781067
-45.5864334106 -8.1612234116 47.3937034607
-45.6243705750 -8.1698265076 47.2037315369
-45.6576766968 -8.1775684357 47.0130844116
-45.6763458252 -8.1825914383 46.8202209473
-45.6732215881 -8.1835651398 46.6240081787
-45.6490364075 -8.1806268692 46.4245185852
-45.6126213074 -8.1754169464 46.2230873108
-45.5755920410 -8.1700935364 46.0215072632
-45.5465965271 -8.1662616730 45.8211288452
-45.5288581848 -8.1645221710 45.6224822998
-45.5213356018 -8.1646804810 45.4254188538
-45.5220565796 -8.1663694382 45.2296409607
-45.5310363770 -8.1695938110 45.0351715088
-45.5506858826 -8.1747980118 44.8424110413
-45.5834503174 -8.1824398041 44.6517715454
-45.6287269592 -8.1924037933 44.4631767273
-45.6818923950 -8.2038335800 44.2759056091
-45.7372398376 -8.2156667709 44.0890426636
-45.7919578552 -8.2273836136 43.9021377563
-45.8460960388 -8.2389917374 43.7151947021
-45.8979835510 -8.2501821518 43.5279426575
-45.9410705566 -8.2597379684 43.3392906189
-45.9668502808 -8.2660789490 43.1478233337
-45.9708633423 -8.2683773041 42.9527626038
-45.9553413391 -8.2670497894 42.7544441223
-45.9270286560 -8.2633476257 42.5539588928
-45.8937950134 -8.2587318420 42.3526039124
-45.8622436523 -8.2544288635 42.1514816284
-45.8359222412 -8.2510976791 41.9511947632
-45.8147621155 -8.2487239838 41.7517433167
-45.7968444824 -8.2469530106 41.5528068542
-45.7811203003 -8.2455902100 41.3542175293
-45.7680244446 -8.2447147369 41.1560478210
-45.7580718994 -8.2444229126 40.9583969116
-45.7512359619 -8.2447099686 40.7612609863
-45.7475891113 -8.2455892563 40.5646591187
-45.7472496033 -8.2470817566 40.3686218262
-45.7495117188 -8.2490587234 40.1730308533
-45.7527885437 -8.2512226105 39.9776077271
-45.7553825378 -8.2532606125 39.7820587158
-45.7560729980 -8.2549448013 39.5861701965
-45.7541236877 -8.2561407089 39.3898086548
-45.7491073608 -8.2567663193 39.1928863525
-45.7407760620 -8.2567768097 38.9953575134
-45.7290420532 -8.2561559677 38.7972030640
-45.7138862610 -8.2548999786 38.5984115601
-45.6951179504 -8.2529745102 38.3989372253
-45.6720237732 -8.2502460480 38.1986503601
-45.6432189941 -8.2464590073 37.9972915649
-45.6071662903 -8.2413272858 37.7945671082
-45.5640411377 -8.2348823547 37.5904998779
-45.5185432434 -8.2279987335 37.3859329224
-45.4807319641 -8.2225418091 37.1827163696
-45.4615211487 -8.2205362320 36.9828758240
-45.4648818970 -8.2227191925 36.7871780396
-45.4840507507 -8.2278337479 36.5944099426
-45.5058822632 -8.2334432602 36.4021568298
-45.5188827515 -8.2374143600 36.2082672119
-45.5176467896 -8.2387437820 36.0117149353
-45.5020179749 -8.2374029160 35.8124427795
-45.4745407104 -8.2338657379 35.6109085083
-45.4385337830 -8.2287454605 35.4077110291
-45.3966369629 -8.2225341797 35.2033462524
-45.3499946594 -8.2154417038 34.9980125427
-45.2984428406 -8.2074403763 34.7916755676
-45.2415046692 -8.1984405518 34.5842323303
-45.1794128418 -8.1884841919 34.3757171631
-45.1138801575 -8.1778907776 34.1664505005
-45.0484008789 -8.1673088074 33.9571075439
-44.9881095886 -8.1576900482 33.7486839294
-44.9393997192 -8.1502180099 33.5424308777
-44.9083747864 -8.1460285187 33.3395690918
-44.8978805542 -8.1456441879 33.1406822205
-44.9050674438 -8.1485404968 32.9452590942
-44.9221534729 -8.1532716751 32.7517852783
-44.9402694702 -8.1581935883 32.5585289001
-44.9535865784 -8.1622266769 32.3643341064
-44.9606971741 -8.1651077271 32.1689071655
-44.9629631042 -8.1670913696 31.9725131989
-44.9621734619 -8.1685085297 31.7754993439
-44.9593315125 -8.1695451736 31.5780639648
-44.9545021057 -8.1702127457 31.3802127838
-44.9468536377 -8.1703577042 31.1817779541
-44.9347114563 -8.1696710587 30.9824123383
-44.9161300659 -8.1677894592 30.7817115784
-44.8902473450 -8.1645555496 30.5794887543
-44.8582916260 -8.1601953506 30.3759803772
-44.8227691650 -8.1551752090 30.1716918945
-44.7854042053 -8.1498126984 29.9669704437
-44.7464408875 -8.1441564560 29.7618637085
-44.7061729431 -8.1382570267 29.5564270020
-44.6663436890 -8.1324405670 29.3510265350
-44.6291618347 -8.1271142960 29.1461162567
-44.5950851440 -8.1223640442 28.9418010712
-44.5626983643 -8.1179275513 28.7377910614
-44.5312347412 -8.1136627197 28.5339241028
-44.5028457642 -8.1099681854 28.3306579590
-44.4820060730 -8.1076736450 28.1289463043
-44.4731483459 -8.1075983047 27.9297409058
-44.4792137146 -8.1102895737 27.7336902618
-44.5016784668 -8.1160192490 27.5411376953
-44.5402259827 -8.1247291565 27.3520469666
-44.5917549133 -8.1358442307 27.1657810211
-44.6508331299 -8.1483583450 26.9811935425
-44.7125320435 -8.1613559723 26.7972373962
-44.7747268677 -8.1744461060 26.6134529114
-44.8368301392 -8.1875190735 26.4297180176
-44.8964462280 -8.2001304626 26.2455101013
-44.9484748840 -8.2113351822 26.0597076416
-44.9881362915 -8.2202482224 25.8712520599
-45.0144958496 -8.2266979218 25.6799163818
-45.0309257507 -8.2313060760 25.4864177704
-45.0427207947 -8.2350568771 25.2919063568
-45.0542564392 -8.2387590408 25.0973415375
-45.0670623779 -8.2426958084 24.9030647278
-45.0793685913 -8.2465410233 24.7086849213
-45.0874366760 -8.2496013641 24.5133628845
-45.0878639221 -8.2512445450 24.3163299561
-45.0792961121 -8.2512235641 24.1172714233
-45.0630989075 -8.2497892380 23.9164752960
-45.0430145264 -8.2476348877 23.7147712708
-45.0237655640 -8.2456359863 23.5132217407
-45.0092544556 -8.2445144653 23.3127155304
-45.0019493103 -8.2447280884 23.1138229370
-45.0036735535 -8.2466135025 22.9169712067
-45.0162429810 -8.2505073547 22.7225952148
-45.0409622192 -8.2566509247 22.5310134888
-45.0779266357 -8.2650632858 22.3422718048
-45.1260108948 -8.2755327225 22.1561298370
-45.1825408936 -8.2875661850 21.9719905853
-45.2421913147 -8.3001775742 21.7886390686
-45.2968902588 -8.3118705750 21.6041984558
-45.3383102417 -8.3211050034 21.4167194366
-45.3608436584 -8.3268413544 21.2248668671
-45.3622779846 -8.3286733627 21.0280895233
-45.3426475525 -8.3266038895 20.8263530731
-45.3035774231 -8.3209362030 20.6200027466
-45.2486190796 -8.3123273849 20.4098415375
-45.1829681396 -8.3017396927 20.1970691681
-45.1116714478 -8.2901086807 19.9828681946
-45.0378875732 -8.2780179977 19.7679767609
-44.9636650085 -8.2658462524 19.5528793335
-44.8929901123 -8.2543315887 19.3385295868
-44.8334426880 -8.2448778152 19.1267547607
-44.7937431335 -8.2390975952 18.9196701050
-44.7792892456 -8.2379922867 18.7186183929
-44.7898101807 -8.2415084839 18.5235786438
-44.8204421997 -8.2487459183 18.3334178925
-44.8645782471 -8.2584838867 18.1465682983
-44.9157371521 -8.2695207596 17.9614734650
-44.9673423767 -8.2806396484 17.7765426636
-45.0122261047 -8.2905139923 17.5900211334
-45.0436325073 -8.2978935242 17.4002361298
-45.0566444397 -8.3018703461 17.2059535980
-45.0481643677 -8.3018684387 17.0063743591
-45.0159301758 -8.2974720001 16.8008995056
-44.9584884644 -8.2884130478 16.5891246796
-44.8763237000 -8.2747793198 16.3711223602
-44.7728157043 -8.2571964264 16.1476898193
-44.6543159485 -8.2368421555 15.9203739166
-44.5299415588 -8.2154016495 15.6914319992
-44.4116935730 -8.1950960159 15.4638652802
-44.3133621216 -8.1784763336 15.2411546707
-44.2467727661 -8.1677303314 15.0263233185
-44.2177619934 -8.1639366150 14.8209066391
-44.2251663208 -8.1668796539 14.6246776581
-44.2625160217 -8.1753616333 14.4360589981
-44.3204917908 -8.1876592636 14.2527322769
-44.3899230957 -8.2020750046 14.0723953247
-44.4644088745 -8.2174243927 13.8934288025
-44.5402679443 -8.2330284119 13.7148971558
-44.6135025024 -8.2481460571 13.5357761383
-44.6766586304 -8.2613983154 13.3541364670
-44.7187194824 -8.2707490921 13.1671123505
-44.7289505005 -8.2742128372 12.9718828201
-44.7019882202 -8.2707977295 12.7669963837
-44.6400260925 -8.2609100342 12.5529546738
-44.5504455566 -8.2459163666 12.3316192627
-44.4418334961 -8.2274036407 12.1051845551
-44.3224182129 -8.2068939209 11.8757734299
-44.2015342712 -8.1861143112 11.6458196640
-44.0909309387 -8.1672382355 11.4184160233
-44.0031547546 -8.1525821686 11.1968927383
-43.9475746155 -8.1438808441 10.9837741852
-43.9271278381 -8.1416769028 10.7798995972
-43.9380798340 -8.1452770233 10.5843400955
-43.9725914001 -8.1532344818 10.3950653076
-44.0223884583 -8.1640167236 10.2099075317
-44.0809860229 -8.1764249802 10.0271577835
-44.1433410645 -8.1895294189 9.8454818726
-44.2045440674 -8.2024183273 9.6635627747
-44.2595787048 -8.2141675949 9.4800472260
-44.3038368225 -8.2239236832 9.2936773300
-44.3332023621 -8.2309265137 9.1033191681
-44.3447990417 -8.2346458435 8.9081649780
-44.3388900757 -8.2351274490 8.7082500458
-44.3193740845 -8.2330951691 8.5046091080
-44.2909164429 -8.2294101715 8.2984886169
-44.2546691895 -8.2242860794 8.0901908875
-44.2070465088 -8.2170600891 7.8787140846
-44.1427879333 -8.2067594528 7.6625914574
-44.0593032837 -8.1929063797 7.4410753250
-43.9584693909 -8.1758480072 7.2146506310
-43.8457565308 -8.1565961838 6.9848003387
-43.7293128967 -8.1366558075 6.7537651062
-43.6196212769 -8.1179637909 6.5244550705
-43.5274543762 -8.1025123596 6.2998890877
-43.4597587585 -8.0915822983 6.0820398331
-43.4166870117 -8.0852041245 5.8709969521
-43.3925437927 -8.0823230743 5.6652064323
-43.3792343140 -8.0814447403 5.4624261856
-43.3691368103 -8.0811595917 5.2605247498
-43.3559226990 -8.0802993774 5.0577216148
-43.3343276978 -8.0778903961 4.8525180817
-43.3003654480 -8.0731973648 4.6437683105
-43.2523880005 -8.0659151077 4.4309792519
-43.1917228699 -8.0562887192 4.2145023346
-43.1223182678 -8.0450496674 3.9954445362
-43.0504074097 -8.0333480835 3.7755730152
-42.9840965271 -8.0226821899 3.5572104454
-42.9311256409 -8.0144805908 3.3425931931
-42.8953323364 -8.0094528198 3.1328525543
-42.8755531311 -8.0073833466 2.9276840687
-42.8682670593 -8.0076217651 2.7260980606
-42.8707885742 -8.0096712112 2.5273385048
-42.8818092346 -8.0132913589 2.3310449123
-42.8995628357 -8.0181541443 2.1367156506
-42.9202842712 -8.0235652924 1.9432671070
-42.9391632080 -8.0286359787 1.7492947578
-42.9527511597 -8.0327291489 1.5537854433
-42.9602928162 -8.0357065201 1.3565070629
-42.9629096985 -8.0377740860 1.1577792168
-42.9621658325 -8.0392208099 0.9580529332
-42.9593429565 -8.0402841568 0.7577020526
-42.9554367065 -8.0411472321 0.5570169091
-42.9511985779 -8.0419492722 0.3562198579
-42.9470062256 -8.0427598953 0.1554214656
-11.8149900436 19.9871997833 86.1520996094
-11.8174848557 19.9915580750 85.9455566406
-11.8199806213 19.9959163666 85.7390060425
-11.8224754333 20.0002746582 85.5324554443
-13.1327362061 22.7026100159 82.7877120972
-13.1275129318 22.6909923553 82.5820541382
-13.1163129807 22.6669940948 82.3756713867
-13.1025524139 22.6376934052 82.1689300537
-13.0900239944 22.6109447479 81.9622955322
-13.0806312561 22.5906867981 81.7559967041
-13.0731601715 22.5744132996 81.5499038696
-13.0639619827 22.5545597076 81.3435592651
-13.0487060547 22.5221614838 81.1364135742
-13.0244331360 22.4710865021 80.9280548096
-12.9912853241 22.4016304016 80.7184677124
-12.9529047012 22.3213348389 80.5080947876
-12.9150600433 22.2421512604 80.2976684570
-12.8834552765 22.1758880615 80.0879592896
-12.8620128632 22.1306743622 79.8795318604
-12.8524036407 22.1099681854 79.6726455688
-13.3569116592 23.1452751160 77.2827072144
-13.3691711426 23.1698665619 77.0796356201
-13.3852844238 23.2024383545 76.8771972656
-13.3980855942 23.2281513214 76.6742630005
-13.4042272568 23.2400722504 76.4702987671
-13.4054155350 23.2417316437 76.2655487061
-13.4057483673 23.2416191101 76.0606460571
-15.1986827850 26.9481430054 74.5304946899
-15.2005701065 26.9512596130 74.3283538818
-15.2017011642 26.9528121948 74.1260757446
-15.2022686005 26.9531955719 73.9236831665
-15.2027101517 26.9533176422 73.7212677002
-15.2028942108 26.9529075623 73.5187988281
-15.2017364502 26.9497184753 73.3160705566
-15.1975631714 26.9402809143 73.1127700806
-15.1889333725 26.9216136932 72.9086151123
-15.1756267548 26.8932609558 72.7035446167
-15.1592435837 26.8585319519 72.4978408813
-15.1429967880 26.8240871429 72.2921066284
-15.1314115524 26.7992973328 72.0872192383
-15.1306772232 26.7969837189 71.8843917847
-15.1484813690 26.8330707550 71.6851806641
-15.1917381287 26.9218807220 71.4910354614
-15.2630023956 27.0687065125 71.3025665283
-15.3580904007 27.2648811340 71.1190567017
-15.4664268494 27.4884986877 70.9384765625
-15.5742750168 27.7111072540 70.7581024170
-15.6696624756 27.9079055786 70.5754776001
-15.7461843491 28.0656261444 70.3892440796
-15.8032369614 28.1830177307 70.1991806030
-15.8434696198 28.2655677795 70.0057678223
-15.8703479767 28.3204574585 69.8096466064
-15.8873109818 28.3548069000 69.6115036011
-15.8976497650 28.3754348755 69.4119949341
-15.9041423798 28.3880958557 69.2116775513
-15.9086484909 28.3966407776 69.0109405518
-15.9121065140 28.4030151367 68.8099746704
-15.9148674011 28.4079475403 68.6088638306
-15.9170589447 28.4116992950 68.4076232910
-15.9188604355 28.4146404266 68.2062911987
-15.9207830429 28.4178352356 68.0049896240
-15.9239950180 28.4237003326 67.8039703369
-15.9305276871 28.4364433289 67.6036987305
-15.9430589676 28.4616146088 67.4048004150
-15.9643421173 28.5049133301 67.2079315186
-15.9968938828 28.5715560913 67.0137100220
-16.0429763794 28.6662311554 66.8227081299
-16.1037559509 28.7913513184 66.6352539063
-16.1774387360 28.9431991577 66.4509887695
-16.2583827972 29.1100921631 66.2686386108
-16.3386707306 29.2756252289 66.0863571167
-16.4109401703 29.4245491028 65.9023818970
-16.4706954956 29.5475502014 65.7155990601
-16.5171699524 29.6430397034 65.5257720947
-16.5523719788 29.7151775360 65.3333282471
-16.5790290833 29.7696132660 65.1388854980
-16.5993824005 29.8109931946 64.9429626465
-16.6155605316 29.8437213898 64.7460556030
-16.6298942566 29.8726310730 64.5487213135
-16.6440258026 29.9011192322 64.3513717651
-16.6579685211 29.9292182922 64.1540069580
-16.6707496643 29.9549102783 63.9563789368
-16.6822204590 29.9778900146 63.7584457397
-16.6943950653 30.0023250580 63.5607147217
-16.7116088867 30.0372028351 63.3643074036
-16.7399158478 30.0950584412 63.1708145142
-16.7858066559 30.1893424988 62.9819717407
-16.8538951874 30.3296146393 62.7990608215
-16.9440670013 30.5156326294 62.6221542358
-17.0499820709 30.7342700958 62.4496612549
-17.1607646942 30.9629917145 62.2787628174
-17.2652626038 31.1786956787 62.1064910889
-17.3558216095 31.3655223846 61.9307632446
-17.4291706085 31.5166988373 61.7506294250
-17.4853534698 31.6323108673 61.5660324097
-17.5267620087 31.7173137665 61.3775482178
-17.5574188232 31.7800445557 61.1862220764
-17.5815582275 31.8292751312 60.9931716919
-17.6021556854 31.8711662292 60.7992019653
-17.6208267212 31.9090652466 60.6047401428
-17.6386756897 31.9452648163 60.4100990295
-17.6563739777 31.9811496735 60.2154502869
-17.6734580994 32.0157661438 60.0206756592
-17.6885147095 32.0461769104 59.8253593445
-17.7005252838 32.0702781677 59.6292076111
-17.7099361420 32.0889968872 59.4323310852
-17.7185745239 32.1061096191 59.2352523804
-17.7290077209 32.1269454956 59.0387077332
-17.7441043854 32.1574440002 58.8435478210
-17.7668628693 32.2038154602 58.6506729126
-17.8004055023 32.2725257874 58.4610328674
-17.8476028442 32.3695297241 58.2755279541
-17.9096279144 32.4972534180 58.0945625305
-17.9841041565 32.6507759094 57.9174957275
-18.0651283264 32.8178634644 57.7426033020
-18.1458473206 32.9843177795 57.5678405762
-18.2213916779 33.1400527954 57.3917350769
-18.2896976471 33.2807960510 57.2136268616
-18.3501834869 33.4053306580 57.0333099365
-18.4021110535 33.5121383667 56.8505249023
-18.4443988800 33.5989799500 56.6648979187
-18.4764995575 33.6647071838 56.4762153625
-18.4985694885 33.7096557617 56.2844886780
-18.5107917786 33.7342033386 56.0897254944
-18.5133743286 33.7387809753 55.8919525146
-18.5075302124 33.7258911133 55.6915092468
-18.4959716797 33.7011718750 55.4892234802
-18.4824733734 33.6724281311 55.2862739563
-18.4713516235 33.6486091614 55.0840415955
-18.4671382904 33.6390991211 54.8839950562
-18.4738769531 33.6522827148 54.6874694824
-18.4940891266 33.6933860779 54.4953384399
-18.5281753540 33.7632331848 54.3077888489
-18.5747356415 33.8589248657 54.1244163513
-18.6313838959 33.9755210876 53.9444999695
-18.6951236725 34.1068077087 53.7670783997
-18.7621994019 34.2450065613 53.5909461975
-18.8283710480 34.3813362122 53.4146919250
-18.8899478912 34.5081443787 53.2370834351
-18.9445991516 34.6206054688 53.0573081970
-18.9913215637 34.7166366577 52.8750000000
-19.0302219391 34.7964630127 52.6901626587
-19.0629539490 34.8635101318 52.5033264160
-19.0927429199 34.9244575500 52.3155632019
-19.1226482391 34.9856452942 52.1279220581
-19.1529788971 35.0477142334 51.9404983521
-19.1805496216 35.1040687561 51.7522010803
-19.2006092072 35.1448593140 51.5613594055
-19.2095146179 35.1625404358 51.3666610718
-19.2064208984 35.1553535461 51.1677703857
-19.1938304901 35.1284942627 50.9655113220
-19.1771869659 35.0932350159 50.7617721558
-19.1631813049 35.0634422302 50.5589141846
-19.1576633453 35.0512351990 50.3590354919
-19.1648006439 35.0652465820 50.1636657715
-19.1875343323 35.1115798950 49.9739227295
-19.2277641296 35.1941642761 49.7905540466
-19.2855129242 35.3130493164 49.6136474609
-19.3580455780 35.4625663757 49.4422798157
-19.4400024414 35.6316146851 49.2745628357
-19.5249977112 35.8069572449 49.1081848145
-19.6078739166 35.9779090881 48.9412612915
-19.6856803894 36.1383590698 48.7726974487
-19.7564983368 36.2843284607 48.6017494202
-19.8182525635 36.4115180969 48.4276199341
-19.8694667816 36.5168685913 48.2497177124
-19.9105491638 36.6012268066 48.0681419373
-19.9432201385 36.6681518555 47.8835067749
-19.9686946869 36.7201728821 47.6962356567
-19.9870491028 36.7574348450 47.5063209534
-19.9981479645 36.7796630859 47.3136825562
-20.0025577545 36.7880287170 47.1185035706
-20.0013618469 36.7847824097 46.9211769104
-19.9954662323 36.7717933655 46.7220230103
-19.9855384827 36.7504539490 46.5212821960
-19.9728908539 36.7234764099 46.3194465637
-19.9604148865 36.6968536377 46.1176300049
-19.9523506165 36.6793746948 45.9174995422
-19.9531993866 36.6803627014 45.7208404541
-19.9669017792 36.7079849243 45.5292396545
-19.9963684082 36.7682762146 45.3439178467
-20.0424518585 36.8630027771 45.1652717590
-20.1027698517 36.9872207642 44.9924240112
-20.1719493866 37.1298027039 44.8232917786
-20.2434501648 37.2771987915 44.6552810669
-20.3115596771 37.4175643921 44.4861030579
-20.3725852966 37.5432548523 44.3142433167
-20.4252948761 37.6517143250 44.1391792297
-20.4704227448 37.7444610596 43.9611663818
-20.5092468262 37.8241462708 43.7806968689
-20.5424900055 37.8922653198 43.5980415344
-20.5706005096 37.9497489929 43.4133567810
-20.5944461823 37.9983978271 43.2269859314
-20.6149158478 38.0400505066 43.0392723083
-20.6319713593 38.0746269226 42.8501892090
-20.6447410583 38.1003189087 42.6593589783
-20.6527118683 38.1160736084 42.4665412903
-20.6565055847 38.1231651306 42.2719841003
-20.6574211121 38.1242980957 42.0762176514
-20.6565570831 38.1217384338 41.8796844482
-20.6546821594 38.1170883179 41.6827163696
-20.6532001495 38.1132507324 41.4858970642
-20.6551876068 38.1166000366 41.2905502319
-20.6651840210 38.1365509033 41.0986366272
-20.6875362396 38.1821060181 40.9120674133
-20.7244186401 38.2577705383 40.7318267822
-20.7748394012 38.3614883423 40.5575561523
-20.8350067139 38.4854125977 40.3876609802
-20.8994770050 38.6182479858 40.2198066711
-20.9623279572 38.7477340698 40.0514221191
-21.0185527802 38.8634834290 39.8802986145
-21.0658302307 38.9606933594 39.7053871155
-21.1057395935 39.0426368713 39.5273437500
-21.1426620483 39.1183853149 39.3480834961
-21.1802406311 39.1954994202 39.1692123413
-21.2181549072 39.2733078003 38.9905929565
-21.2522697449 39.3432426453 38.8103713989
-21.2779235840 39.3956451416 38.6264343262
-21.2928409576 39.4257926941 38.4377250671
-21.2970829010 39.4338226318 38.2442207336
-21.2913246155 39.4211235046 38.0461807251
-21.2760257721 39.3886528015 37.8437767029
-21.2522888184 39.3386993408 37.6374626160
-21.2230072021 39.2772483826 37.4285278320
-21.1928348541 39.2139549255 37.2190933228
-21.1666259766 39.1588706970 37.0113906860
-21.1475620270 39.1185989380 36.8069076538
-21.1365413666 39.0949974060 36.6060905457
-21.1330566406 39.0870094299 36.4087371826
-21.1364231110 39.0932197571 36.2145652771
-21.1465587616 39.1134605408 36.0235633850
-21.1641235352 39.1490974426 35.8360710144
-21.1897354126 39.2014122009 35.6524124146
-21.2224216461 39.2683868408 35.4721603394
-21.2587795258 39.3429718018 35.2937355042
-21.2944526672 39.4161376953 35.1150817871
-21.3270053864 39.4828414917 34.9350357056
-21.3572978973 39.5448608398 34.7539939880
-21.3878612518 39.6074371338 34.5731582642
-21.4197731018 39.6728134155 34.3930511475
-21.4510383606 39.7368431091 34.2127189636
-21.4778995514 39.7917518616 34.0303344727
-21.4977054596 39.8320350647 33.8445892334
-21.5104312897 39.8576469421 33.6554489136
-21.5180034637 39.8725776672 33.4638175964
-21.5228404999 39.8818397522 33.2708587646
-21.5271415710 39.8899879456 33.0776405334
-21.5329990387 39.9013633728 32.8851928711
-21.5426368713 39.9205780029 32.6946220398
-21.5579452515 39.9515380859 32.5068817139
-21.5793190002 39.9950752258 32.3221931458
-21.6051692963 40.0478897095 32.1397933960
-21.6332473755 40.1053199768 31.9585685730
-21.6624298096 40.1650428772 31.7779731750
-21.6926040649 40.2268180847 31.5979499817
-21.7230968475 40.2892532349 31.4181671143
-21.7524986267 40.3494300842 31.2379131317
-21.7804622650 40.4066238403 31.0570030212
-21.8088397980 40.4646797180 30.8763790131
-21.8402557373 40.5290298462 30.6973762512
-21.8752784729 40.6008529663 30.5203018188
-21.9110813141 40.6743011475 30.3437213898
-21.9430351257 40.7397651672 30.1652526855
-21.9677028656 40.7901306152 29.9831104279
-21.9845371246 40.8242607117 29.7969760895
-21.9954261780 40.8460693359 29.6077957153
-22.0032768250 40.8615760803 29.4170570374
-22.0105495453 40.8758926392 29.2260322571
-22.0178070068 40.8901748657 29.0350093842
-22.0228500366 40.8998603821 28.8428363800
-22.0216045380 40.8965187073 28.6473617554
-22.0106887817 40.8731346130 28.4467716217
-21.9897060394 40.8288803101 28.2408142090
-21.9613838196 40.7694129944 28.0308914185
-21.9298305511 40.7032546997 27.8191604614
-21.8986587524 40.6378822327 27.6075305939
-21.8700447083 40.5778083801 27.3971710205
-21.8448295593 40.5247802734 27.1885414124
-21.8233985901 40.4795989990 26.9818668365
-21.8066921234 40.4442062378 26.7776679993
-21.7963390350 40.4219856262 26.5768470764
-21.7938537598 40.4160690308 26.3802528381
-21.7996826172 40.4273872375 26.1881618500
-21.8127574921 40.4537239075 26.0000286102
-21.8306579590 40.4900665283 25.8145618439
-21.8504104614 40.5302467346 25.6301536560
-21.8695793152 40.5692138672 25.4454727173
-21.8868408203 40.6042327881 25.2597885132
-21.9017295837 40.6343307495 25.0728340149
-21.9140110016 40.6590232849 24.8844699860
-21.9233169556 40.6775512695 24.6944828033
-21.9291648865 40.6889114380 24.5025863647
-21.9311161041 40.6921882629 24.3085231781
-21.9288635254 40.6867561340 24.1121025085
-21.9221000671 40.6719779968 23.9131393433
-21.9102573395 40.6466636658 23.7112884521
-21.8924026489 40.6088905334 23.5060024261
-21.8675975800 40.5567092896 23.2967281342
-21.8354778290 40.4893684387 23.0832252502
-21.7967319489 40.4082946777 22.8658542633
-21.7535457611 40.3180084229 22.6458320618
-21.7100563049 40.2270965576 22.4255027771
-21.6720371246 40.1475219727 22.2081699371
-21.6451511383 40.0910301208 21.9971103668
-21.6329498291 40.0649681091 21.7944145203
-21.6364307404 40.0714225769 21.6007251740
-21.6548461914 40.1088294983 21.4156761169
-21.6860027313 40.1726493835 21.2380599976
-21.7260513306 40.2549018860 21.0656967163
-21.7701129913 40.3454704285 20.8957786560
-21.8134632111 40.4345703125 20.7255649567
-21.8521728516 40.5140457153 20.5527496338
-21.8834571838 40.5781326294 20.3756771088
-21.9063167572 40.6247558594 20.1937274933
-21.9215126038 40.6554946899 20.0073127747
-21.9303836823 40.6731147766 19.8171920776
-21.9337806702 40.6793975830 19.6238422394
-21.9322128296 40.6753807068 19.4275417328
-21.9264774323 40.6627273560 19.2287425995
-21.9176082611 40.6435775757 19.0280475616
-21.9062099457 40.6191864014 18.8258037567
-21.8923778534 40.5897483826 18.6220550537
-21.8766803741 40.5564422607 18.4171352386
-21.8611278534 40.5234413147 18.2122497559
-21.8488807678 40.4972839355 18.0093059540
-21.8427276611 40.4837646484 17.8100128174
-21.8436870575 40.4849891663 17.6150150299
-21.8508358002 40.4990463257 17.4237785339
-21.8626575470 40.5227890015 17.2354087830
-21.8788833618 40.5556602478 17.0497589111
-21.9008216858 40.6003761292 16.8676509857
-21.9294128418 40.6588821411 16.6896877289
-21.9631710052 40.7280960083 16.5149841309
-21.9985046387 40.8005828857 16.3413429260
-22.0317344666 40.8687057495 16.1664924622
-22.0604171753 40.9274024963 15.9889068604
-22.0834617615 40.9744110107 15.8078889847
-22.1010074615 41.0100212097 15.6234998703
-22.1143379211 41.0368957520 15.4365196228
-22.1253929138 41.0590476990 15.2481422424
-22.1357612610 41.0797805786 15.0593576431
-22.1455860138 41.0993843079 14.8702516556
-22.1530532837 41.1140975952 14.6796779633
-22.1551074982 41.1175956726 14.4856958389
-22.1491146088 41.1044044495 14.2866086960
-22.1342945099 41.0729217529 14.0818901062
-22.1122245789 41.0264053345 13.8725023270
-22.0863246918 40.9719429016 13.6605958939
-22.0606822968 40.9180221558 13.4487724304
-22.0386047363 40.8714904785 13.2391500473
-22.0217475891 40.8357772827 13.0328073502
-22.0107421875 40.8121986389 12.8301753998
-22.0066852570 40.8030204773 12.6319875717
-22.0114879608 40.8122138977 12.4395093918
-22.0264778137 40.8425254822 12.2536411285
-22.0512104034 40.8930358887 12.0741376877
-22.0838203430 40.9598770142 11.8998270035
-22.1216793060 41.0376014709 11.7290306091
-22.1614875793 41.1193656921 11.5596075058
-22.1998615265 41.1981620789 11.3893547058
-22.2344646454 41.2691345215 11.2167243958
-22.2640228271 41.3296508789 11.0408639908
-22.2876052856 41.3777809143 10.8611373901
-22.3048896790 41.4128494263 10.6773052216
-22.3167362213 41.4366493225 10.4899101257
-22.3240337372 41.4510154724 10.2995176315
-22.3260517120 41.4544334412 10.1056213379
-22.3210105896 41.4432182312 9.9070129395
-22.3083534241 41.4162178040 9.7032890320
-22.2898368835 41.3770599365 9.4955902100
-22.2685356140 41.3321380615 9.2859592438
-22.2471523285 41.2870368958 9.0762014389
-22.2271728516 41.2448539734 8.8673200607
-22.2097530365 41.2079734802 8.6601018906
-22.1976814270 41.1821784973 8.4564466476
-22.1959743500 41.1778755188 8.2597837448
-22.2094097137 41.2049674988 8.0734100342
-22.2391700745 41.2659034729 7.8981976509
-22.2823753357 41.3547210693 7.7322506905
-22.3343658447 41.4617462158 7.5724349022
-22.3904075623 41.5771751404 7.4155435562
-22.4458560944 41.6913757324 7.2583971024
-22.4964294434 41.7954673767 7.0980448723
-22.5392513275 41.8834877014 6.9324774742
-22.5733718872 41.9534683228 6.7610044479
-22.5991706848 42.0061950684 6.5838513374
-22.6176052094 42.0436553955 6.4016466141
-22.6300811768 42.0687561035 6.2153353691
-22.6384181976 42.0852813721 6.0261654854
-22.6443271637 42.0967712402 5.8353114128
-22.6486396790 42.1049499512 5.6433467865
-22.6509113312 42.1088981628 5.4499530792
-22.6495208740 42.1052513123 5.2539801598
-22.6422309875 42.0893745422 5.0538339615
-22.6271495819 42.0573425293 4.8481516838
-22.6037750244 42.0081176758 4.6365442276
-22.5735988617 41.9447898865 4.4200344086
-22.5399436951 41.8742408752 4.2009515762
-22.5069770813 41.8051261902 3.9822547436
-22.4781570435 41.7446060181 3.7664115429
-22.4547901154 41.6953964233 3.5543770790
-22.4356670380 41.6549797058 3.3453061581
-22.4180068970 41.6175956726 3.1372225285
-22.3992633820 41.5779724121 2.9282991886
-22.3786373138 41.5344390869 2.7179532051
-22.3570861816 41.4889907837 2.5068705082
-22.3358974457 41.4442901611 2.2959778309
-22.3153839111 41.4009933472 2.0855050087
-22.2948627472 41.3576774597 1.8749557734
-22.2733192444 41.3122406006 1.6635942459
-22.2499065399 41.2629356384 1.4507973194
-22.2241306305 41.2087211609 1.2361932993
-22.1957664490 41.1491432190 1.0196075439
-22.1646308899 41.0838165283 0.8008952141
-22.1306304932 41.0125541687 0.5799759030
-22.0942344666 40.9363174438 0.3571805060
-22.0568141937 40.8579597473 0.1335137933
-54.0683593750 4.2679572105 87.1638488770
-54.0942573547 4.2682065964 86.9754104614
-54.1451797485 4.2701277733 86.7877120972
-54.2126731873 4.2731556892 86.6005477905
-54.2862358093 4.2765898705 86.4136352539
-54.3557205200 4.2797522545 86.2266845703
-54.4151687622 4.2822446823 86.0394897461
-54.4653587341 4.2841191292 85.8520660400
-54.5124092102 4.2857837677 85.6645889282
-54.5635070801 4.2877197266 85.4773025513
-54.6224670410 4.2901811600 85.2903213501
-54.6880149841 4.2930836678 85.1036300659
-54.7560806274 4.2961549759 84.9170913696
-54.8232040405 4.2991633415 84.7305984497
-54.8876152039 4.3019914627 84.5440750122
-54.9480934143 4.3045573235 84.3574752808
-55.0022125244 4.3066978455 84.1707077026
-55.0445137024 4.3080496788 83.9835433960
-55.0656166077 4.3079838753 83.7956161499
-55.0524673462 4.3056282997 83.6063690186
-54.9889411926 4.2999038696 83.4151153564
-54.8596153259 4.2897787094 83.2211380005
-54.6609764099 4.2750167847 83.0241851807
-54.4146957397 4.2570667267 82.8250122070
-54.1670227051 4.2390208244 82.6254806519
-53.9674530029 4.2241907120 82.4276885986
-53.8431549072 4.2143936157 82.2328796387
-53.7915229797 4.2094569206 82.0410842896
-53.7929191589 4.2080669403 81.8515701294
-53.8277740479 4.2089161873 81.6635437012
-53.8859863281 4.2113280296 81.4766159058
-53.9664535522 4.2152299881 81.2907714844
-54.0695495605 4.2206473351 81.1060638428
-54.1878547668 4.2270832062 80.9221954346
-54.3029861450 4.2333073616 80.7383041382
-54.3945503235 4.2379555702 80.5534057617
-54.4548797607 4.2405133247 80.3670730591
-54.4927330017 4.2415666580 80.1796875000
-54.5200958252 4.2419180870 79.9918136597
-54.5376777649 4.2416148186 79.8034591675
-54.5356750488 4.2400007248 79.6141204834
-54.5047950745 4.2364521027 79.4232559204
-54.4417610168 4.2307500839 79.2306594849
-54.3473625183 4.2229466438 79.0363006592
-54.2273139954 4.2134242058 78.8404464722
-54.0981826782 4.2032923698 78.6439437866
-53.9863967896 4.1943206787 78.4482269287
-53.9134025574 4.1879472733 78.2545242310
-53.8806800842 4.1842708588 78.0629959106
-53.8716964722 4.1821846962 77.8727645874
-53.8669815063 4.1803846359 77.6827621460
-53.8548622131 4.1780881882 77.4923095703
-53.8312530518 4.1750211716 77.3011627197
-53.7967834473 4.1712265015 77.1093292236
-53.7587165833 4.1671900749 76.9172363281
-53.7336425781 4.1640238762 76.7258758545
-53.7431259155 4.1631746292 76.5365829468
-53.8022727966 4.1656546593 76.3503494263
-53.9097595215 4.1713757515 76.1671905518
-54.0463600159 4.1790499687 75.9859848022
-54.1825866699 4.1867003441 75.8049087524
-54.2916603088 4.1925315857 75.6222457886
-54.3601036072 4.1956381798 75.4370727539
-54.3878822327 4.1960182190 75.2493286133
-54.3786544800 4.1939167976 75.0591659546
-54.3307571411 4.1892209053 74.8664169312
-54.2391777039 4.1815943718 74.6706619263
-54.1073837280 4.1712689400 74.4720764160
-53.9551887512 4.1595730782 74.2719268799
-53.8096885681 4.1483249664 74.0720520020
-53.6856002808 4.1385126114 73.8734741211
-53.5755615234 4.1296415329 73.6757202148
-53.4607658386 4.1204500198 73.4774932861
-53.3312301636 4.1102685928 73.2780685425
-53.1967239380 4.0997519493 73.0781173706
-53.0790138245 4.0903611183 72.8792190552
-52.9945602417 4.0832018852 72.6825942993
-52.9451446533 4.0783944130 72.4884414673
-52.9221267700 4.0753579140 72.2961807251
-52.9153366089 4.0734114647 72.1051025391
-52.9176788330 4.0720777512 71.9146881104
-52.9250259399 4.0710802078 71.7246551514
-52.9347305298 4.0702404976 71.5347976685
-52.9447097778 4.0694198608 71.3449630737
-52.9531707764 4.0684971809 71.1550140381
-52.9586715698 4.0673756599 70.9648361206
-52.9601669312 4.0659847260 70.7743377686
-52.9571342468 4.0642895699 70.5834732056
-52.9500350952 4.0623216629 70.3922653198
-52.9410057068 4.0602231026 70.2008895874
-52.9335746765 4.0582323074 70.0096130371
-52.9294052124 4.0564608574 69.8185958862
-52.9219627380 4.0544686317 69.6272888184
-52.8934516907 4.0510606766 69.4342117310
-52.8238525391 4.0448904037 69.2376403809
-52.7099266052 4.0357398987 69.0372314453
-52.5753936768 4.0252032280 68.8349227905
-52.4562683105 4.0157008171 68.6337661743
-52.3719558716 4.0085372925 68.4354553223
-52.3112525940 4.0029611588 68.2390899658
-52.2471771240 3.9971570969 68.0423431396
-52.1646957397 3.9901149273 67.8438949585
-52.0748519897 3.9825766087 67.6446762085
-52.0046195984 3.9763565063 67.4470977783
-51.9749908447 3.9728665352 67.2530746460
-51.9875640869 3.9722151756 67.0628280640
-52.0276298523 3.9734132290 66.8750915527
-52.0767135620 3.9752182961 66.6882247925
-52.1227264404 3.9768173695 66.5011138916
-52.1611976624 3.9779088497 66.3133544922
-52.1904716492 3.9783821106 66.1247787476
-52.2094841003 3.9781649113 65.9352569580
-52.2207832336 3.9774289131 65.7450180054
-52.2317276001 3.9766685963 65.5547485352
-52.2483558655 3.9762911797 65.3650283813
-52.2684288025 3.9761459827 65.1756515503
-52.2823829651 3.9755885601 64.9856948853
-52.2799987793 3.9739315510 64.7941436768
-52.2537918091 3.9706704617 64.6002426147
-52.1968688965 3.9653408527 64.4032669067
-52.1020545959 3.9574589729 64.2024307251
-51.9662437439 3.9468154907 63.9973716736
-51.7949256897 3.9337794781 63.7885589600
-51.6015129089 3.9192533493 63.5772895813
-51.4043693542 3.9044740200 63.3653984070
-51.2250175476 3.8908915520 63.1550865173
-51.0843582153 3.8799138069 62.9485397339
-50.9963645935 3.8724825382 62.7472801208
-50.9647712708 3.8688504696 62.5517921448
-50.9840316772 3.8686444759 62.3615951538
-51.0411033630 3.8709864616 62.1754035950
-51.1177368164 3.8746471405 61.9913482666
-51.1949081421 3.8783450127 61.8074378967
-51.2581253052 3.8811028004 61.6221084595
-51.3003005981 3.8824429512 61.4345741272
-51.3204345703 3.8822975159 61.2446861267
-51.3194427490 3.8807282448 61.0525093079
-51.2967491150 3.8776955605 60.8579368591
-51.2506828308 3.8730869293 60.6607475281
-51.1819725037 3.8669507504 60.4609794617
-51.0961875916 3.8596627712 60.2592124939
-51.0015678406 3.8517777920 60.0563430786
-50.9028625488 3.8436167240 59.8528862000
-50.7961235046 3.8349127769 59.6483917236
-50.6712303162 3.8249828815 59.4416885376
-50.5245246887 3.8135805130 59.2323265076
-50.3709259033 3.8017117977 59.0219802856
-50.2387313843 3.7912855148 58.8139228821
-50.1489219666 3.7837176323 58.6106300354
-50.1010169983 3.7789762020 58.4121208191
-50.0791282654 3.7759897709 58.2166099548
-50.0681114197 3.7737367153 58.0223464966
-50.0626754761 3.7718603611 57.8287239075
-50.0648345947 3.7704966068 57.6359939575
-50.0772781372 3.7698264122 57.4444923401
-50.0997924805 3.7698364258 57.2542076111
-50.1290054321 3.7702987194 57.0647583008
-50.1593399048 3.7708370686 56.8754692078
-50.1846046448 3.7710332870 56.6855850220
-50.1998329163 3.7705516815 56.4944877625
-50.2020111084 3.7691893578 56.3017845154
-50.1899147034 3.7668628693 56.1073036194
-50.1641311646 3.7636117935 55.9110832214
-50.1271743774 3.7596056461 55.7134246826
-50.0823783875 3.7550697327 55.5147209167
-50.0318336487 3.7501447201 55.3152275085
-49.9749374390 3.7447903156 55.1148529053
-49.9086990356 3.7388043404 54.9132080078
-49.8298950195 3.7319684029 54.7098579407
-49.7381591797 3.7242579460 54.5047340393
-49.6376190186 3.7159514427 54.2983436584
-49.5353736877 3.7075290680 54.0916023254
-49.4391021729 3.6995089054 53.8855133057
-49.3562927246 3.6923980713 53.6810646057
-49.2937660217 3.6866569519 53.4791870117
-49.2556304932 3.6825642586 53.2804641724
-49.2412490845 3.6800768375 53.0848541260
-49.2450218201 3.6788165569 52.8916473389
-49.2578239441 3.6781666279 52.6996536255
-49.2695007324 3.6774408817 52.5075111389
-49.2710876465 3.6760327816 52.3140029907
-49.2551956177 3.6734426022 52.1181068420
-49.2153892517 3.6692347527 51.9189033508
-49.1475982666 3.6631336212 51.7157897949
-49.0532531738 3.6552357674 51.5089187622
-48.9397315979 3.6460397243 51.2992630005
-48.8162918091 3.6361718178 51.0880775452
-48.6902961731 3.6261296272 50.8763732910
-48.5680274963 3.6163382530 50.6650352478
-48.4574737549 3.6073384285 50.4551925659
-48.3680572510 3.5997676849 50.2482032776
-48.3071212769 3.5941236019 50.0451507568
-48.2773094177 3.5905852318 49.8464698792
-48.2772064209 3.5890569687 49.6520080566
-48.3032035828 3.5892956257 49.4613037109
-48.3496131897 3.5909159184 49.2735748291
-48.4080505371 3.5933506489 49.0876464844
-48.4693336487 3.5959789753 48.9021911621
-48.5267524719 3.5983457565 48.7162322998
-48.5765647888 3.6001982689 48.5292167664
-48.6154212952 3.6013092995 48.3406295776
-48.6389160156 3.6013803482 48.1498031616
-48.6433639526 3.6001615524 47.9561500549
-48.6285896301 3.5976407528 47.7596206665
-48.5986595154 3.5940930843 47.5607833862
-48.5600509644 3.5899572372 47.3605918884
-48.5189399719 3.5856516361 47.1599693298
-48.4796791077 3.5814707279 46.9595642090
-48.4449691772 3.5775976181 46.7597961426
-48.4166870117 3.5741598606 46.5609626770
-48.3964004517 3.5712635517 46.3633193970
-48.3854713440 3.5690009594 46.1670837402
-48.3852310181 3.5674624443 45.9724884033
-48.3974189758 3.5667665005 45.7798156738
-48.4242973328 3.5670661926 45.5894432068
-48.4675903320 3.5684788227 45.4016723633
-48.5260353088 3.5709190369 45.2163314819
-48.5931587219 3.5739479065 45.0324211121
-48.6580696106 3.5768275261 44.8482360840
-48.7098464966 3.5788168907 44.6620216370
-48.7420120239 3.5794770718 44.4727287292
-48.7534523010 3.5787320137 44.2801322937
-48.7459030151 3.5766987801 44.0844841003
-48.7207946777 3.5734746456 43.8859748840
-48.6779823303 3.5690495968 43.6845474243
-48.6173286438 3.5634133816 43.4801559448
-48.5420265198 3.5567831993 43.2732810974
-48.4601020813 3.5497028828 43.0652198792
-48.3812179565 3.5428276062 42.8575515747
-48.3115921021 3.5365803242 42.6513099670
-48.2526206970 3.5310547352 42.4467391968
-48.2042312622 3.5262470245 42.2438545227
-48.1687660217 3.5223157406 42.0430641174
-48.1512260437 3.5196003914 41.8452262878
-48.1558723450 3.5183913708 41.6510963440
-48.1823921204 3.5186667442 41.4606590271
-48.2255249023 3.5200698376 41.2730674744
-48.2786483765 3.5221519470 41.0872154236
-48.3373069763 3.5246098042 40.9023628235
-48.3991012573 3.5272815228 40.7181129456
-48.4611511230 3.5299711227 40.5339698792
-48.5185165405 3.5323426723 40.3490867615
-48.5651397705 3.5339856148 40.1623992920
-48.5961532593 3.5345685482 39.9730453491
-48.6094055176 3.5339450836 39.7806205750
-48.6049194336 3.5321171284 39.5850944519
-48.5829696655 3.5291023254 39.3864860535
-48.5429496765 3.5248599052 39.1846542358
