-30.8982524872 -31.0776081085 2.3404734135
-30.9138011932 -31.0895729065 2.1478843689
-30.9313907623 -31.1035156250 1.9562028646
-30.9526138306 -31.1209735870 1.7661325932
-30.9773044586 -31.1417961121 1.5776128769
-31.0046348572 -31.1651725769 1.3902854919
-31.0344276428 -31.1909351349 1.2040796280
-31.0669803619 -31.2193717957 1.0191341639
-31.1019306183 -31.2501335144 0.8352960348
-31.1381359100 -31.2821083069 0.6520618796
-31.1746940613 -31.3144283295 0.4690338969
-31.2115612030 -31.3470478058 0.2861930430
-31.2494716644 -31.3806781769 0.1038688496
-32.7932739258 -17.9747619629 80.5464935303
-32.7890243530 -17.9702415466 80.3487930298
-32.7827453613 -17.9647312164 80.1509323120
-32.7764053345 -17.9591941833 79.9530410767
-32.7703704834 -17.9538021088 79.7551498413
-32.7652244568 -17.9488449097 79.5572967529
-32.7625389099 -17.9450817108 79.3595962524
-32.7632408142 -17.9429664612 79.1621246338
-32.7667808533 -17.9422302246 78.9648361206
-32.7730026245 -17.9427967072 78.7677383423
-32.7840042114 -17.9456863403 78.5709838867
-32.8026046753 -17.9522724152 78.3747940063
-32.8290100098 -17.9626502991 78.1791992188
-32.8603019714 -17.9754066467 77.9839935303
-32.8929290771 -17.9888114929 77.7889251709
-32.9240875244 -18.0015029907 77.5937652588
-32.9506645203 -18.0119667053 77.3982849121
-32.9686088562 -18.0182361603 77.2021484375
-32.9747276306 -18.0187511444 77.0050888062
-32.9690666199 -18.0135421753 76.8070755005
-32.9553451538 -18.0044136047 76.6083984375
-32.9388847351 -17.9939517975 76.4094543457
-32.9241065979 -17.9843063354 76.2106170654
-32.9140052795 -17.9769344330 76.0121307373
-32.9119071960 -17.9734554291 75.8142852783
-32.9225006104 -17.9761486053 75.6174850464
-32.9492340088 -17.9866867065 75.4220504761
-32.9896240234 -18.0038700104 75.2278060913
-33.0343246460 -18.0231494904 75.0339736938
-33.0722312927 -18.0391254425 74.8395996094
-33.0966796875 -18.0485572815 74.6440811157
-33.1069107056 -18.0510730743 74.4473342896
-33.1051139832 -18.0477409363 74.2495193481
-33.0933189392 -18.0395431519 74.0507812500
-33.0726737976 -18.0270442963 73.8512268066
-33.0448036194 -18.0110301971 73.6509628296
-33.0131912231 -17.9931926727 73.4503021240
-32.9829406738 -17.9760189056 73.2497100830
-32.9587440491 -17.9617881775 73.0496215820
-32.9428176880 -17.9515800476 72.8502655029
-32.9345588684 -17.9451007843 72.6515884399
-32.9316940308 -17.9412460327 72.4534072876
-32.9312629700 -17.9385738373 72.2554321289
-32.9301986694 -17.9355926514 72.0573883057
-32.9266700745 -17.9314136505 71.8590850830
-32.9218482971 -17.9266033173 71.6606369019
-32.9197921753 -17.9231414795 71.4624328613
-32.9246978760 -17.9230632782 71.2649078369
-32.9378509521 -17.9270000458 71.0681991577
-32.9571571350 -17.9339294434 70.8721160889
-32.9793014526 -17.9422378540 70.6763305664
-33.0023803711 -17.9510040283 70.4806594849
-33.0266380310 -17.9603404999 70.2851257324
-33.0528640747 -17.9706382751 70.0898132324
-33.0802078247 -17.9814777374 69.8946380615
-33.1054725647 -17.9913043976 69.6992645264
-33.1247978210 -17.9982452393 69.5032958984
-33.1362495422 -18.0013523102 69.3064880371
-33.1408805847 -18.0011425018 69.1089630127
-33.1417655945 -17.9991092682 68.9110183716
-33.1423034668 -17.9969081879 68.7130279541
-33.1451148987 -17.9958114624 68.5152664185
-33.1515579224 -17.9964828491 68.3178939819
-33.1617660522 -17.9989852905 68.1209335327
-33.1750640869 -18.0029926300 67.9243164063
-33.1907653809 -18.0081691742 67.7279739380
-33.2087516785 -18.0144577026 67.5318908691
-33.2290840149 -18.0218868256 67.3360824585
-33.2504501343 -18.0298213959 67.1404113770
-33.2689247131 -18.0363464355 66.9444198608
-33.2792816162 -18.0389232635 66.7475051880
-33.2785072327 -18.0360794067 66.5492935181
-33.2681846619 -18.0285930634 66.3499526978
-33.2532997131 -18.0188827515 66.1500473022
-33.2388114929 -18.0093650818 65.9501571655
-33.2273063660 -18.0012989044 65.7505798340
-33.2189750671 -17.9947795868 65.5513534546
-33.2126884460 -17.9892520905 65.3523483276
-33.2066802979 -17.9838619232 65.1533508301
-33.1987686157 -17.9775428772 64.9540939331
-33.1867141724 -17.9692077637 64.7543106079
-33.1693267822 -17.9582786560 64.5538406372
-33.1480293274 -17.9454421997 64.3528442383
-33.1274757385 -17.9329700470 64.1518936157
-33.1140518188 -17.9239673615 63.9517936707
-33.1126289368 -17.9208049774 63.7531700134
-33.1240921021 -17.9239158630 63.5561599731
-33.1456756592 -17.9319534302 63.3604393005
-33.1740417480 -17.9432945251 63.1656036377
-33.2083168030 -17.9575138092 62.9715538025
-33.2494621277 -17.9750747681 62.7784233093
-33.2957458496 -17.9951400757 62.5860023499
-33.3397789001 -18.0141086578 62.3933410645
-33.3725318909 -18.0275878906 62.1992378235
-33.3913497925 -18.0342807770 62.0033302307
-33.4022560120 -18.0371246338 61.8063774109
-33.4128036499 -18.0397911072 61.6093788147
-33.4237785339 -18.0426673889 61.4124412537
-33.4294128418 -18.0429401398 61.2147789001
-33.4247665405 -18.0382099152 61.0157165527
-33.4111137390 -18.0290927887 60.8154029846
-33.3945045471 -18.0185375214 60.6146507263
-33.3809738159 -18.0094776154 60.4142837524
-33.3737678528 -18.0034999847 60.2147598267
-33.3739814758 -18.0011329651 60.0162429810
-33.3821792603 -18.0026550293 59.8188285828
-33.3988952637 -18.0083255768 59.6226081848
-33.4238204956 -18.0179939270 59.4275550842
-33.4551277161 -18.0307693481 59.2334289551
-33.4898643494 -18.0452156067 59.0398178101
-33.5246391296 -18.0596828461 58.8462486267
-33.5559158325 -18.0724449158 58.6522102356
-33.5806236267 -18.0820102692 58.4572486877
-33.5975303650 -18.0877723694 58.2611694336
-33.6078186035 -18.0903148651 58.0641365051
-33.6140975952 -18.0909023285 57.8665122986
-33.6188240051 -18.0907344818 57.6686515808
-33.6235122681 -18.0905494690 57.4707756042
-33.6287307739 -18.0906200409 57.2729721069
-33.6343917847 -18.0909061432 57.0752258301
-33.6401290894 -18.0912303925 56.8774871826
-33.6455879211 -18.0914173126 56.6796951294
-33.6507110596 -18.0914440155 56.4818496704
-33.6560020447 -18.0915489197 56.2840194702
-33.6624374390 -18.0922126770 56.0863571167
-33.6706390381 -18.0937366486 55.8889579773
-33.6791992188 -18.0954360962 55.6916160583
-33.6838989258 -18.0952548981 55.4936676025
-33.6800079346 -18.0908851624 55.2943725586
-33.6669540405 -18.0820541382 55.0936203003
-33.6508712769 -18.0717468262 54.8923568726
-33.6414833069 -18.0646991730 54.6921157837
-33.6454010010 -18.0641365051 54.4939613342
-33.6617088318 -18.0696067810 54.2977714539
-33.6833610535 -18.0776844025 54.1024436951
-33.7029380798 -18.0847511292 53.9067993164
-33.7170181274 -18.0891361237 53.7102813721
-33.7257575989 -18.0909233093 53.5128974915
-33.7304687500 -18.0907440186 53.3148574829
-33.7330284119 -18.0895195007 53.1164550781
-33.7360458374 -18.0885162354 52.9181175232
-33.7411155701 -18.0885124207 52.7201080322
-33.7468986511 -18.0888557434 52.5222053528
-33.7502937317 -18.0880374908 52.3239021301
-33.7497901917 -18.0853176117 52.1249351501
-33.7472305298 -18.0815944672 51.9256095886
-33.7459716797 -18.0785083771 51.7264823914
-33.7473449707 -18.0767021179 51.5277824402
-33.7492713928 -18.0751647949 51.3291664124
-33.7487983704 -18.0724582672 51.1301269531
-33.7455291748 -18.0683917999 50.9305953979
-33.7419319153 -18.0641632080 50.7309837341
-33.7406082153 -18.0610427856 50.5317497253
-33.7422447205 -18.0593624115 50.3330078125
-33.7460250854 -18.0587291718 50.1346282959
-33.7511940002 -18.0587730408 49.9364814758
-33.7579765320 -18.0596027374 49.7386093140
-33.7675361633 -18.0617847443 49.5412254333
-33.7814064026 -18.0660686493 49.3446006775
-33.8005371094 -18.0729179382 49.1489143372
-33.8241806030 -18.0819664001 48.9540481567
-33.8495292664 -18.0918464661 48.7595024109
-33.8730926514 -18.1008548737 48.5646553040
-33.8930168152 -18.1080913544 48.3691711426
-33.9102592468 -18.1140213013 48.1732177734
-33.9277229309 -18.1200580597 47.9773101807
-33.9482078552 -18.1275691986 47.7819633484
-33.9725379944 -18.1369533539 47.5873336792
-33.9988975525 -18.1473274231 47.3931007385
-34.0240707397 -18.1571216583 47.1986694336
-34.0455093384 -18.1650981903 47.0035667419
-34.0623512268 -18.1708335876 46.8076210022
-34.0747451782 -18.1744003296 46.6108551025
-34.0828170776 -18.1758575439 46.4132766724
-34.0863037109 -18.1750812531 46.2148323059
-34.0850410461 -18.1719875336 46.0154838562
-34.0800018311 -18.1670532227 45.8153991699
-34.0743408203 -18.1618156433 45.6151733398
-34.0731887817 -18.1587772369 45.4157905579
-34.0812797546 -18.1602439880 45.2181587219
-34.0996665955 -18.1667308807 45.0225067139
-34.1242904663 -18.1762619019 44.8280754089
-34.1481437683 -18.1854152679 44.6335105896
-34.1651496887 -18.1912307739 44.4376296997
-34.1726722717 -18.1924209595 44.2399063110
-34.1717758179 -18.1895065308 44.0405311584
-34.1671447754 -18.1847686768 43.8404006958
-34.1668052673 -18.1821250916 43.6410980225
-34.1794319153 -18.1858024597 43.4443473816
-34.2093238831 -18.1979026794 43.2510375977
-34.2533950806 -18.2169189453 43.0605812073
-34.3035011292 -18.2388782501 42.8713798523
-34.3513183594 -18.2597236633 42.6817779541
-34.3908767700 -18.2765388489 42.4905586243
-34.4183158875 -18.2874450684 42.2969284058
-34.4321365356 -18.2917079926 42.1005554199
-34.4344062805 -18.2903385162 41.9018325806
-34.4307518005 -18.2860774994 41.7018890381
-34.4277114868 -18.2821140289 41.5020484924
-34.4291267395 -18.2803268433 41.3031044006
-34.4344825745 -18.2804622650 41.1049652100
-34.4402046204 -18.2807750702 40.9068946838
-34.4423484802 -18.2793407440 40.7080688477
-34.4386749268 -18.2750701904 40.5080184937
-34.4299392700 -18.2683277130 40.3068885803
-34.4208297729 -18.2614040375 40.1056518555
-34.4191932678 -18.2581253052 39.9059638977
-34.4321823120 -18.2619838715 39.7093544006
-34.4615898132 -18.2738494873 39.5162277222
-34.5026893616 -18.2914218903 39.3256225586
-34.5479431152 -18.3110198975 39.1359443665
-34.5915832520 -18.3298339844 38.9459724426
-34.6307601929 -18.3464698792 38.7550849915
-34.6638069153 -18.3601131439 38.5629158020
-34.6892700195 -18.3700599670 38.3691368103
-34.7068405151 -18.3761520386 38.1736640930
-34.7181816101 -18.3792076111 37.9768409729
-34.7264938354 -18.3807830811 37.7793579102
-34.7353744507 -18.3826389313 37.5819969177
-34.7478599548 -18.3862514496 37.3854293823
-34.7654266357 -18.3923416138 37.1899795532
-34.7870521545 -18.4004154205 36.9954452515
-34.8093719482 -18.4088306427 36.8010749817
-34.8285942078 -18.4157295227 36.6060333252
-34.8428955078 -18.4202289581 36.4099044800
-34.8533172607 -18.4228363037 36.2129096985
-34.8625640869 -18.4248695374 36.0156517029
-34.8732910156 -18.4276237488 35.8187217712
-34.8872032166 -18.4319343567 35.6225166321
-34.9050979614 -18.4381866455 35.4272193909
-34.9267730713 -18.4462871552 35.2327919006
-34.9503784180 -18.4553260803 35.0388221741
-34.9721641541 -18.4634799957 34.8444557190
-34.9880256653 -18.4687423706 34.6487388611
-34.9958648682 -18.4700889587 34.4511833191
-34.9965209961 -18.4679298401 34.2519569397
-34.9926185608 -18.4635429382 34.0516624451
-34.9869003296 -18.4582710266 33.8509254456
-34.9814147949 -18.4531116486 33.6502151489
-34.9773712158 -18.4486560822 33.4498214722
-34.9755172729 -18.4452705383 33.2499237061
-34.9770584106 -18.4435424805 33.0508079529
-34.9845085144 -18.4446964264 32.8530731201
-35.0010948181 -18.4503116608 32.6575012207
-35.0283088684 -18.4611148834 32.4644622803
-35.0637321472 -18.4759273529 32.2734031677
-35.1017265320 -18.4919967651 32.0829963684
-35.1366386414 -18.5065574646 31.8918876648
-35.1655654907 -18.5181980133 31.6993732452
-35.1885719299 -18.5269508362 31.5054569244
-35.2069244385 -18.5334300995 31.3104324341
-35.2213401794 -18.5379867554 31.1144618988
-35.2313919067 -18.5404129028 30.9174365997
-35.2360038757 -18.5401840210 30.7190818787
-35.2345314026 -18.5369815826 30.5192279816
-35.2281684875 -18.5313949585 30.3181571960
-35.2211952209 -18.5255069733 30.1169128418
-35.2204895020 -18.5226783752 29.9171886444
-35.2324371338 -18.5260314941 29.7205829620
-35.2591781616 -18.5366058350 29.5276527405
-35.2976799011 -18.5529251099 29.3376750946
-35.3425903320 -18.5723762512 29.1493377686
-35.3899688721 -18.5930309296 28.9616661072
-35.4385490417 -18.6142730713 28.7743473053
-35.4879264832 -18.6359062195 28.5872840881
-35.5360794067 -18.6569423676 28.3999671936
-35.5790290833 -18.6754341125 28.2113838196
-35.6129302979 -18.6895122528 28.0205478668
-35.6364631653 -18.6985244751 27.8271045685
-35.6511802673 -18.7032299042 27.6314277649
-35.6599922180 -18.7050533295 27.4342460632
-35.6655349731 -18.7052803040 27.2362194061
-35.6696205139 -18.7047939301 27.0378112793
-35.6735725403 -18.7042427063 26.8393592834
-35.6787681580 -18.7042980194 26.6412200928
-35.6869468689 -18.7058124542 26.4438476563
-35.7000923157 -18.7097530365 26.2477645874
-35.7195701599 -18.7167854309 26.0533370972
-35.7447586060 -18.7266063690 25.8604183197
-35.7723808289 -18.7376174927 25.6681594849
-35.7978477478 -18.7475776672 25.4753570557
-35.8178749084 -18.7548789978 25.2811412811
-35.8320999146 -18.7593460083 25.0854015350
-35.8427200317 -18.7620525360 24.8887100220
-35.8533935547 -18.7647857666 24.6920337677
-35.8686294556 -18.7697467804 24.4965744019
-35.8934631348 -18.7793960571 24.3036880493
-35.9322280884 -18.7958545685 24.1145591736
-35.9858932495 -18.8195915222 23.9294757843
-36.0491218567 -18.8480033875 23.7470321655
-36.1106605530 -18.8755893707 23.5642070770
-36.1591110229 -18.8967819214 23.3779067993
-36.1903648376 -18.9095745087 23.1869869232
-36.2093925476 -18.9163894653 22.9927654266
-36.2248420715 -18.9214572906 22.7975769043
-36.2424011230 -18.9275569916 22.6029739380
-36.2625083923 -18.9349021912 22.4090805054
-36.2823905945 -18.9421367645 22.2151393890
-36.2993812561 -18.9479598999 22.0204124451
-36.3128318787 -18.9520511627 21.8247146606
-36.3238830566 -18.9549694061 21.6283550262
-36.3340568542 -18.9574623108 21.4317531586
-36.3440933228 -18.9598865509 21.2351112366
-36.3534698486 -18.9619865417 21.0382843018
-36.3607788086 -18.9630775452 20.8408756256
-36.3647804260 -18.9625511169 20.6425342560
-36.3653717041 -18.9603595734 20.4432220459
-36.3633918762 -18.9569091797 20.2431678772
-36.3595199585 -18.9525337219 20.0425624847
-36.3542785645 -18.9474906921 19.8415470123
-36.3495826721 -18.9427127838 19.6406631470
-36.3492088318 -18.9400482178 19.4409904480
-36.3567123413 -18.9412326813 19.2435550690
-36.3728942871 -18.9466590881 19.0486030579
-36.3958511353 -18.9553985596 18.8556060791
-36.4236946106 -18.9665260315 18.6640338898
-36.4570198059 -18.9803314209 18.4740695953
-36.4982948303 -18.9980258942 18.2864398956
-36.5488548279 -19.0202598572 18.1015472412
-36.6067810059 -19.0460948944 17.9188556671
-36.6674690247 -19.0732822418 17.7370357513
-36.7257385254 -19.0992870331 17.5545806885
-36.7780265808 -19.1223678589 17.3704414368
-36.8240051270 -19.1423645020 17.1845054626
-36.8665580750 -19.1606884003 16.9976119995
-36.9093055725 -19.1791076660 16.8108215332
-36.9533309937 -19.1981525421 16.6244544983
-36.9958534241 -19.2164611816 16.4376907349
-37.0313911438 -19.2313575745 16.2488937378
-37.0541687012 -19.2400150299 16.0563297272
-37.0611877441 -19.2409667969 15.8590745926
-37.0547447205 -19.2353363037 15.6577825546
-37.0419349670 -19.2265930176 15.4545555115
-37.0310935974 -19.2188091278 15.2518854141
-37.0283584595 -19.2149925232 15.0516319275
-37.0369873047 -19.2167301178 14.8547935486
-37.0585670471 -19.2248001099 14.6618776321
-37.0939064026 -19.2396030426 14.4731578827
-37.1422996521 -19.2607860565 14.2884473801
-37.2003211975 -19.2866802216 14.1067285538
-37.2623863220 -19.3145523071 13.9263143539
-37.3231201172 -19.3417720795 13.7455644608
-37.3791313171 -19.3666877747 13.5634365082
-37.4288101196 -19.3885040283 13.3794212341
-37.4717063904 -19.4070053101 13.1933679581
-37.5087814331 -19.4226570129 13.0055589676
-37.5422554016 -19.4365520477 12.8166713715
-37.5741004944 -19.4496459961 12.6273088455
-37.6045227051 -19.4620494843 12.4375343323
-37.6324272156 -19.4732170105 12.2470006943
-37.6570434570 -19.4827804565 12.0554637909
-37.6787910461 -19.4909381866 11.8630456924
-37.6987648010 -19.4982318878 11.6700859070
-37.7182540894 -19.5052852631 11.4769868851
-37.7388381958 -19.5128765106 11.2842464447
-37.7623023987 -19.5218753815 11.0924320221
-37.7896995544 -19.5327987671 10.9018831253
-37.8207664490 -19.5455169678 10.7125263214
-37.8553009033 -19.5599346161 10.5243034363
-37.8953933716 -19.5770702362 10.3378906250
-37.9452362061 -19.5989761353 10.1546411514
-38.0075187683 -19.6269683838 9.9754400253
-38.0797157288 -19.6598110199 9.7994995117
-38.1542816162 -19.6938152313 9.6244115829
-38.2227935791 -19.7248592377 9.4474601746
-38.2803382874 -19.7505397797 9.2670402527
-38.3270988464 -19.7709407806 9.0831880569
-38.3667564392 -19.7878704071 8.8970785141
-38.4034614563 -19.8033523560 8.7100467682
-38.4397659302 -19.8186416626 8.5229234695
-38.4770088196 -19.8343906403 8.3361434937
-38.5166511536 -19.8513126373 8.1501874924
-38.5601959229 -19.8701438904 7.9655566216
-38.6077423096 -19.8909358978 7.7822914124
-38.6572265625 -19.9126777649 7.5997195244
-38.7051124573 -19.9336357117 7.4166731834
-38.7476997375 -19.9520034790 7.2319240570
-38.7827568054 -19.9666862488 7.0447177887
-38.8109207153 -19.9779930115 6.8552498817
-38.8353614807 -19.9874820709 6.6645660400
-38.8593139648 -19.9967308044 6.4737381935
-38.8837585449 -20.0062198639 6.2830948830
-38.9077682495 -20.0154972076 6.0923237801
-38.9306182861 -20.0242061615 5.9011831284
-38.9525146484 -20.0324497223 5.7097377777
-38.9729843140 -20.0399951935 5.5178265572
-38.9896659851 -20.0456867218 5.3246450424
-38.9997100830 -20.0481281281 5.1292195320
-39.0023307800 -20.0469379425 4.9312686920
-38.9997673035 -20.0432090759 4.7315392494
-38.9965286255 -20.0391502380 4.5315604210
-38.9979476929 -20.0373706818 4.3331556320
-39.0079879761 -20.0398101807 4.1376953125
-39.0269088745 -20.0465984344 3.9452874660
-39.0509414673 -20.0558891296 3.7546520233
-39.0750312805 -20.0652065277 3.5640549660
-39.0963058472 -20.0731468201 3.3725039959
-39.1150588989 -20.0798530579 3.1800942421
-39.1329269409 -20.0861244202 2.9873878956
-39.1507682800 -20.0923843384 2.7946841717
-39.1681785583 -20.0984344482 2.6018400192
-39.1844673157 -20.1039333344 2.4086134434
-39.2001800537 -20.1091518402 2.2151927948
-39.2181396484 -20.1154708862 2.0225696564
-39.2428817749 -20.1251106262 1.8323405981
-39.2778739929 -20.1397686005 1.6457439661
-39.3224258423 -20.1591072083 1.4625566006
-39.3713531494 -20.1805896759 1.2809669971
-39.4183273315 -20.2011165619 1.0987392664
-39.4599418640 -20.2190208435 0.9146604538
-39.4975395203 -20.2349548340 0.7291949391
-39.5364112854 -20.2515163422 0.5442240238
-39.5834770203 -20.2720909119 0.3622209728
-39.6440658569 -20.2992877960 0.1851133555
-39.7195396423 -20.3337745667 0.0134183206
-36.9902534485 -6.9980068207 80.7586669922
-36.9866523743 -6.9952774048 80.5612487793
-36.9813385010 -6.9923090935 80.3637084961
-36.9778480530 -6.9895944595 80.1662597656
-36.9806213379 -6.9877519608 79.9691848755
-36.9913787842 -6.9870209694 79.7725982666
-37.0064163208 -6.9868845940 79.5762863159
-37.0185852051 -6.9863495827 79.3797988892
-37.0226516724 -6.9846868515 79.1827850342
-37.0186538696 -6.9819011688 78.9852294922
-37.0106620789 -6.9785590172 78.7873916626
-37.0033493042 -6.9753108025 78.5895767212
-36.9997100830 -6.9725742340 78.3919906616
-37.0005836487 -6.9704656601 78.1946868896
-37.0050659180 -6.9688596725 77.9976196289
-37.0112495422 -6.9674906731 77.8006668091
-37.0170783997 -6.9660720825 77.6036758423
-37.0210685730 -6.9643974304 77.4065551758
-37.0225448608 -6.9623723030 77.2092437744
-37.0214500427 -6.9599885941 77.0117340088
-37.0179557800 -6.9572710991 76.8140335083
-37.0123329163 -6.9542560577 76.6161651611
-37.0050086975 -6.9510045052 76.4181442261
-36.9966545105 -6.9476094246 76.2200317383
-36.9881210327 -6.9441881180 76.0218734741
-36.9802436829 -6.9408588409 75.8237457275
-36.9737167358 -6.9377169609 75.6256942749
-36.9690666199 -6.9348363876 75.4277648926
-36.9667625427 -6.9322824478 75.2299957275
-36.9673538208 -6.9301319122 75.0324401855
-36.9717559814 -6.9285130501 74.8351669312
-36.9814529419 -6.9276313782 74.6383132935
-36.9978561401 -6.9276843071 74.4419860840
-37.0206565857 -6.9286293983 74.2461853027
-37.0465621948 -6.9300079346 74.0506591797
-37.0701751709 -6.9310665131 73.8549575806
-37.0865135193 -6.9311113358 73.6586685181
-37.0931739807 -6.9298067093 73.4615859985
-37.0912475586 -6.9273047447 73.2637710571
-37.0853233337 -6.9242453575 73.0656127930
-37.0819892883 -6.9215464592 72.8676452637
-37.0862693787 -6.9199099541 72.6703109741
-37.0982933044 -6.9193530083 72.4736404419
-37.1136627197 -6.9192624092 72.2772674561
-37.1270751953 -6.9188990593 72.0807189941
-37.1351432800 -6.9177894592 71.8837127686
-37.1362648010 -6.9157118797 71.6860733032
-37.1293907166 -6.9125189781 71.4877166748
-37.1139984131 -6.9081368446 71.2885589600
-37.0914459229 -6.9027557373 71.0887222290
-37.0658226013 -6.8969449997 70.8885650635
-37.0425987244 -6.8914694786 70.6885757446
-37.0259628296 -6.8869123459 70.4891586304
-37.0174293518 -6.8834853172 70.2904586792
-37.0168952942 -6.8811745644 70.0924911499
-37.0247039795 -6.8800272942 69.8952941895
-37.0425643921 -6.8802833557 69.6990585327
-37.0725364685 -6.8822302818 69.5039825439
-37.1145553589 -6.8858585358 69.3100967407
-37.1645584106 -6.8906016350 69.1170272827
-37.2156944275 -6.8955035210 68.9241180420
-37.2624053955 -6.8997879028 68.7308273315
-37.3038787842 -6.9033422470 68.5370559692
-37.3438301086 -6.9066843987 68.3431777954
-37.3871040344 -6.9104905128 68.1496658325
-37.4355621338 -6.9150214195 67.9567184448
-37.4857826233 -6.9197983742 67.7639999390
-37.5303916931 -6.9237923622 67.5707550049
-37.5625381470 -6.9260468483 67.3762741089
-37.5796318054 -6.9261989594 67.1802597046
-37.5831375122 -6.9244542122 66.9828414917
-37.5761680603 -6.9212455750 66.7843093872
-37.5622406006 -6.9170651436 66.5850296021
-37.5455474854 -6.9124975204 66.3854141235
-37.5303573608 -6.9081401825 66.1859359741
-37.5192947388 -6.9043583870 65.9868621826
-37.5124473572 -6.9011654854 65.7882080078
-37.5082473755 -6.8983421326 65.5898284912
-37.5048217773 -6.8956274986 65.3915100098
-37.5006790161 -6.8928117752 65.1930999756
-37.4946861267 -6.8897371292 64.9944610596
-37.4858589172 -6.8862662315 64.7954864502
-37.4733581543 -6.8822817802 64.5960769653
-37.4572257996 -6.8777894974 64.3962326050
-37.4397811890 -6.8731136322 64.1961975098
-37.4260406494 -6.8689551353 63.9965515137
-37.4213371277 -6.8660588264 63.7979087830
-37.4271659851 -6.8646349907 63.6004562378
-37.4392890930 -6.8640909195 63.4037208557
-37.4502296448 -6.8633813858 63.2068519592
-37.4537277222 -6.8616318703 63.0091133118
-37.4471168518 -6.8584680557 62.8101768494
-37.4307174683 -6.8539361954 62.6100654602
-37.4066543579 -6.8483319283 62.4090080261
-37.3786544800 -6.8421764374 62.2074356079
-37.3518943787 -6.8361945152 62.0059623718
-37.3313903809 -6.8310861588 61.8051948547
-37.3197364807 -6.8272151947 61.6054611206
-37.3165893555 -6.8245339394 61.4067344666
-37.3203887939 -6.8228235245 61.2088432312
-37.3304634094 -6.8219914436 61.0117149353
-37.3473396301 -6.8221106529 60.8154258728
-37.3710289001 -6.8231830597 60.6199913025
-37.3993682861 -6.8249063492 60.4251556396
-37.4285964966 -6.8267540932 60.2304573059
-37.4556846619 -6.8283028603 60.0355072021
-37.4798927307 -6.8294482231 59.8402137756
-37.5022239685 -6.8303318024 59.6446990967
-37.5237808228 -6.8311066628 59.4490966797
-37.5444984436 -6.8317646980 59.2533988953
-37.5631332397 -6.8321313858 59.0574455261
-37.5779685974 -6.8319659233 58.8610076904
-37.5870018005 -6.8309884071 58.6638145447
-37.5874557495 -6.8288106918 58.4654922485
-37.5758934021 -6.8249506950 58.2655715942
-37.5501365662 -6.8191027641 58.0637359619
-37.5121688843 -6.8115453720 57.8602256775
-37.4692726135 -6.8032970428 57.6559944153
-37.4309692383 -6.7956910133 57.4523124695
-37.4038200378 -6.7896461487 57.2500762939
-37.3889045715 -6.7853136063 57.0494537354
-37.3837013245 -6.7823405266 56.8501205444
-37.3853225708 -6.7803230286 56.6517066956
-37.3921890259 -6.7790403366 56.4540023804
-37.4038085938 -6.7784228325 56.2569503784
-37.4194145203 -6.7783637047 56.0604553223
-37.4367103577 -6.7785415649 55.8642005920
-37.4523963928 -6.7784938812 55.6677284241
-37.4645652771 -6.7779536247 55.4707641602
-37.4745178223 -6.7771024704 55.2734909058
-37.4862022400 -6.7764940262 55.0764617920
-37.5052452087 -6.7769174576 54.8804855347
-37.5387840271 -6.7793707848 54.6865959167
-37.5928955078 -6.7847080231 54.4957046509
-37.6659774780 -6.7927031517 54.3076133728
-37.7442817688 -6.8014311790 54.1203575134
-37.8076553345 -6.8080682755 53.9310112000
-37.8422241211 -6.8106689453 53.7375030518
-37.8478088379 -6.8092083931 53.5397567749
-37.8345832825 -6.8051104546 53.3392181396
-37.8147125244 -6.8000812531 53.1376647949
-37.7967224121 -6.7953152657 52.9363517761
-37.7848434448 -6.7914052010 52.7359161377
-37.7811546326 -6.7886428833 52.5366821289
-37.7874641418 -6.7872824669 52.3389434814
-37.8054466248 -6.7875585556 52.1429710388
-37.8353462219 -6.7895054817 51.9488220215
-37.8744659424 -6.7927451134 51.7561111450
-37.9170455933 -6.7964711189 51.5639648438
-37.9563751221 -6.7997412682 51.3713569641
-37.9875030518 -6.8018617630 51.1775169373
-38.0079460144 -6.8024840355 50.9820404053
-38.0163955688 -6.8014245033 50.7846984863
-38.0127449036 -6.7986674309 50.5854568481
-38.0006484985 -6.7947258949 50.3848648071
-37.9888839722 -6.7908301353 50.1842956543
-37.9878921509 -6.7884454727 49.9854125977
-38.0040245056 -6.7884631157 49.7892417908
-38.0362434387 -6.7907371521 49.5956497192
-38.0769004822 -6.7941961288 49.4034423828
-38.1164054871 -6.7974934578 49.2110900879
-38.1500968933 -6.7999753952 49.0178298950
-38.1812286377 -6.8020987511 48.8241806030
-38.2155838013 -6.8046746254 48.6310844421
-38.2541351318 -6.8078393936 48.4387092590
-38.2927207947 -6.8110098839 48.2463684082
-38.3263244629 -6.8134813309 48.0532455444
-38.3507728577 -6.8146681786 47.8586311340
-38.3615379333 -6.8139343262 47.6617584229
-38.3536567688 -6.8105831146 47.4617652893
-38.3246498108 -6.8042659760 47.2582092285
-38.2790565491 -6.7956199646 47.0518074036
-38.2303161621 -6.7865304947 46.8447990417
-38.1955184937 -6.7793989182 46.6400833130
-38.1851997375 -6.7757029533 46.4394760132
-38.1968154907 -6.7750868797 46.2425918579
-38.2176780701 -6.7757692337 46.0472946167
-38.2343215942 -6.7758593559 45.8512840271
-38.2403984070 -6.7744650841 45.6534500122
-38.2376556396 -6.7718329430 45.4540863037
-38.2317886353 -6.7687611580 45.2541542053
-38.2282104492 -6.7660112381 45.0546073914
-38.2303085327 -6.7640581131 44.8560333252
-38.2397575378 -6.7631368637 44.6587409973
-38.2576637268 -6.7634048462 44.4629440308
-38.2851676941 -6.7650198936 44.2688522339
-38.3224830627 -6.7680149078 44.0765342712
-38.3672370911 -6.7720546722 43.8855743408
-38.4137382507 -6.7763409615 43.6949729919
-38.4543228149 -6.7797961235 43.5033493042
-38.4820785522 -6.7814488411 43.3094482422
-38.4934272766 -6.7807960510 43.1125984192
-38.4893722534 -6.7779788971 42.9129486084
-38.4754333496 -6.7737717628 42.7114791870
-38.4603157043 -6.7693986893 42.5097579956
-38.4526252747 -6.7660698891 42.3093681335
-38.4564323425 -6.7643561363 42.1110763550
-38.4692306519 -6.7639069557 41.9144363403
-38.4846611023 -6.7638273239 41.7182884216
-38.4974098206 -6.7633709908 41.5216484070
-38.5060119629 -6.7623314857 41.3242301941
-38.5120620728 -6.7609333992 41.1263351440
-38.5178947449 -6.7595047951 40.9283905029
-38.5248985291 -6.7582402229 40.7306632996
-38.5329933167 -6.7571291924 40.5331344604
-38.5410118103 -6.7560076714 40.3355865479
-38.5476608276 -6.7546930313 40.1377754211
-38.5525703430 -6.7531342506 39.9396286011
-38.5567970276 -6.7514786720 39.7413406372
-38.5625228882 -6.7500343323 39.5433311462
-38.5722999573 -6.7491598129 39.3460998535
-38.5882835388 -6.7491583824 39.1500701904
-38.6113357544 -6.7501511574 38.9554214478
-38.6403732300 -6.7519865036 38.7619552612
-38.6729545593 -6.7543206215 38.5692100525
-38.7071456909 -6.7568812370 38.3768043518
-38.7424430847 -6.7595982552 38.1846504211
-38.7783584595 -6.7624025345 37.9926490784
-38.8127174377 -6.7649884224 37.8003692627
-38.8423957825 -6.7669153214 37.6071891785
-38.8661613464 -6.7680106163 37.4128494263
-38.8866081238 -6.7686390877 37.2178649902
-38.9083061218 -6.7694439888 37.0231399536
-38.9333572388 -6.7707204819 36.8291091919
-38.9594116211 -6.7721385956 36.6352958679
-38.9824905396 -6.7731385231 36.4408988953
-39.0005989075 -6.7734379768 36.2455062866
-39.0143203735 -6.7731208801 36.0492286682
-39.0255279541 -6.7724494934 35.8524360657
-39.0366821289 -6.7717700005 35.6556358337
-39.0506744385 -6.7714910507 35.4594192505
-39.0699462891 -6.7719550133 35.2642974854
-39.0946578979 -6.7731852531 35.0703163147
-39.1214790344 -6.7747125626 34.8767929077
-39.1444473267 -6.7756977081 34.6824798584
-39.1576805115 -6.7753119469 34.4861488342
-39.1581230164 -6.7731246948 34.2871360779
-39.1470680237 -6.7693176270 34.0856857300
-39.1300201416 -6.7646656036 33.8829421997
-39.1149482727 -6.7602920532 33.6805839539
-39.1096115112 -6.7572894096 33.4802589417
-39.1192245483 -6.7563929558 33.2831001282
-39.1451034546 -6.7577886581 33.0894165039
-39.1843605042 -6.7610692978 32.8986206055
-39.2310066223 -6.7653913498 32.7094497681
-39.2778549194 -6.7697424889 32.5203666687
-39.3177795410 -6.7731184959 32.3298339844
-39.3444137573 -6.7746224403 32.1364555359
-39.3540039063 -6.7737231255 31.9393863678
-39.3482933044 -6.7706680298 31.7389755249
-39.3355865479 -6.7666263580 31.5370101929
-39.3277664185 -6.7632727623 31.3360881805
-39.3349914551 -6.7620401382 31.1384563446
-39.3617439270 -6.7635607719 30.9451313019
-39.4059906006 -6.7675476074 30.7557010651
-39.4610557556 -6.7730607986 30.5687179565
-39.5188713074 -6.7789621353 30.3824043274
-39.5728492737 -6.7843232155 30.1952934265
-39.6188583374 -6.7885608673 30.0064506531
-39.6546325684 -6.7913560867 29.8153533936
-39.6795578003 -6.7926216125 29.6218452454
-39.6953277588 -6.7925953865 29.4262828827
-39.7059555054 -6.7918438911 29.2295627594
-39.7164649963 -6.7910766602 29.0328140259
-39.7315368652 -6.7909526825 28.8371067047
-39.7551002502 -6.7920265198 28.6433448792
-39.7902183533 -6.7947301865 28.4522476196
-39.8376884460 -6.7991771698 28.2640190125
-39.8933181763 -6.8047761917 28.0777187347
-39.9468536377 -6.8100805283 27.8909931183
-39.9857139587 -6.8133139610 27.7009201050
-40.0019111633 -6.8133506775 27.5056152344
-39.9967041016 -6.8103661537 27.3053283691
-39.9794082642 -6.8056755066 27.1021957397
-39.9622116089 -6.8009991646 26.8990497589
-39.9549102783 -6.7977180481 26.6981925964
-39.9619941711 -6.7964677811 26.5007019043
-39.9822883606 -6.7970814705 26.3063278198
-40.0104026794 -6.7987999916 26.1138172150
-40.0396690369 -6.8006811142 25.9216041565
-40.0651664734 -6.8020305634 25.7285156250
-40.0851211548 -6.8025975227 25.5341224670
-40.1003608704 -6.8024983406 25.3386116028
-40.1131591797 -6.8020553589 25.1425189972
-40.1264305115 -6.8016786575 24.9465446472
-40.1428184509 -6.8017420769 24.7513237000
-40.1633987427 -6.8023982048 24.5571250916
-40.1869316101 -6.8034706116 24.3636550903
-40.2108306885 -6.8045954704 24.1702919006
-40.2332801819 -6.8055157661 23.9765911102
-40.2542724609 -6.8062305450 23.7825469971
-40.2749633789 -6.8069028854 23.5884437561
-40.2967033386 -6.8077230453 23.3946094513
-40.3209838867 -6.8089027405 23.2014160156
-40.3499450684 -6.8107438087 23.0093975067
-40.3860740662 -6.8135976791 22.8191795349
-40.4303512573 -6.8176035881 22.6310176849
-40.4801139832 -6.8223843575 22.4442653656
-40.5292358398 -6.8270759583 22.2574024200
-40.5714225769 -6.8307876587 22.0688533783
-40.6037635803 -6.8331084251 21.8778705597
-40.6275329590 -6.8342185020 21.6847591400
-40.6461982727 -6.8346066475 21.4903755188
-40.6627006531 -6.8346891403 21.2954540253
-40.6779708862 -6.8345980644 21.1002273560
-40.6918258667 -6.8343067169 20.9046459198
-40.7053718567 -6.8339724541 20.7089900970
-40.7218093872 -6.8340463638 20.5140762329
-40.7439155579 -6.8349213600 20.3206233978
-40.7710647583 -6.8365101814 20.1284790039
-40.7995910645 -6.8382935524 19.9367103577
-40.8260116577 -6.8397798538 19.7444190979
-40.8496246338 -6.8408689499 19.5514240265
-40.8726692200 -6.8418784142 19.3582973480
-40.8987503052 -6.8433170319 19.1659736633
-40.9306106567 -6.8455734253 18.9751796722
-40.9682502747 -6.8486471176 18.7859191895
-41.0085067749 -6.8520922661 18.5973834991
-41.0467414856 -6.8552513123 18.4083518982
-41.0794181824 -6.8576245308 18.2178916931
-41.1057777405 -6.8591041565 18.0257930756
-41.1274490356 -6.8599209785 17.8324718475
-41.1466903687 -6.8603940010 17.6385211945
-41.1649208069 -6.8607239723 17.4443130493
-41.1824874878 -6.8609609604 17.2499370575
-41.1994132996 -6.8611063957 17.0553970337
-41.2163772583 -6.8612580299 16.8608760834
-41.2352218628 -6.8616752625 16.6668682098
-41.2583007813 -6.8626918793 16.4740085602
-41.2868385315 -6.8644819260 16.2826385498
-41.3199768066 -6.8669233322 16.0925350189
-41.3557395935 -6.8697361946 15.9031715393
-41.3927154541 -6.8727207184 15.7141695023
-41.4300193787 -6.8757524490 15.5252895355
-41.4659957886 -6.8785972595 15.3360824585
-41.4983520508 -6.8809294701 15.1459178925
-41.5261421204 -6.8826150894 14.9545269012
-41.5512199402 -6.8839178085 14.7624130249
-41.5776786804 -6.8854150772 14.5706958771
-41.6099166870 -6.8877320290 14.3805971146
-41.6507263184 -6.8912625313 14.1928997040
-41.7001609802 -6.8960151672 14.0076332092
-41.7559776306 -6.9016718864 13.8241920471
-41.8153190613 -6.9078292847 13.6417922974
-41.8762817383 -6.9142165184 13.4599084854
-41.9378013611 -6.9206833839 13.2782449722
-41.9980506897 -6.9269709587 13.0962886810
-42.0531654358 -6.9325318336 12.9129524231
-42.0979804993 -6.9366345406 12.7267684937
-42.1281127930 -6.9386572838 12.5364780426
-42.1417045593 -6.9383363724 12.3415241241
-42.1400375366 -6.9358539581 12.1422405243
-42.1274375916 -6.9318218231 11.9398288727
-42.1103820801 -6.9271583557 11.7361154556
-42.0954284668 -6.9227919579 11.5329666138
-42.0868377686 -6.9193267822 11.3316078186
-42.0858383179 -6.9169373512 11.1324043274
-42.0920982361 -6.9155769348 10.9352750778
-42.1056518555 -6.9152503014 10.7402448654
-42.1274185181 -6.9160876274 10.5475921631
-42.1579818726 -6.9181723595 10.3575038910
-42.1964035034 -6.9213714600 10.1697235107
-42.2407760620 -6.9254150391 9.9837102890
-42.2898139954 -6.9301199913 9.7991018295
-42.3432044983 -6.9354424477 9.6158151627
-42.4003028870 -6.9412918091 9.4336709976
-42.4591484070 -6.9473896027 9.2520990372
-42.5169677734 -6.9533424377 9.0702877045
-42.5711860657 -6.9587850571 8.8874731064
-42.6195335388 -6.9633960724 8.7029809952
-42.6597328186 -6.9668512344 8.5161218643
-42.6901435852 -6.9689192772 8.3263940811
-42.7115325928 -6.9697070122 8.1340065002
-42.7279739380 -6.9697937965 7.9401578903
-42.7458190918 -6.9700794220 7.7467355728
-42.7715682983 -6.9714865685 7.5556893349
-42.8096313477 -6.9746413231 7.3683586121
-42.8602561951 -6.9795784950 7.1848430634
-42.9185028076 -6.9855976105 7.0036754608
-42.9759330750 -6.9915018082 6.8223228455
-43.0248680115 -6.9962010384 6.6384587288
-43.0620498657 -6.9992332458 6.4510779381
-43.0890693665 -7.0008230209 6.2606401443
-43.1101303101 -7.0015673637 6.0684080124
-43.1293907166 -7.0020565987 5.8756394386
-43.1490173340 -7.0025982857 5.6829948425
-43.1686286926 -7.0031371117 5.4903545380
-43.1865730286 -7.0034399033 5.2972149849
-43.2021751404 -7.0034098625 5.1033620834
-43.2167663574 -7.0032372475 4.9092049599
-43.2330627441 -7.0033059120 4.7155785561
-43.2540969849 -7.0040473938 4.5234270096
-43.2829055786 -7.0058937073 4.3337039948
-43.3225479126 -7.0092778206 4.1473751068
-43.3751716614 -7.0145063400 3.9651315212
-43.4398689270 -7.0214500427 3.7867155075
-43.5109558105 -7.0293021202 3.6103701591
-43.5791091919 -7.0367383957 3.4331820011
-43.6353225708 -7.0424795151 3.2523136139
-43.6750640869 -7.0458812714 3.0663135052
-43.7001609802 -7.0472030640 2.8757269382
-43.7176551819 -7.0474452972 2.6827545166
-43.7361259460 -7.0478267670 2.4900996685
-43.7614021301 -7.0491747856 2.2996165752
-43.7946205139 -7.0516510010 2.1116797924
-43.8335571289 -7.0549411774 1.9255975485
-43.8750038147 -7.0585875511 1.7403528690
-43.9161033630 -7.0621848106 1.5550363064
-43.9555091858 -7.0655422211 1.3692158461
-43.9948616028 -7.0688929558 1.1834160089
-44.0389785767 -7.0729207993 0.9991875887
-44.0935783386 -7.0784392357 0.8183866739
-44.1618347168 -7.0858993530 0.6420617104
-44.2423095703 -7.0950975418 0.4697719514
-44.3299903870 -7.1053209305 0.2999130189
-44.4201202393 -7.1158933640 0.1309506297
-37.4393463135 4.7923603058 80.7645111084
-37.4302291870 4.7929806709 80.5668640137
-37.4175758362 4.7929735184 80.3689651489
-37.4078369141 4.7934837341 80.1712265015
-37.4062156677 4.7954373360 79.9739685059
-37.4139442444 4.7990517616 79.7772903442
-37.4271736145 4.8036446571 79.5809555054
-37.4393577576 4.8080511093 79.3845596313
-37.4463195801 4.8115301132 79.1878280640
-37.4502258301 4.8144659996 78.9908905029
-37.4586753845 4.8182086945 78.7942428589
-37.4790458679 4.8240695000 78.5984039307
-37.5123786926 4.8322329521 78.4034500122
-37.5522041321 4.8415493965 78.2089691162
-37.5891723633 4.8503570557 78.0143280029
-37.6164779663 4.8574495316 77.8190536499
-37.6315879822 4.8623747826 77.6229324341
-37.6345329285 4.8651394844 77.4259643555
-37.6261215210 4.8658881187 77.2281646729
-37.6079139709 4.8648967743 77.0296401978
-37.5833969116 4.8627853394 76.8306121826
-37.5585021973 4.8606076241 76.6315155029
-37.5401725769 4.8595957756 76.4328613281
-37.5339012146 4.8607254028 76.2350769043
-37.5421562195 4.8644347191 76.0383605957
-37.5641250610 4.8705787659 75.8426895142
-37.5963287354 4.8785400391 75.6478195190
-37.6337966919 4.8874354362 75.4533843994
-37.6713104248 4.8963379860 75.2589874268
-37.7041473389 4.9044103622 75.0642547607
-37.7288551331 4.9110388756 74.8689041138
-37.7441139221 4.9159908295 74.6728210449
-37.7506141663 4.9193873405 74.4760437012
-37.7496261597 4.9214553833 74.2786483765
-37.7421646118 4.9223752022 74.0807037354
-37.7298240662 4.9224281311 73.8823471069
-37.7159271240 4.9222059250 73.6838226318
-37.7050590515 4.9225220680 73.4855194092
-37.7011604309 4.9240746498 73.2877883911
-37.7057762146 4.9271383286 73.0907516479
-37.7173194885 4.9314312935 72.8943099976
-37.7314910889 4.9361901283 72.6980895996
-37.7431106567 4.9404964447 72.5016555786
-37.7484092712 4.9436812401 72.3046722412
-37.7458839417 4.9454784393 72.1069869995
-37.7354507446 4.9458727837 71.9085845947
-37.7177352905 4.9449753761 71.7095108032
-37.6947021484 4.9431352615 71.5099182129
-37.6703720093 4.9410657883 71.3101654053
-37.6497917175 4.9396619797 71.1107101440
-37.6368675232 4.9396162033 70.9119186401
-37.6332817078 4.9412269592 70.7139663696
-37.6391563416 4.9445157051 70.5168762207
-37.6537818909 4.9493565559 70.3206024170
-37.6751823425 4.9553990364 70.1249771118
-37.6995964050 4.9619755745 69.9296493530
-37.7225151062 4.9682860374 69.7341995239
-37.7408065796 4.9737768173 69.5383224487
-37.7538223267 4.9783315659 69.3419342041
-37.7626647949 4.9821457863 69.1451492310
-37.7689476013 4.9855074883 68.9481124878
-37.7742118835 4.9886875153 68.7509613037
-37.7798461914 4.9919338226 68.5538482666
-37.7870483398 4.9954586029 68.3568801880
-37.7967491150 4.9994258881 68.1601638794
-37.8097953796 5.0039858818 67.9637908936
-37.8272514343 5.0093274117 67.7678680420
-37.8501472473 5.0156335831 67.5725097656
-37.8782958984 5.0228705406 67.3777160645
-37.9092941284 5.0306115150 67.1832427979
-37.9391937256 5.0381579399 66.9886779785
-37.9645423889 5.0448975563 66.7936553955
-37.9837532043 5.0505490303 66.5980072021
-37.9968605042 5.0551190376 66.4017181396
-38.0046844482 5.0587530136 66.2048645020
-38.0082969666 5.0616407394 66.0075531006
-38.0087471008 5.0639686584 65.8098907471
-38.0066986084 5.0658531189 65.6119461060
-38.0020103455 5.0672707558 65.4136886597
-37.9936141968 5.0680322647 65.2150115967
-37.9797286987 5.0678210258 65.0156936646
-37.9585189819 5.0663127899 64.8155288696
-37.9294281006 5.0634093285 64.6144409180
-37.8949775696 5.0595569611 64.4126968384
-37.8617515564 5.0559215546 64.2110290527
-37.8388328552 5.0541129112 64.0104904175
-37.8337860107 5.0554695129 63.8119583130
-37.8485908508 5.0603423119 63.6157035828
-37.8782386780 5.0678434372 63.4211807251
-37.9124641418 5.0761547089 63.2272148132
-37.9392929077 5.0831556320 63.0324134827
-37.9490470886 5.0871329308 62.8356132507
-37.9379882813 5.0874257088 62.6363449097
-37.9100341797 5.0847272873 62.4350280762
-37.8747673035 5.0807347298 62.2327842712
-37.8425254822 5.0772790909 62.0308494568
-37.8204116821 5.0756158829 61.8300895691
-37.8117485046 5.0763349533 61.6309280396
-37.8173522949 5.0795793533 61.4334907532
-37.8358268738 5.0851020813 61.2376365662
-37.8632392883 5.0922064781 61.0428962708
-37.8942527771 5.0999484062 60.8486289978
-37.9245834351 5.1075687408 60.6543006897
-37.9520454407 5.1146812439 60.4596366882
-37.9751815796 5.1210284233 60.2644500732
-37.9915046692 5.1261692047 60.0684127808
-37.9978027344 5.1295361519 59.8711013794
-37.9923782349 5.1308288574 59.6722831726
-37.9771461487 5.1303858757 59.4721794128
-37.9576988220 5.1291985512 59.2714996338
-37.9403572083 5.1283836365 59.0710525513
-37.9279289246 5.1284379959 58.8712120056
-37.9187850952 5.1290740967 58.6717758179
-37.9105796814 5.1298770905 58.4724426270
-37.9038772583 5.1309456825 58.2732810974
-37.9018745422 5.1328454018 58.0747261047
-37.9078254700 5.1361527443 57.8772239685
-37.9229736328 5.1410865784 57.6809501648
-37.9461212158 5.1474351883 57.4857711792
-37.9753837585 5.1548652649 57.2914390564
-38.0102577209 5.1632876396 57.0978965759
-38.0508995056 5.1727290154 56.9051780701
-38.0950965881 5.1827993393 56.7129898071
-38.1374702454 5.1925463676 56.5205879211
-38.1724205017 5.2009806633 56.3271980286
-38.1975212097 5.2076725960 56.1324615479
-38.2139282227 5.2128272057 55.9365234375
-38.2244567871 5.2169432640 55.7397613525
-38.2319145203 5.2205157280 55.5425682068
-38.2388076782 5.2239885330 55.3452873230
-38.2477340698 5.2278208733 55.1482925415
-38.2610626221 5.2324309349 54.9519309998
-38.2795753479 5.2379574776 54.7563209534
-38.3014373779 5.2440762520 54.5612068176
-38.3230514526 5.2501506805 54.3660736084
-38.3412971497 5.2556300163 54.1704597473
-38.3549995422 5.2603063583 53.9741897583
-38.3646583557 5.2642669678 53.7773246765
-38.3714752197 5.2677264214 53.5800437927
-38.3768157959 5.2709250450 53.3825340271
-38.3821525574 5.2741227150 53.1850204468
-38.3889160156 5.2775726318 52.9877128601
-38.3979682922 5.2814269066 52.7907447815
-38.4089965820 5.2856302261 52.5940742493
-38.4204750061 5.2899131775 52.3974761963
-38.4303550720 5.2939143181 52.2006340027
-38.4369812012 5.2973399162 52.0032920837
-38.4396133423 5.3000597954 51.8053321838
-38.4385032654 5.3021192551 51.6067810059
-38.4344139099 5.3036527634 51.4077568054
-38.4277076721 5.3047237396 51.2083053589
-38.4176216125 5.3051986694 51.0083007813
-38.4026870728 5.3048167229 50.8075103760
-38.3823051453 5.3034734726 50.6058311462
-38.3581085205 5.3014569283 50.4035034180
-38.3334922791 5.2993664742 50.2010650635
-38.3118553162 5.2978034019 49.9990615845
-38.2955589294 5.2971835136 49.7978706360
-38.2863693237 5.2978191376 49.5977897644
-38.2861442566 5.3000369072 49.3991355896
-38.2966651917 5.3041534424 49.2022094727
-38.3186569214 5.3102941513 49.0071525574
-38.3507194519 5.3182129860 48.8137550354
-38.3893241882 5.3272871971 48.6214637756
-38.4301223755 5.3367471695 48.4295654297
-38.4693336487 5.3459262848 48.2374458313
-38.5040893555 5.3543195724 48.0446243286
-38.5324096680 5.3615760803 47.8507614136
-38.5536193848 5.3675775528 47.6557312012
-38.5685768127 5.3724751472 47.4596672058
-38.5789985657 5.3765726089 47.2628402710
-38.5867042542 5.3801898956 47.0655555725
-38.5935592651 5.3836574554 46.8681221008
-38.6019859314 5.3874030113 46.6709518433
-38.6149330139 5.3919458389 46.4745521545
-38.6347045898 5.3976926804 46.2793312073
-38.6611061096 5.4046092033 46.0852661133
-38.6905822754 5.4120678902 45.8917541504
-38.7177467346 5.4191184044 45.6978645325
-38.7384414673 5.4250278473 45.5028686523
-38.7517471313 5.4296331406 45.3065910339
-38.7595787048 5.4332728386 45.1093559265
-38.7648544312 5.4364614487 44.9116706848
-38.7699279785 5.4396142960 44.7139396667
-38.7760734558 5.4429569244 44.5163917542
-38.7836914063 5.4465589523 44.3191032410
-38.7926139832 5.4503917694 44.1220436096
-38.8023185730 5.4543614388 43.9251213074
-38.8121871948 5.4583606720 43.7282295227
-38.8222084045 5.4623870850 43.5313644409
-38.8339309692 5.4667124748 43.3348083496
-38.8506050110 5.4719123840 43.1391563416
-38.8749465942 5.4784631729 42.9449157715
-38.9049758911 5.4860167503 42.7517318726
-38.9326438904 5.4931535721 42.5581436157
-38.9491004944 5.4983143806 42.3625030518
-38.9523429871 5.5011448860 42.1644248962
-38.9487762451 5.5027751923 41.9650688171
-38.9475669861 5.5048213005 41.7661323547
-38.9545021057 5.5083031654 41.5687103271
-38.9700851440 5.5133094788 41.3729095459
-38.9911231995 5.5192766190 41.1781425476
-39.0136680603 5.5255098343 40.9836730957
-39.0358009338 5.5316700935 40.7891464233
-39.0586051941 5.5379486084 40.5947570801
-39.0844917297 5.5447702408 40.4009780884
-39.1141433716 5.5522551537 40.2079391479
-39.1448135376 5.5599188805 40.0151176453
-39.1717529297 5.5669250488 39.8216056824
-39.1914825439 5.5726609230 39.6267204285
-39.2037582397 5.5770826340 39.4303932190
-39.2111244202 5.5806403160 39.2331161499
-39.2176551819 5.5840497017 39.0356712341
-39.2280120850 5.5881342888 38.8389701843
-39.2463912964 5.5936317444 38.6438522339
-39.2747955322 5.6008944511 38.4507217407
-39.3116722107 5.6096501350 38.2592964172
-39.3521232605 5.6190342903 38.0686149597
-39.3892784119 5.6278381348 37.8773155212
-39.4165077209 5.6348934174 37.6840667725
-39.4303016663 5.6395821571 37.4881401062
-39.4324684143 5.6422228813 37.2898750305
-39.4290466309 5.6438789368 37.0904693604
-39.4263420105 5.6456623077 36.8911933899
-39.4277534485 5.6481704712 36.6927375793
-39.4333724976 5.6514191628 36.4951286316
-39.4414367676 5.6550989151 36.2980117798
-39.4505500793 5.6589636803 36.1011123657
-39.4615135193 5.6631541252 35.9045867920
-39.4768753052 5.6681184769 35.7089767456
-39.4982681274 5.6741447449 35.5146179199
-39.5249633789 5.6811046600 35.3213806152
-39.5556335449 5.6887631416 35.1289901733
-39.5906753540 5.6971921921 34.9375419617
-39.6316947937 5.7066721916 34.7473754883
-39.6776275635 5.7170162201 34.5582885742
-39.7209358215 5.7268981934 34.3686904907
-39.7489471436 5.7340874672 34.1758956909
-39.7516899109 5.7368297577 33.9777603149
-39.7298507690 5.7352457047 33.7743759155
-39.6944808960 5.7312817574 33.5680580139
-39.6587257385 5.7272500992 33.3616027832
-39.6302375793 5.7244973183 33.1566467285
-39.6105842590 5.7233004570 32.9535484314
-39.5992469788 5.7235665321 32.7522048950
-39.5960884094 5.7252726555 32.5526123047
-39.6004753113 5.7283058167 32.3546447754
-39.6101760864 5.7322745323 32.1578254700
-39.6228752136 5.7367701530 31.9616622925
-39.6388626099 5.7418446541 31.7662258148
-39.6619262695 5.7481632233 31.5723514557
-39.6972007751 5.7566299438 31.3811931610
-39.7469635010 5.7676444054 31.1932716370
-39.8069076538 5.7804493904 31.0076637268
-39.8665275574 5.7931957245 30.8220481873
-39.9149742126 5.8039774895 30.6340007782
-39.9483680725 5.8121104240 30.4426288605
-39.9717483521 5.8184823990 30.2490386963
-39.9941062927 5.8246750832 30.0552368164
-40.0220298767 5.8318452835 29.8627052307
-40.0571556091 5.8402824402 29.6718311310
-40.0973663330 5.8496127129 29.4821414948
-40.1389579773 5.8591856956 29.2928066254
-40.1783752441 5.8683757782 29.1030158997
-40.2132263184 5.8767628670 28.9122161865
-40.2431831360 5.8842883110 28.7203235626
-40.2702484131 5.8913064003 28.5277900696
-40.2972869873 5.8983187675 28.3352718353
-40.3253555298 5.9055123329 28.1430149078
-40.3522949219 5.9125070572 27.9505176544
-40.3733215332 5.9184627533 27.7566642761
