-22.9115753174 22.8120155334 88.4365158081
-22.9130516052 22.8166675568 88.2363204956
-22.9160442352 22.8229064941 88.0362014771
-22.9213771820 22.8315944672 87.8361968994
-22.9302463531 22.8439788818 87.6363830566
-22.9430274963 22.8604583740 87.4367828369
-22.9572467804 22.8784408569 87.2372741699
-22.9673614502 22.8921298981 87.0375518799
-22.9683837891 22.8963069916 86.8373184204
-22.9603481293 22.8910083771 86.6365509033
-22.9483242035 22.8815402985 86.4355239868
-22.9379482269 22.8737945557 86.2345657349
-22.9317550659 22.8704261780 86.0338363647
-22.9293422699 22.8710117340 85.8333053589
-22.9293632507 22.8741436005 85.6329193115
-22.9307842255 22.8787384033 85.4326095581
-22.9330673218 22.8842372894 85.2323455811
-22.9360980988 22.8905162811 85.0321197510
-22.9402084351 22.8979244232 84.8319625854
-22.9462871552 22.9073944092 84.6319351196
-22.9554290771 22.9200649261 84.4321136475
-22.9674377441 22.9357357025 84.2324981689
-22.9788436890 22.9507751465 84.0328445435
-22.9832820892 22.9585266113 83.8327102661
-22.9760437012 22.9540672302 83.6317443848
-22.9589862823 22.9393386841 83.4300460815
-22.9397182465 22.9223003387 83.2281494141
-22.9255294800 22.9105720520 83.0265808105
-22.9186458588 22.9064865112 82.8255157471
-22.9164180756 22.9072666168 82.6247863770
-22.9141387939 22.9079952240 82.4240341187
-22.9078140259 22.9044952393 82.2229614258
-22.8962974548 22.8955650330 82.0214462280
-22.8820705414 22.8838005066 81.8196945190
-22.8694801331 22.8737487793 81.6180343628
-22.8615169525 22.8685359955 81.4167175293
-22.8580760956 22.8680515289 81.2157440186
-22.8567047119 22.8697319031 81.0149307251
-22.8543186188 22.8703517914 80.8140106201
-22.8486480713 22.8675365448 80.6128005981
-22.8393726349 22.8609542847 80.4112625122
-22.8285636902 22.8527660370 80.2095642090
-22.8195686340 22.8464775085 80.0079956055
-22.8150100708 22.8448276520 79.8067855835
-22.8158226013 22.8487930298 79.6060409546
-22.8221073151 22.8584804535 79.4057769775
-22.8344535828 22.8745059967 79.2060699463
-22.8537826538 22.8978290558 79.0070114136
-22.8794860840 22.9278202057 78.8085708618
-22.9081268311 22.9608783722 78.6104431152
-22.9349899292 22.9920787811 78.4121856689
-22.9574756622 23.0187034607 78.2135467529
-22.9766025543 23.0418167114 78.0146179199
-22.9947185516 23.0638694763 77.8156127930
-23.0116901398 23.0847282410 77.6165161133
-23.0237922668 23.1004943848 77.4169540405
-23.0270748138 23.1070404053 77.2165222168
-23.0217456818 23.1045837402 77.0152130127
-23.0123710632 23.0979022980 76.8134765625
-23.0039253235 23.0921878815 76.6118011475
-22.9984836578 23.0896167755 76.4104156494
-22.9954662323 23.0895786285 76.2092666626
-22.9936447144 23.0907917023 76.0082244873
-22.9925403595 23.0927524567 75.8072433472
-22.9927520752 23.0960903168 75.6063842773
-22.9959373474 23.1025390625 75.4058456421
-23.0045490265 23.1146583557 75.2058868408
-23.0207481384 23.1347064972 75.0067749023
-23.0444087982 23.1625537872 74.8085021973
-23.0717773438 23.1942768097 74.6106796265
-23.0965824127 23.2233200073 74.4126052856
-23.1129512787 23.2435455322 74.2136077881
-23.1175880432 23.2515087128 74.0132904053
-23.1103076935 23.2470169067 73.8115844727
-23.0938549042 23.2329387665 73.6087951660
-23.0732383728 23.2145080566 73.4054718018
-23.0537567139 23.1972656250 73.2022399902
-23.0385665894 23.1845092773 72.9994735718
-23.0278873444 23.1764659882 72.7972030640
-23.0203208923 23.1716804504 72.5952835083
-23.0145301819 23.1687469482 72.3935546875
-23.0098590851 23.1669864655 72.1919403076
-23.0061302185 23.1662082672 71.9904251099
-23.0033149719 23.1663856506 71.7890014648
-23.0014152527 23.1675205231 71.5876770020
-23.0004863739 23.1696701050 71.3864669800
-23.0007419586 23.1730594635 71.1853942871
-23.0024890900 23.1780052185 70.9844970703
-23.0057563782 23.1845397949 70.7837905884
-23.0100173950 23.1921138763 70.5832061768
-23.0144519806 23.1998691559 70.3826446533
-23.0186405182 23.2073650360 70.1820449829
-23.0230579376 23.2151050568 69.9814758301
-23.0291004181 23.2245407104 69.7811203003
-23.0386714935 23.2376613617 69.5812377930
-23.0532283783 23.2559928894 69.3820343018
-23.0723533630 23.2790966034 69.1834716797
-23.0930519104 23.3038444519 68.9851455688
-23.1111259460 23.3258495331 68.7864837646
-23.1237087250 23.3421173096 68.5870819092
-23.1305637360 23.3523998260 68.3868942261
-23.1333866119 23.3584709167 68.1861343384
-23.1344795227 23.3627338409 67.9851303101
-23.1359157562 23.3673553467 67.7841644287
-23.1389980316 23.3736972809 67.5834274292
-23.1439056396 23.3819465637 67.3829421997
-23.1498374939 23.3912658691 67.1826095581
-23.1557483673 23.4005641937 66.9822692871
-23.1611385345 23.4093151093 66.7818603516
-23.1665058136 23.4180450439 66.5814361572
-23.1733074188 23.4282722473 66.3812332153
-23.1831092834 23.4416332245 66.1814727783
-23.1960372925 23.4582614899 65.9822006226
-23.2099704742 23.4759387970 65.7830810547
-23.2218151093 23.4914340973 65.5836639404
-23.2298278809 23.5029258728 65.3836746216
-23.2342700958 23.5106887817 65.1831283569
-23.2358283997 23.5154380798 64.9821395874
-23.2339725494 23.5166225433 64.7806091309
-23.2273521423 23.5128307343 64.5783081055
-23.2159786224 23.5040740967 64.3752441406
-23.2029781342 23.4936180115 64.1718826294
-23.1937637329 23.4871196747 63.9690933228
-23.1928443909 23.4892826080 63.7676086426
-23.2007064819 23.5006179810 63.5675315857
-23.2134437561 23.5170478821 63.3682479858
-23.2255592346 23.5328235626 63.1688766479
-23.2335548401 23.5442981720 62.9688377380
-23.2372932434 23.5513286591 62.7681007385
-23.2386398315 23.5558586121 62.5669631958
-23.2394847870 23.5598659515 62.3657302856
-23.2408924103 23.5644607544 62.1645851135
-23.2432575226 23.5700569153 61.9635925293
-23.2468185425 23.5769004822 61.7627983093
-23.2520351410 23.5854740143 61.5622787476
-23.2594871521 23.5963802338 61.3621444702
-23.2691421509 23.6095867157 61.1623878479
-23.2797832489 23.6238269806 60.9628105164
-23.2895488739 23.6371498108 60.7630920410
-23.2971916199 23.6482543945 60.5630073547
-23.3027381897 23.6571731567 60.3625526428
-23.3070182800 23.6647682190 60.1618766785
-23.3108272552 23.6718711853 59.9611129761
-23.3145332336 23.6788673401 59.7603263855
-23.3181476593 23.6857662201 59.5595207214
-23.3215026855 23.6923961639 59.3586616516
-23.3243808746 23.6985263824 59.1577148438
-23.3265495300 23.7039184570 58.9566307068
-23.3277950287 23.7083454132 58.7553672791
-23.3279590607 23.7116432190 58.5539016724
-23.3269672394 23.7137336731 58.3522071838
-23.3249015808 23.7147045135 58.1503028870
-23.3221149445 23.7149219513 57.9482460022
-23.3192749023 23.7150859833 57.7461662292
-23.3171901703 23.7160377502 57.5442123413
-23.3165855408 23.7185325623 57.3425216675
-23.3181571960 23.7233028412 57.1412391663
-23.3230457306 23.7315330505 56.9405784607
-23.3331298828 23.7451896667 56.7409172058
-23.3502655029 23.7662067413 56.5426254272
-23.3743801117 23.7945079803 56.3457107544
-23.4022445679 23.8267250061 56.1495590210
-23.4288749695 23.8576507568 55.9532051086
-23.4506397247 23.8835010529 55.7559280396
-23.4671459198 23.9038562775 55.5576438904
-23.4807033539 23.9211368561 55.3587913513
-23.4947547913 23.9389305115 55.1600494385
-23.5121364594 23.9602031708 54.9619903564
-23.5333061218 23.9854278564 54.7647171021
-23.5555572510 24.0117797852 54.5676879883
-23.5747127533 24.0349025726 54.3700599670
-23.5882072449 24.0521144867 54.1712989807
-23.5965023041 24.0638999939 53.9714851379
-23.6018524170 24.0726108551 53.7710685730
-23.6063137054 24.0803947449 53.5704689026
-23.6108188629 24.0882244110 53.3698768616
-23.6153945923 24.0961265564 53.1692924500
-23.6197071075 24.1037559509 52.9686546326
-23.6234531403 24.1107921600 52.7678909302
-23.6264476776 24.1170444489 52.5669670105
-23.6285400391 24.1223564148 52.3658447266
-23.6294441223 24.1264266968 52.1644630432
-23.6286888123 24.1287670135 51.9627151489
-23.6259994507 24.1290893555 51.7605400085
-23.6220092773 24.1280536652 51.5580673218
-23.6185359955 24.1275577545 51.3556861877
-23.6176853180 24.1297988892 51.1538619995
-23.6203708649 24.1357307434 50.9527969360
-23.6257209778 24.1444435120 50.7523155212
-23.6317367554 24.1538486481 50.5519752502
-23.6361789703 24.1616153717 50.3512878418
-23.6368389130 24.1654338837 50.1497573853
-23.6315174103 24.1630096436 49.9468803406
-23.6188297272 24.1528987885 49.7423324585
-23.5999279022 24.1363067627 49.5363502502
-23.5793628693 24.1179809570 49.3299484253
-23.5633296967 24.1043815613 49.1245269775
-23.5566368103 24.1005306244 48.9211921692
-23.5613460541 24.1085739136 48.7204437256
-23.5771026611 24.1281471252 48.5222244263
-23.6009674072 24.1561775208 48.3258972168
-23.6270179749 24.1864891052 48.1301040649
-23.6482925415 24.2118167877 47.9332389832
-23.6605606079 24.2277488708 47.7343025208
-23.6642360687 24.2347145081 47.5333671570
-23.6628208160 24.2363700867 47.3312263489
-23.6601276398 24.2366905212 47.1287727356
-23.6586303711 24.2382621765 46.9265861511
-23.6593227386 24.2421150208 46.7249069214
-23.6622257233 24.2482757568 46.5237464905
-23.6669368744 24.2563247681 46.3230133057
-23.6730766296 24.2658615112 46.1226196289
-23.6807346344 24.2769832611 45.9225959778
-23.6910800934 24.2909069061 45.7232208252
-23.7065773010 24.3102054596 45.5251121521
-23.7296981812 24.3374576569 45.3288803101
-23.7600593567 24.3722610474 45.1344528198
-23.7927227020 24.4094638824 44.9406356812
-23.8205432892 24.4416179657 44.7456741333
-23.8389663696 24.4639663696 44.5484199524
-23.8483161926 24.4768505096 44.3489341736
-23.8518867493 24.4837055206 44.1480102539
-23.8526744843 24.4876594543 43.9463882446
-23.8516674042 24.4897403717 43.7443046570
-23.8482055664 24.4892616272 43.5415840149
-23.8418731689 24.4857902527 43.3381233215
-23.8347530365 24.4814968109 43.1344413757
-23.8316307068 24.4813728333 42.9317512512
-23.8366813660 24.4897727966 42.7311363220
-23.8495540619 24.5063323975 42.5325317383
-23.8655223846 24.5261192322 42.3347396851
-23.8796806335 24.5440177917 42.1364936829
-23.8904819489 24.5584144592 41.9373893738
-23.8999156952 24.5713882446 41.7379417419
-23.9116802216 24.5867900848 41.5391082764
-23.9289379120 24.6079216003 41.3417282104
-23.9521331787 24.6352424622 41.1459274292
-23.9780216217 24.6653728485 40.9508705139
-24.0014591217 24.6929473877 40.7552032471
-24.0186748505 24.7140312195 40.5579109192
-24.0287113190 24.7276306152 40.3587226868
-24.0319309235 24.7341213226 40.1577148438
-24.0278110504 24.7329578400 39.9547309875
-24.0146694183 24.7223873138 39.7492942810
-23.9918117523 24.7016849518 39.5411987305
-23.9624061584 24.6741580963 39.3312683105
-23.9344139099 24.6481018066 39.1216583252
-23.9176349640 24.6337432861 38.9150543213
-23.9180545807 24.6373138428 38.7131195068
-23.9342403412 24.6573257446 38.5155143738
-23.9598197937 24.6871337891 38.3205223083
-23.9892692566 24.7209720612 38.1266365051
-24.0204677582 24.7566356659 37.9332809448
-24.0528564453 24.7935390472 37.7402992249
-24.0856304169 24.8308448792 37.5474777222
-24.1180038452 24.8677310944 37.3545875549
-24.1492214203 24.9034118652 37.1614265442
-24.1775512695 24.9360809326 36.9674911499
-24.2004547119 24.9630908966 36.7720603943
-24.2164287567 24.9828777313 36.5746917725
-24.2261676788 24.9961643219 36.3755607605
-24.2318019867 25.0051727295 36.1752624512
-24.2354488373 25.0121078491 35.9743957520
-24.2384548187 25.0183734894 35.7733383179
-24.2413482666 25.0245227814 35.5722465515
-24.2440776825 25.0305004120 35.3710975647
-24.2463665009 25.0360221863 35.1698150635
-24.2481212616 25.0409851074 34.9683723450
-24.2496051788 25.0456657410 34.7668380737
-24.2513217926 25.0505886078 34.5653686523
-24.2537326813 25.0562362671 34.3640937805
-24.2570762634 25.0628566742 34.1630859375
-24.2613506317 25.0704460144 33.9623489380
-24.2664127350 25.0788574219 33.7618446350
-24.2720527649 25.0878715515 33.5615119934
-24.2780189514 25.0972251892 33.3612747192
-24.2840957642 25.1066913605 33.1610679626
-24.2903175354 25.1163120270 32.9609069824
-24.2971591949 25.1265773773 32.7609367371
-24.3054370880 25.1383419037 32.5613975525
-24.3158798218 25.1523590088 32.3625221252
-24.3289947510 25.1691627502 32.1644668579
-24.3455371857 25.1895408630 31.9674701691
-24.3665580750 25.2145824432 31.7718639374
-24.3919811249 25.2442131042 31.5776367188
-24.4190979004 25.2756061554 31.3839664459
-24.4434146881 25.3040847778 31.1894702911
-24.4614696503 25.3260345459 30.9930686951
-24.4725551605 25.3407211304 30.7945213318
-24.4780006409 25.3495292664 30.5942268372
-24.4795379639 25.3542652130 30.3927116394
-24.4784927368 25.3563117981 30.1903762817
-24.4759845734 25.3568344116 29.9875698090
-24.4734764099 25.3573532104 29.7847461700
-24.4729785919 25.3599700928 29.5825424194
-24.4763393402 25.3666076660 29.3815517426
-24.4835968018 25.3773059845 29.1817951202
-24.4918766022 25.3890686035 28.9823665619
-24.4965877533 25.3971138000 28.7818012238
-24.4950256348 25.3986225128 28.5792198181
-24.4897499084 25.3962593079 28.3754310608
-24.4885597229 25.3981571198 28.1729412079
-24.5000267029 25.4132404327 27.9745292664
-24.5276527405 25.4451599121 27.7813720703
-24.5675277710 25.4898433685 27.5922393799
-24.6111240387 25.5383987427 27.4043827057
-24.6504383087 25.5824966431 27.2151927948
-24.6815452576 25.6180400848 27.0233707428
-24.7046279907 25.6452217102 26.8289566040
-24.7217674255 25.6662139893 26.6326122284
-24.7349758148 25.6831092834 26.4349861145
-24.7457427979 25.6974601746 26.2365646362
-24.7555122375 25.7107734680 26.0378208160
-24.7662792206 25.7251224518 25.8394145966
-24.7807292938 25.7433109283 25.6422519684
-24.8014297485 25.7680110931 25.4471988678
-24.8289451599 25.7998065948 25.2544651031
-24.8605690002 25.8358840942 25.0631561279
-24.8915767670 25.8713188171 24.8716850281
-24.9181499481 25.9021339417 24.6787567139
-24.9390869141 25.9270763397 24.4839496613
-24.9551239014 25.9469146729 24.2875003815
-24.9673881531 25.9628219604 24.0897789001
-24.9766159058 25.9755668640 23.8910293579
-24.9832897186 25.9856529236 23.6914081573
-24.9881057739 25.9938030243 23.4911460876
-24.9922313690 26.0012321472 23.2906455994
-24.9970569611 26.0093936920 23.0903835297
-25.0034141541 26.0191459656 22.8906497955
-25.0109786987 26.0301589966 22.6913375854
-25.0186290741 26.0412616730 22.4920597076
-25.0255603790 26.0516147614 22.2925319672
-25.0321807861 26.0616436005 22.0928955078
-25.0403194427 26.0732536316 21.8937969208
-25.0527935028 26.0893783569 21.6962299347
-25.0720748901 26.1125946045 21.5010833740
-25.0981559753 26.1428890228 21.3083724976
-25.1273803711 26.1764583588 21.1168155670
-25.1541805267 26.2075004578 20.9244384766
-25.1745338440 26.2318305969 20.7297935486
-25.1877155304 26.2486915588 20.5326061249
-25.1951885223 26.2596073151 20.3333816528
-25.1987094879 26.2664051056 20.1327362061
-25.1996269226 26.2704944611 19.9311466217
-25.1993427277 26.2733325958 19.7291126251
-25.1997585297 26.2768993378 19.5273227692
-25.2030639648 26.2834739685 19.3265705109
-25.2112541199 26.2951374054 19.1275978088
-25.2258644104 26.3134822845 18.9309730530
-25.2474956512 26.3391418457 18.7369403839
-25.2746696472 26.3705692291 18.5449714661
-25.3032436371 26.4034557343 18.3535594940
-25.3281593323 26.4325313568 18.1608352661
-25.3464603424 26.4547195435 17.9656982422
-25.3585186005 26.4704074860 17.7682666779
-25.3665618896 26.4819145203 17.5693531036
-25.3726463318 26.4913825989 17.3697109222
-25.3780002594 26.5000915527 17.1697978973
-25.3835258484 26.5089759827 16.9699459076
-25.3901634216 26.5190200806 16.7705135345
-25.3984565735 26.5307865143 16.5717029572
-25.4079818726 26.5438365936 16.3733634949
-25.4176521301 26.5570392609 16.1750850677
-25.4267082214 26.5695991516 15.9765806198
-25.4352207184 26.5815944672 15.7778739929
-25.4437370300 26.5935935974 15.5791740417
-25.4527549744 26.6061172485 15.3806715012
-25.4627037048 26.6196060181 15.1825294495
-25.4743061066 26.6348171234 14.9850301743
-25.4890232086 26.6532726288 14.7887401581
-25.5090503693 26.6772537231 14.5945138931
-25.5361709595 26.7086181641 14.4030570984
-25.5695075989 26.7464523315 14.2140483856
-25.6039848328 26.7854747772 14.0255336761
-25.6317939758 26.8175525665 13.8344736099
-25.6466674805 26.8361682892 13.6384038925
-25.6479358673 26.8406200409 13.4370260239
-25.6414756775 26.8370285034 13.2326097488
-25.6370334625 26.8355369568 13.0289630890
-25.6436767578 26.8455848694 12.8296651840
-25.6660099030 26.8719635010 12.6365661621
-25.7027969360 26.9133834839 12.4492187500
-25.7480716705 26.9636402130 12.2652969360
-25.7940769196 27.0146503448 12.0817365646
-25.8346481323 27.0600090027 11.8960838318
-25.8675155640 27.0973453522 11.7074165344
-25.8942432404 27.1282920837 11.5163393021
-25.9183902740 27.1565551758 11.3242654800
-25.9433822632 27.1856937408 11.1325635910
-25.9708099365 27.2173690796 10.9418802261
-25.9993801117 27.2502307892 10.7516965866
-26.0256824493 27.2807331085 10.5606365204
-26.0473709106 27.3064327240 10.3677396774
-26.0658950806 27.3288402557 10.1735849380
-26.0851421356 27.3519973755 9.9797477722
-26.1076431274 27.3785419464 9.7872657776
-26.1334056854 27.4084796906 9.5961494446
-26.1618232727 27.4411792755 9.4061594009
-26.1924247742 27.4761524200 9.2171106339
-26.2234687805 27.5115833282 9.0282888412
-26.2516555786 27.5440406799 8.8383312225
-26.2742271423 27.5706539154 8.6460886002
-26.2907180786 27.5909404755 8.4513521194
-26.3025321960 27.6063613892 8.2546892166
-26.3115081787 27.6188278198 8.0568523407
-26.3192443848 27.6300067902 7.8585047722
-26.3273468018 27.6415653229 7.6603126526
-26.3378486633 27.6556186676 7.4631309509
-26.3530216217 27.6745319366 7.2679238319
-26.3743209839 27.6998195648 7.0753159523
-26.4009723663 27.7306747437 6.8849978447
-26.4297065735 27.7636985779 6.6956005096
-26.4565391541 27.7947425842 6.5054373741
-26.4793586731 27.8216094971 6.3136057854
-26.4988880157 27.8450527191 6.1204028130
-26.5174102783 27.8674488068 5.9267950058
-26.5368843079 27.8908348083 5.7336177826
-26.5579929352 27.9159221649 5.5411658287
-26.5802440643 27.9421939850 5.3492331505
-26.6025829315 27.9685592651 5.1573681831
-26.6240558624 27.9940242767 4.9651598930
-26.6442623138 28.0181694031 4.7724318504
-26.6633358002 28.0411357880 4.5792388916
-26.6814060211 28.0630588531 4.3856339455
-26.6977825165 28.0832195282 4.1913137436
-26.7106037140 28.0996818542 3.9954614639
-26.7176818848 28.1101684570 3.7971100807
-26.7185688019 28.1142177582 3.5960485935
-26.7164306641 28.1151199341 3.3936486244
-26.7173652649 28.1192188263 3.1925864220
-26.7264423370 28.1317844391 2.9951047897
-26.7436618805 28.1528224945 2.8012270927
-26.7642021179 28.1773128510 2.6088411808
-26.7826232910 28.1995983124 2.4155409336
-26.7963790894 28.2170295715 2.2201888561
-26.8061199188 28.2302875519 2.0230631828
-26.8144760132 28.2421035767 1.8253254890
-26.8256092072 28.2568073273 1.6288348436
-26.8451824188 28.2802906036 1.4361377954
-26.8783321381 28.3178920746 1.2495647669
-26.9251194000 28.3696746826 1.0691804886
-26.9775657654 28.4273414612 0.8914242387
-27.0229110718 28.4776229858 0.7105445862
-27.0507926941 28.5097408295 0.5218271017
-27.0572700500 28.5195999146 0.3234357238
-27.0436191559 28.5085296631 0.1158922985
-15.7396497726 30.2715950012 111.9128341675
-15.7370433807 30.2710609436 111.7152481079
-15.7327756882 30.2670726776 111.5177917480
-15.7271537781 30.2602634430 111.3204269409
-15.7206039429 30.2515239716 111.1231155396
-15.7134542465 30.2415370941 110.9258270264
-15.7059078217 30.2307262421 110.7285461426
-15.6981124878 30.2193965912 110.5312576294
-15.6902303696 30.2078895569 110.3339385986
-15.6824598312 30.1966114044 110.1365814209
-15.6749982834 30.1859798431 109.9391784668
-15.6679716110 30.1762523651 109.7417068481
-15.6613540649 30.1673793793 109.5441818237
-15.6550445557 30.1591472626 109.3466033936
-15.6491212845 30.1517181396 109.1489791870
-15.6440935135 30.1461544037 108.9512634277
-15.6408796310 30.1443653107 108.7534027100
-15.6405839920 30.1486473083 108.5553359985
-15.6442632675 30.1612014771 108.3570098877
-15.6523771286 30.1829814911 108.1584091187
-15.6637277603 30.2114963531 107.9596252441
-15.6747837067 30.2393970490 107.7608795166
-15.6807451248 30.2566986084 107.5624542236
-15.6781482697 30.2561931610 107.3645324707
-15.6670141220 30.2379283905 107.1670608521
-15.6507711411 30.2090339661 106.9698257446
-15.6339645386 30.1789665222 106.7725601196
-15.6195859909 30.1539554596 106.5751190186
-15.6080884933 30.1349372864 106.3774871826
-15.5984153748 30.1197147369 106.1797256470
-15.5896263123 30.1063346863 105.9818878174
-15.5817012787 30.0947513580 105.7839813232
-15.5752124786 30.0861568451 105.5859756470
-15.5705852509 30.0814342499 105.3878631592
-15.5677337646 30.0804061890 105.1896591187
-15.5662412643 30.0822067261 104.9913864136
-15.5656843185 30.0859527588 104.7930679321
-15.5657711029 30.0910377502 104.5947113037
-15.5663108826 30.0970649719 104.3963317871
-15.5671510696 30.1037197113 104.1979370117
-15.5681209564 30.1106395721 103.9995346069
-15.5689392090 30.1172485352 103.8011322021
-15.5690765381 30.1224384308 103.6027374268
-15.5675296783 30.1241283417 103.4043884277
-15.5627613068 30.1191177368 103.2061080933
-15.5533094406 30.1043643951 103.0079345703
-15.5391082764 30.0797386169 102.8098297119
-15.5223340988 30.0497608185 102.6117401123
-15.5064163208 30.0215663910 102.4135742188
-15.4938745499 30.0003929138 102.2152862549
-15.4851112366 29.9870796204 102.0168914795
-15.4790191650 29.9793205261 101.8184127808
-15.4742584229 29.9743309021 101.6198883057
-15.4699707031 29.9703254700 101.4213409424
-15.4658041000 29.9665737152 101.2227706909
-15.4616861343 29.9629211426 101.0241775513
-15.4576616287 29.9594650269 100.8255615234
-15.4538354874 29.9564228058 100.6269302368
-15.4503517151 29.9540920258 100.4282760620
-15.4474000931 29.9528675079 100.2295989990
-15.4452753067 29.9533634186 100.0309066772
-15.4443235397 29.9562969208 99.8321914673
-15.4446430206 29.9618759155 99.6334686279
-15.4458160400 29.9692287445 99.4347305298
-15.4470415115 29.9766921997 99.2360000610
-15.4475917816 29.9827499390 99.0372543335
-15.4470853806 29.9866104126 98.8385009766
-15.4454231262 29.9880714417 98.6397323608
-15.4426860809 29.9872951508 98.4409408569
-15.4391326904 29.9848232269 98.2421264648
-15.4351511002 29.9814624786 98.0432891846
-15.4310674667 29.9778881073 97.8444290161
-15.4269828796 29.9743137360 97.6455535889
-15.4228887558 29.9707202911 97.4466552734
-15.4190979004 29.9677581787 97.2477416992
-15.4167633057 29.9678211212 97.0488357544
-15.4178256989 29.9749469757 96.8499832153
-15.4236631393 29.9920005798 96.6512222290
-15.4329118729 30.0161418915 96.4525375366
-15.4408912659 30.0376453400 96.2538528442
-15.4425210953 30.0459499359 96.0550155640
-15.4363431931 30.0380268097 95.8559722900
-15.4251852036 30.0197544098 95.6567764282
-15.4130439758 29.9994392395 95.4575042725
-15.4021730423 29.9817638397 95.2582244873
-15.3928585052 29.9673252106 95.0589599609
-15.3846807480 29.9552497864 94.8596954346
-15.3773565292 29.9449481964 94.6604385376
-15.3708438873 29.9363365173 94.4611740112
-15.3652086258 29.9295463562 94.2619171143
-15.3605594635 29.9248085022 94.0626754761
-15.3571033478 29.9225482941 93.8634567261
-15.3551988602 29.9235134125 93.6642837524
-15.3551940918 29.9284267426 93.4651870728
-15.3569889069 29.9370784760 93.2661590576
-15.3597364426 29.9477119446 93.0671691895
-15.3621959686 29.9577465057 92.8681716919
-15.3635025024 29.9653835297 92.6691131592
-15.3635854721 29.9704818726 92.4699935913
-15.3629083633 29.9739990234 92.2708206177
-15.3619480133 29.9769287109 92.0716247559
-15.3609218597 29.9797191620 91.8724136353
-15.3598337173 29.9823837280 91.6731872559
-15.3586473465 29.9848423004 91.4739456177
-15.3573627472 29.9871006012 91.2746887207
-15.3559999466 29.9891948700 91.0754089355
-15.3545742035 29.9911575317 90.8761215210
-15.3531112671 29.9930458069 90.6768188477
-15.3516340256 29.9949016571 90.4774932861
-15.3500404358 29.9965171814 90.2781600952
-15.3479690552 29.9971427917 90.0787734985
-15.3447723389 29.9954280853 89.8792953491
-15.3396453857 29.9897041321 89.6796722412
-15.3317823410 29.9782962799 89.4798202515
-15.3204784393 29.9597434998 89.2796936035
-15.3055553436 29.9336738586 89.0792465210
-15.2882814407 29.9027214050 88.8785781860
-15.2719936371 29.8738193512 88.6779251099
-15.2612037659 29.8563385010 88.4776535034
-15.2592735291 29.8572578430 88.2780532837
-15.2663412094 29.8768730164 88.0791778564
-15.2791872025 29.9084854126 87.8807983398
-15.2931890488 29.9424991608 87.6825408936
-15.3048610687 29.9716739655 87.4841232300
-15.3130493164 29.9936103821 87.2854156494
-15.3183002472 30.0094490051 87.0864715576
-15.3215322495 30.0210914612 86.8873443604
-15.3231916428 30.0294704437 86.6880798340
-15.3232631683 30.0345497131 86.4886550903
-15.3216800690 30.0361938477 86.2890701294
-15.3186206818 30.0347709656 86.0893325806
-15.3144721985 30.0310878754 85.8894729614
-15.3096294403 30.0259647369 85.6895217896
-15.3043689728 30.0199718475 85.4895019531
-15.2988672256 30.0134792328 85.2894439697
-15.2932891846 30.0068302155 85.0893478394
-15.2878170013 30.0004005432 84.8892364502
-15.2826232910 29.9945507050 84.6891403198
-15.2778797150 29.9896354675 84.4890594482
-15.2738828659 29.9862728119 84.2890472412
-15.2712535858 29.9857482910 84.0891647339
-15.2710552216 29.9902725220 83.8895339966
-15.2745914459 30.0025501251 83.6903228760
-15.2826910019 30.0243034363 83.4916381836
-15.2947511673 30.0542793274 83.2934265137
-15.3084564209 30.0876693726 83.0954360962
-15.3208780289 30.1183929443 82.8973236084
-15.3301773071 30.1426372528 82.6988601685
-15.3363075256 30.1602993011 82.5000305176
-15.3402729034 30.1734676361 82.3009490967
-15.3430452347 30.1841564178 82.1017150879
-15.3450880051 30.1933326721 81.9023895264
-15.3464803696 30.2011585236 81.7029800415
-15.3471584320 30.2075004578 81.5034713745
-15.3469638824 30.2120323181 81.3038482666
-15.3455829620 30.2141017914 81.1040573120
-15.3426504135 30.2129516602 80.9040451050
-15.3383970261 30.2090587616 80.7038345337
-15.3345060349 30.2059173584 80.5036621094
-15.3339614868 30.2097244263 80.3039245605
-15.3391809464 30.2254962921 80.1049880981
-15.3500833511 30.2530632019 79.9068527222
-15.3644437790 30.2878074646 79.7092285156
-15.3798532486 30.3247261047 79.5117950439
-15.3944416046 30.3599414825 79.3142700195
-15.4059066772 30.3886737823 79.1163330078
-15.4112796783 30.4047622681 78.9175109863
-15.4086008072 30.4041366577 78.7174987793
-15.3987855911 30.3887023926 78.5163955688
-15.3856306076 30.3663387299 78.3147430420
-15.3737936020 30.3467102051 78.1132507324
-15.3664655685 30.3364410400 77.9124145508
-15.3645353317 30.3373737335 77.7123947144
-15.3672418594 30.3479290009 77.5130920410
-15.3729782104 30.3647708893 77.3142700195
-15.3797121048 30.3836860657 77.1156234741
-15.3855304718 30.4006977081 76.9168319702
-15.3893833160 30.4136314392 76.7177352905
-15.3913211823 30.4225921631 76.5183181763
-15.3919982910 30.4289360046 76.3186950684
-15.3920650482 30.4340133667 76.1189575195
-15.3919248581 30.4386615753 75.9191818237
-15.3917627335 30.4432659149 75.7193908691
-15.3916034698 30.4478740692 75.5195922852
-15.3913640976 30.4523181915 75.3197708130
-15.3909177780 30.4563312531 75.1199111938
-15.3900918961 30.4595584869 74.9199676514
-15.3886241913 30.4614543915 74.7199020386
-15.3861856461 30.4613361359 74.5196456909
-15.3825750351 30.4587860107 74.3191680908
-15.3780183792 30.4542732239 74.1184921265
-15.3733119965 30.4494533539 73.9177780151
-15.3696193695 30.4467353821 73.7172241211
-15.3681755066 30.4486827850 73.5170669556
-15.3701534271 30.4577274323 73.3175506592
-15.3763675690 30.4755611420 73.1188278198
-15.3864727020 30.5014667511 72.9208602905
-15.3984193802 30.5311908722 72.7232666016
-15.4093055725 30.5587158203 72.5254974365
-15.4171466827 30.5799217224 72.3271560669
-15.4217548370 30.5944232941 72.1281890869
-15.4240589142 30.6041450500 71.9287719727
-15.4248580933 30.6107444763 71.7290573120
-15.4241294861 30.6141757965 71.5290222168
-15.4211883545 30.6130180359 71.3285369873
-15.4156675339 30.6065120697 71.1275024414
-15.4088039398 30.5972194672 70.9261703491
-15.4035730362 30.5913143158 70.7251510620
-15.4027156830 30.5944805145 70.5250167847
-15.4063510895 30.6069641113 70.3258132935
-15.4119815826 30.6235866547 70.1270370483
-15.4168825150 30.6386947632 69.9281082153
-15.4199991226 30.6501026154 69.7288131714
-15.4217662811 30.6587123871 69.5292205811
-15.4229393005 30.6660900116 69.3294982910
-15.4238939285 30.6730155945 69.1297225952
-15.4246292114 30.6794853210 68.9298934937
-15.4250659943 30.6853351593 68.7299880981
-15.4254255295 30.6910266876 68.5300674438
-15.4265651703 30.6983356476 68.3303070068
-15.4300050735 30.7104148865 68.1310653687
-15.4372110367 30.7303028107 67.9326782227
-15.4482231140 30.7580833435 67.7351760864
-15.4609060287 30.7893238068 67.5380783081
-15.4720020294 30.8172779083 67.3406372070
-15.4792623520 30.8372764587 67.1423339844
-15.4825105667 30.8489551544 66.9430999756
-15.4829368591 30.8547859192 66.7432098389
-15.4818515778 30.8574810028 66.5429458618
-15.4800767899 30.8587455750 66.3425140381
-15.4779844284 30.8593559265 66.1419906616
-15.4757137299 30.8595924377 65.9414062500
-15.4733047485 30.8595447540 65.7407760620
-15.4707708359 30.8592395782 65.5401000977
-15.4681272507 30.8587074280 65.3393859863
-15.4654197693 30.8580417633 65.1386337280
-15.4627685547 30.8574943542 64.9378814697
-15.4604072571 30.8575458527 64.7371902466
-15.4586696625 30.8588943481 64.5366363525
-15.4579191208 30.8622875214 64.3363189697
-15.4584217072 30.8682765961 64.1363143921
-15.4602212906 30.8769550323 63.9366302490
-15.4630689621 30.8878059387 63.7372169495
-15.4664525986 30.8997707367 63.5379371643
-15.4697532654 30.9115600586 63.3386421204
-15.4724283218 30.9220542908 63.1391830444
-15.4741268158 30.9305248260 62.9394645691
-15.4746656418 30.9365921021 62.7394409180
-15.4739685059 30.9400959015 62.5390777588
-15.4720106125 30.9409866333 62.3383712769
-15.4687538147 30.9391880035 62.1372985840
-15.4640150070 30.9343185425 61.9358100891
-15.4573812485 30.9255218506 61.7337875366
-15.4486074448 30.9122905731 61.5311508179
-15.4386034012 30.8965110779 61.3281440735
-15.4301290512 30.8839015961 61.1255226135
-15.4270019531 30.8823738098 60.9243507385
-15.4319152832 30.8975086212 60.7254028320
-15.4445095062 30.9285602570 60.5286140442
-15.4613170624 30.9683418274 60.3330383301
-15.4777336121 31.0073127747 60.1373901367
-15.4904661179 31.0386466980 59.9407386780
-15.4985589981 31.0603675842 59.7427864075
-15.5026540756 31.0738048553 59.5436973572
-15.5036344528 31.0807876587 59.3437156677
-15.5017967224 31.0819320679 59.1429100037
-15.4969329834 31.0768070221 58.9412117004
-15.4893999100 31.0661544800 58.7387046814
-15.4815244675 31.0547904968 58.5360679626
-15.4774904251 31.0513858795 58.3345413208
-15.4805793762 31.0627403259 58.1351089478
-15.4901466370 31.0875148773 57.9376144409
-15.5020608902 31.1171512604 57.7408447266
-15.5122747421 31.1432647705 57.5435905457
-15.5194082260 31.1629962921 57.3454208374
-15.5242633820 31.1780071259 57.1465682983
-15.5280342102 31.1907749176 56.9473915100
-15.5313377380 31.2025699615 56.7480735779
-15.5342540741 31.2135658264 56.5486373901
-15.5366716385 31.2235279083 56.3490486145
-15.5385065079 31.2322826385 56.1492767334
-15.5398559570 31.2400302887 55.9493484497
-15.5412445068 31.2478618622 55.7494277954
-15.5440206528 31.2585659027 55.5499420166
-15.5504579544 31.2768535614 55.3516197205
-15.5627412796 31.3072490692 55.1551742554
-15.5808391571 31.3496894836 54.9606170654
-15.6012849808 31.3969898224 54.7668609619
-15.6189174652 31.4384613037 54.5722465515
-15.6303825378 31.4671611786 54.3756713867
-15.6358280182 31.4833908081 54.1771545410
-15.6376066208 31.4920272827 53.9774475098
-15.6381120682 31.4980258942 53.7773170471
-15.6387691498 31.5043411255 53.5772285461
-15.6401872635 31.5122299194 53.3773880005
-15.6425724030 31.5221233368 53.1778678894
-15.6458959579 31.5339584351 52.9786567688
-15.6498861313 31.5471763611 52.7796745300
-15.6540632248 31.5607795715 52.5807571411
-15.6579389572 31.5737590790 52.3817443848
-15.6612424850 31.5855522156 52.1825370789
-15.6639242172 31.5960578918 51.9831199646
-15.6658897400 31.6050815582 51.7834548950
-15.6667613983 31.6118412018 51.5834083557
-15.6660394669 31.6153011322 51.3828086853
-15.6635351181 31.6150703430 51.1815757751
-15.6595697403 31.6118144989 50.9798164368
-15.6547813416 31.6068572998 50.7777519226
-15.6498231888 31.6015453339 50.5756034851
-15.6452207565 31.5969734192 50.3735580444
-15.6413736343 31.5939636230 50.1717605591
-15.6385469437 31.5930690765 49.9703063965
-15.6368446350 31.5945014954 49.7692375183
-15.6362276077 31.5981807709 49.5685501099
-15.6366863251 31.6040878296 49.3682365417
-15.6385335922 31.6128692627 49.1684226990
-15.6424722672 31.6259784698 48.9693641663
-15.6488151550 31.6440677643 48.7711906433
-15.6561031342 31.6641120911 48.5733718872
-15.6609039307 31.6790065765 48.3746490479
-15.6601724625 31.6824531555 48.1738891602
-15.6541757584 31.6749973297 47.9711647034
-15.6464042664 31.6638679504 47.7677536011
-15.6405277252 31.6566638947 47.5650215149
-15.6379728317 31.6563339233 47.3635101318
-15.6381721497 31.6617050171 47.1630210876
-15.6401758194 31.6708126068 46.9632072449
-15.6438074112 31.6832885742 46.7640113831
-15.6498527527 31.7007598877 46.5657348633
-15.6592550278 31.7251796722 46.3687515259
-15.6715574265 31.7555999756 46.1729011536
-15.6838703156 31.7860431671 45.9770851135
-15.6918935776 31.8076057434 45.7796325684
-15.6926422119 31.8141155243 45.5793762207
-15.6866292953 31.8066310883 45.3764724731
-15.6776523590 31.7930126190 45.1723861694
-15.6704149246 31.7829952240 44.9689483643
-15.6679191589 31.7827930450 44.7673492432
-15.6705398560 31.7931766510 44.5677604675
-15.6769571304 31.8114166260 44.3696784973
-15.6856174469 31.8342990875 44.1725006104
-15.6956872940 31.8600978851 43.9759025574
-15.7073659897 31.8892211914 43.7799720764
-15.7215833664 31.9236011505 43.5850868225
-15.7390489578 31.9647006989 43.3915519714
-15.7591333389 32.0112152100 43.1991195679
-15.7795858383 32.0584945679 43.0068855286
-15.7975492477 32.1006202698 42.8136901855
-15.8111925125 32.1338043213 42.6187629700
-15.8205823898 32.1581916809 42.4221191406
-15.8269681931 32.1763610840 42.2242507935
-15.8312721252 32.1902236938 42.0255355835
-15.8333473206 32.1994743347 41.8258934021
-15.8323755264 32.2024230957 41.6249809265
-15.8275575638 32.1974105835 41.4224433899
-15.8186683655 32.1839828491 41.2181777954
-15.8067121506 32.1642074585 41.0125808716
-15.7942342758 32.1433525085 40.8067245483
-15.7845029831 32.1281852722 40.6019859314
-15.7800693512 32.1239738464 40.3994712830
-15.7820663452 32.1330642700 40.1996803284
-15.7903528214 32.1551704407 40.0025863647
-15.8034439087 32.1872062683 39.8075752258
-15.8183584213 32.2230186462 39.6133804321
-15.8315553665 32.2552757263 39.4184799194
-15.8407278061 32.2792091370 39.2218551636
-15.8457717896 32.2946014404 39.0234527588
-15.8481359482 32.3044509888 38.8238830566
-15.8495578766 32.3123550415 38.6238975525
-15.8512821198 32.3208808899 38.4240417480
-15.8539228439 32.3313026428 38.2245864868
-15.8576536179 32.3439788818 38.0256156921
-15.8624315262 32.3588218689 37.8271141052
-15.8681287766 32.3755645752 37.6290283203
-15.8745574951 32.3938217163 37.4312782288
-15.8814907074 32.4131202698 37.2337608337
-15.8888216019 32.4332427979 37.0364379883
-15.8968467712 32.4547996521 36.8394432068
-15.9062910080 32.4792900085 36.6431045532
-15.9175758362 32.5075836182 36.4476242065
-15.9295511246 32.5373077393 36.2524833679
-15.9392089844 32.5622406006 36.0563087463
-15.9435615540 32.5762023926 35.8577156067
-15.9421586990 32.5782585144 35.6564750671
-15.9373998642 32.5733795166 35.4536743164
-15.9324979782 32.5682029724 35.2507858276
-15.9297914505 32.5675697327 35.0488929749
-15.9310264587 32.5750846863 34.8488235474
-15.9383001328 32.5950851440 34.6515769958
-15.9535503387 32.6315765381 34.4580841064
-15.9763689041 32.6837158203 34.2681922913
-16.0026149750 32.7429389954 34.0799751282
-16.0262374878 32.7967338562 33.8905868530
-16.0429725647 32.8362922668 33.6979827881
-16.0521068573 32.8601341248 33.5017967224
-16.0549697876 32.8710098267 33.3026313782
-16.0526638031 32.8712005615 33.1009902954
-16.0456638336 32.8616905212 32.8970756531
-16.0353584290 32.8453483582 32.6915397644
-16.0254039764 32.8297309875 32.4861335754
-16.0209026337 32.8253860474 32.2833366394
-16.0256290436 32.8401184082 32.0850105286
-16.0396232605 32.8740081787 31.8912124634
-16.0590953827 32.9192161560 31.7001304626
-16.0786857605 32.9646720886 31.5091552734
-16.0942382813 33.0017776489 31.3162384033
-16.1040554047 33.0270233154 31.1205272675
-16.1083278656 33.0408172607 30.9220886230
-16.1079978943 33.0450935364 30.7213668823
-16.1041278839 33.0420532227 30.5188732147
-16.0979537964 33.0342521667 30.3152084351
-16.0911598206 33.0251693726 30.1112060547
-16.0859241486 33.0193099976 29.9079608917
-16.0843868256 33.0210952759 29.7065563202
-16.0875797272 33.0326538086 29.5075283051
-16.0947322845 33.0523986816 29.3105125427
-16.1038265228 33.0761566162 29.1144943237
-16.1129798889 33.1000328064 28.9185237885
-16.1212730408 33.1221313477 28.7221336365
-16.1285037994 33.1420288086 28.5252132416
-16.1345958710 33.1595840454 28.3277206421
-16.1394367218 33.1745452881 28.1295928955
-16.1430740356 33.1870193481 27.9308471680
-16.1459484100 33.1979217529 27.7317104340
-16.1489353180 33.2090568542 27.5326309204
-16.1532821655 33.2229995728 27.3342628479
-16.1604595184 33.2427902222 27.1373767853
-16.1716194153 33.2708091736 26.9425926208
-16.1866321564 33.3067893982 26.7498607635
-16.2035064697 33.3466110229 26.5581436157
-16.2191658020 33.3839263916 26.3658256531
-16.2312641144 33.4138832092 26.1716575623
-16.2394657135 33.4357833862 25.9754428864
-16.2455005646 33.4532127380 25.7780895233
-16.2523117065 33.4722442627 25.5811614990
-16.2626686096 33.4985961914 25.3861446381
-16.2774963379 33.5341911316 25.1935539246
-16.2950477600 33.5754089355 25.0024662018
-16.3119850159 33.6153526306 24.8110866547
-16.3256416321 33.6485214233 24.6179733276
-16.3352985382 33.6734275818 24.4227180481
-16.3418273926 33.6918754578 24.2257785797
-16.3469753265 33.7074623108 24.0280933380
-16.3533515930 33.7255935669 23.8310909271
-16.3645000458 33.7535781860 23.6367168427
-16.3835506439 33.7978858948 23.4467182159
-16.4104804993 33.8584671021 23.2611160278
-16.4406414032 33.9257164001 23.0773735046
-16.4671821594 33.9854888916 22.8916988373
-16.4856224060 34.0285301208 22.7015876770
-16.4959411621 34.0547943115 22.5069923401
-16.5007991791 34.0697860718 22.3093662262
-16.5028305054 34.0789299011 22.1101589203
-16.5035648346 34.0854034424 21.9102210999
-16.5038299561 34.0909042358 21.7100124359
-16.5043773651 34.0969924927 21.5099582672
-16.5062503815 34.1058120728 21.3106460571
-16.5109004974 34.1203727722 21.1129093170
-16.5200347900 34.1441879272 20.9177303314
-16.5348567963 34.1797485352 20.7258167267
-16.5548210144 34.2259292603 20.5368824005
-16.5769996643 34.2766838074 20.3492679596
-16.5971584320 34.3232612610 20.1605472565
-16.6119823456 34.3588256836 19.9687995911
-16.6205558777 34.3814773560 19.7734737396
-16.6241340637 34.3938179016 19.5752716064
-16.6249523163 34.4004592896 19.3754673004
-16.6251182556 34.4057540894 19.1752758026
-16.6260929108 34.4127197266 18.9755516052
-16.6286582947 34.4229736328 18.7767524719
-16.6331291199 34.4371528625 18.5790691376
-16.6396064758 34.4554824829 18.3825721741
-16.6481876373 34.4781494141 18.1873264313
-16.6591701508 34.5057754517 17.9935169220
-16.6731739044 34.5396385193 17.8015232086
-16.6907272339 34.5808296204 17.6116695404
-16.7112903595 34.6282310486 17.4236507416
-16.7328815460 34.6777572632 17.2362976074
-16.7533626556 34.7249870300 17.0483341217
-16.7721157074 34.7686462402 16.8593864441
-16.7898807526 34.8102684021 16.6698913574
-16.8070220947 34.8506011963 16.4800624847
-16.8227596283 34.8880348206 16.2894287109
-16.8361873627 34.9207000732 16.0974330902
-16.8473377228 34.9486656189 15.9040851593
-16.8569831848 34.9735221863 15.7098455429
-16.8657493591 34.9965667725 15.5150899887
-16.8735694885 35.0176544189 15.3197717667
-16.8796730042 35.0351982117 15.1234169006
-16.8828926086 35.0467948914 14.9253005981
-16.8822154999 35.0503425598 14.7247848511
-16.8779258728 35.0464363098 14.5220279694
-16.8729515076 35.0411224365 14.3188285828
-16.8724975586 35.0451316833 14.1184101105
-16.8807983398 35.0672111511 13.9234237671
-16.8977985382 35.1072463989 13.7338752747
-16.9197921753 35.1575813293 13.5474863052
-16.9431095123 35.2106475830 13.3619832993
-16.9661026001 35.2630424500 13.1763353348
-16.9880218506 35.3132209778 12.9900703430
-17.0079765320 35.3593444824 12.8026227951
-17.0257797241 35.4010276794 12.6138668060
-17.0428752899 35.4412498474 12.4247064590
-17.0614624023 35.4845466614 12.2365322113
-17.0824413300 35.5327796936 12.0499286652
-17.1043071747 35.5828399658 11.8639421463
-17.1241168976 35.6286582947 11.6766967773
-17.1396179199 35.6655845642 11.4867410660
-17.1504344940 35.6928405762 11.2938137054
-17.1576023102 35.7125740051 11.0985631943
-17.1624794006 35.7275772095 10.9018478394
-17.1660785675 35.7399444580 10.7043113708
-17.1689395905 35.7507896423 10.5062990189
-17.1712379456 35.7604713440 10.3079223633
-17.1728973389 35.7688407898 10.1091289520
-17.1737461090 35.7755317688 9.9098024368
-17.1736984253 35.7803764343 9.7098846436
-17.1729850769 35.7838478088 9.5095224380
-17.1722393036 35.7872543335 9.3091287613
-17.1725215912 35.7927780151 9.1094017029
-17.1753921509 35.8036422729 8.9113731384
-17.1830921173 35.8244743347 8.7165384293
-17.1982994080 35.8607864380 8.5266914368
-17.2224445343 35.9155311584 8.3428125381
-17.2529850006 35.9834671021 8.1632518768
-17.2827682495 36.0498428345 7.9832673073
-17.3040332794 36.0986442566 7.7976684570
-17.3140087128 36.1241569519 7.6045627594
-17.3160648346 36.1333427429 7.4061641693
-17.3156719208 36.1374702454 7.2061138153
-17.3162879944 36.1436843872 7.0067362785
-17.3187923431 36.1537857056 6.8086266518
-17.3231277466 36.1676673889 6.6117563248
-17.3298015594 36.1863746643 6.4164776802
-17.3402233124 36.2128067017 6.2237577438
-17.3559055328 36.2500877380 6.0346446037
-17.3769168854 36.2983589172 5.8492078781
-17.4009952545 36.3529548645 5.6659235954
-17.4246730804 36.4067192078 5.4824256897
-17.4457759857 36.4551773071 5.2972207069
-17.4649200439 36.4995918274 5.1107187271
-17.4844417572 36.5447807312 4.9245252609
-17.5057754517 36.5937080383 4.7396330833
-17.5277633667 36.6439857483 4.5552496910
-17.5476169586 36.6898536682 4.3694386482
-17.5633659363 36.7272644043 4.1808223724
-17.5751667023 36.7565307617 3.9894895554
-17.5844993591 36.7807083130 3.7964575291
-17.5926971436 36.8025436401 3.6026508808
-17.6003017426 36.8231582642 3.4084441662
-17.6073665619 36.8426551819 3.2138700485
-17.6141452789 36.8615684509 3.0191087723
-17.6215515137 36.8817710876 2.8248016834
-17.6307849884 36.9057426453 2.6318006516
-17.6421699524 36.9341468811 2.4403440952
-17.6543350220 36.9641571045 2.2494666576
-17.6649570465 36.9909896851 2.0575187206
-17.6726837158 37.0118522644 1.8635268211
-17.6784172058 37.0286026001 1.6681249142
-17.6850166321 37.0471420288 1.4733527899
-17.6958580017 37.0744209290 1.2816357613
-17.7130050659 37.1147003174 1.0944781303
-17.7356719971 37.1663551331 0.9113402367
-17.7599830627 37.2214012146 0.7294481397
-17.7807025909 37.2690391541 0.5450190902
-17.7937335968 37.3008308411 0.3550691307
-17.7974395752 37.3134002686 0.1583731323
-5.8664221764 35.5236549377 111.8396759033
-5.8621091843 35.5073928833 111.6438293457
-5.8587560654 35.4982643127 111.4476776123
-5.8559966087 35.4935531616 111.2513351440
-5.8533711433 35.4898376465 111.0549392700
-5.8505454063 35.4846343994 110.8585739136
-5.8473496437 35.4766883850 110.6622924805
-5.8437490463 35.4657287598 110.4660873413
-5.8398065567 35.4522361755 110.2699432373
-5.8356380463 35.4370651245 110.0738220215
-5.8313159943 35.4207534790 109.8777084351
-5.8267464638 35.4026107788 109.6816177368
-5.8216319084 35.3804206848 109.4856185913
-5.8156838417 35.3520431519 109.2897720337
-5.8090691566 35.3187141418 109.0940322876
-5.8026957512 35.2871894836 108.8981781006
-5.7978906631 35.2673110962 108.7019271851
-5.7955775261 35.2659416199 108.5051193237
-5.7956352234 35.2821807861 108.3078002930
-5.7969436646 35.3077087402 108.1102294922
-5.7980303764 35.3315887451 107.9127273560
-5.7977428436 35.3452644348 107.7154998779
-5.7954902649 35.3443450928 107.5186538696
-5.7911586761 35.3279953003 107.3221740723
-5.7851052284 35.2988624573 107.1259689331
-5.7781910896 35.2633476257 106.9298629761
-5.7714953423 35.2294578552 106.7336578369
-5.7657532692 35.2026519775 106.5372467041
-5.7610607147 35.1836395264 106.3406143188
-5.7570800781 35.1699142456 106.1438369751
-5.7534441948 35.1587486267 105.9469757080
-5.7499861717 35.1489067078 105.7500534058
-5.7467174530 35.1404724121 105.5530853271
-5.7436780930 35.1337394714 105.3560638428
-5.7408237457 35.1283798218 105.1589889526
-5.7380108833 35.1233329773 104.9618911743
-5.7350621223 35.1172790527 104.7647933960
-5.7318501472 35.1092758179 104.5677032471
-5.7283444405 35.0990943909 104.3706207275
-5.7246055603 35.0871810913 104.1735382080
-5.7207450867 35.0743713379 103.9764404297
-5.7169032097 35.0617027283 103.7793121338
-5.7132873535 35.0507087708 103.5821304321
-5.7102680206 35.0441474915 103.3848648071
-5.7084155083 35.0462379456 103.1874771118
-5.7082676888 35.0609741211 102.9899444580
-5.7098436356 35.0884895325 102.7922744751
-5.7123451233 35.1228675842 102.5945663452
-5.7145347595 35.1549301147 102.3969039917
-5.7155103683 35.1779937744 102.1993408203
-5.7151007652 35.1907844543 102.0018844604
-5.7136120796 35.1955680847 101.8044815063
-5.7113904953 35.1949234009 101.6071090698
-5.7086234093 35.1902351379 101.4097442627
-5.7053403854 35.1817283630 101.2123870850
-5.7014312744 35.1685791016 101.0150222778
-5.6966538429 35.1489944458 100.8176574707
-5.6907896996 35.1213607788 100.6202774048
-5.6839718819 35.0866622925 100.4228744507
-5.6768875122 35.0499954224 100.2254180908
-5.6705107689 35.0185737610 100.0279006958
-5.6655173302 34.9974060059 99.8303070068
-5.6619310379 34.9866752625 99.6326751709
-5.6592707634 34.9827995300 99.4350204468
-5.6569428444 34.9813919067 99.2373428345
-5.6545462608 34.9794731140 99.0396499634
-5.6519474983 34.9760665894 98.8419342041
-5.6491866112 34.9714546204 98.6442031860
-5.6463150978 34.9660263062 98.4464492798
-5.6432518959 34.9591751099 98.2486724854
-5.6397314072 34.9489440918 98.0508499146
-5.6354513168 34.9330863953 97.8529739380
-5.6303987503 34.9115104675 97.6550369263
-5.6250691414 34.8878860474 97.4570388794
-5.6202912331 34.8683509827 97.2590332031
-5.6168074608 34.8584022522 97.0610580444
-5.6150002480 34.8608703613 96.8631591797
-5.6147761345 34.8750610352 96.6653594971
-5.6154279709 34.8957366943 96.4676208496
-5.6157741547 34.9141502380 96.2698745728
-5.6149411201 34.9238319397 96.0720367432
-5.6131377220 34.9263305664 95.8741226196
-5.6113204956 34.9287261963 95.6761932373
-5.6100015640 34.9348068237 95.4783020020
-5.6086530685 34.9406776428 95.2803955078
-5.6063423157 34.9394226074 95.0823898315
-5.6027331352 34.9285583496 94.8842239380
-5.5984435081 34.9126625061 94.6859588623
-5.5945711136 34.8998565674 94.4877090454
-5.5918922424 34.8958854675 94.2895736694
-5.5903778076 34.9005317688 94.0915603638
-5.5893597603 34.9088516235 93.8936080933
-5.5881538391 34.9157791138 93.6956329346
-5.5865645409 34.9198760986 93.4975891113
-5.5848217010 34.9228324890 93.2995223999
-5.5831069946 34.9260025024 93.1014480591
-5.5812568665 34.9281654358 92.9033432007
-5.5788559914 34.9262580872 92.7051391602
-5.5754895210 34.9172134399 92.5067596436
-5.5709757805 34.8996849060 92.3081588745
-5.5656018257 34.8757934570 92.1093826294
-5.5602402687 34.8520011902 91.9105606079
-5.5560731888 34.8370437622 91.7119140625
-5.5539574623 34.8372573853 91.5136108398
-5.5538969040 34.8526649475 91.3156890869
