-22.9495830536 -29.0824623108 64.4113693237
-22.9646358490 -29.0998382568 64.2133560181
-22.9807453156 -29.1184768677 64.0155258179
-22.9948825836 -29.1347599030 63.8174018860
-23.0055465698 -29.1468906403 63.6187286377
-23.0136890411 -29.1560077667 63.4196510315
-23.0219802856 -29.1653022766 63.2206001282
-23.0330562592 -29.1779251099 63.0220146179
-23.0479030609 -29.1950569153 62.8240547180
-23.0653133392 -29.2152481079 62.6265373230
-23.0828056335 -29.2355403900 62.4290542603
-23.0983047485 -29.2534503937 62.2312583923
-23.1111679077 -29.2682094574 62.0330314636
-23.1220817566 -29.2806396484 61.8344879150
-23.1323966980 -29.2923526764 61.6358451843
-23.1434364319 -29.3049335480 61.4373397827
-23.1557483673 -29.3190345764 61.2390594482
-23.1686477661 -29.3338375092 61.0408897400
-23.1806640625 -29.3475837708 60.8425827026
-23.1904525757 -29.3586692810 60.6438903809
-23.1970767975 -29.3659725189 60.4446487427
-23.1995697021 -29.3683395386 60.2446746826
-23.1968345642 -29.3644580841 60.0437583923
-23.1884803772 -29.3538608551 59.8418197632
-23.1759414673 -29.3382625580 59.6390991211
-23.1627120972 -29.3218383789 59.4362182617
-23.1531620026 -29.3098125458 59.2339668274
-23.1507167816 -29.3062763214 59.0329856873
-23.1565303802 -29.3126106262 58.8335075378
-23.1691532135 -29.3270816803 58.6352844238
-23.1851062775 -29.3455352783 58.4376907349
-23.2003517151 -29.3631420135 58.2399864197
-23.2120475769 -29.3765068054 58.0416297913
-23.2194480896 -29.3847370148 57.8424720764
-23.2235336304 -29.3890075684 57.6426849365
-23.2259902954 -29.3913288116 57.4425849915
-23.2282829285 -29.3934535980 57.2424468994
-23.2311859131 -29.3963108063 57.0424194336
-23.2347850800 -29.3999996185 56.8425178528
-23.2387256622 -29.4040946960 56.6426734924
-23.2424736023 -29.4079608917 56.4427909851
-23.2454948425 -29.4109573364 56.2427597046
-23.2474060059 -29.4126281738 56.0424995422
-23.2482032776 -29.4129695892 55.8420143127
-23.2485294342 -29.4127445221 55.6414222717
-23.2498283386 -29.4136810303 55.4410133362
-23.2540874481 -29.4181594849 55.2411880493
-23.2629089355 -29.4280891418 55.0422782898
-23.2762451172 -29.4434127808 54.8442878723
-23.2919006348 -29.4615097046 54.6467857361
-23.3065509796 -29.4784069061 54.4490890503
-23.3176078796 -29.4910068512 54.2506713867
-23.3243770599 -29.4984836578 54.0513801575
-23.3278141022 -29.5019779205 53.8513946533
-23.3295345306 -29.5034217834 53.6510467529
-23.3309879303 -29.5045452118 53.4506301880
-23.3331375122 -29.5064983368 53.2503547668
-23.3364639282 -29.5098609924 53.0503158569
-23.3410930634 -29.5147781372 52.8505516052
-23.3469390869 -29.5211524963 52.6510391235
-23.3538722992 -29.5288257599 52.4517593384
-23.3617877960 -29.5376720428 52.2526893616
-23.3704681396 -29.5474319458 52.0537872314
-23.3793220520 -29.5573997498 51.8549270630
-23.3873271942 -29.5663547516 51.6558876038
-23.3933620453 -29.5729522705 51.4564170837
-23.3966770172 -29.5763015747 51.2563514709
-23.3972702026 -29.5763950348 51.0556755066
-23.3960132599 -29.5742778778 50.8545799255
-23.3945369720 -29.5718994141 50.6534194946
-23.3948879242 -29.5717048645 50.4526557922
-23.3990440369 -29.5760593414 50.2527313232
-23.4082241058 -29.5864162445 50.0539321899
-23.4220352173 -29.6023082733 49.8561897278
-23.4381904602 -29.6210041046 49.6589889526
-23.4535064697 -29.6386966705 49.4616165161
-23.4655990601 -29.6525363922 49.2635231018
-23.4737834930 -29.6617031097 49.0645408630
-23.4787082672 -29.6669750214 48.8648071289
-23.4815597534 -29.6697692871 48.6645889282
-23.4835720062 -29.6715602875 48.4641685486
-23.4859275818 -29.6737613678 48.2638206482
-23.4897956848 -29.6777706146 48.0638198853
-23.4963150024 -29.6849479675 47.8644409180
-23.5062980652 -29.6962661743 47.6658782959
-23.5196094513 -29.7115631104 47.4681129456
-23.5347805023 -29.7290821075 47.2708015442
-23.5495719910 -29.7461471558 47.0734176636
-23.5622711182 -29.7607116699 46.8755493164
-23.5724182129 -29.7722263336 46.6770706177
-23.5803833008 -29.7811298370 46.4780731201
-23.5866088867 -29.7879581451 46.2786560059
-23.5914134979 -29.7930870056 46.0788879395
-23.5952186584 -29.7970199585 45.8788719177
-23.5986213684 -29.8004722595 45.6787528992
-23.6021881104 -29.8041229248 45.4786682129
-23.6062278748 -29.8083362579 45.2786941528
-23.6107158661 -29.8130855560 45.0788269043
-23.6153717041 -29.8180351257 44.8789978027
-23.6198101044 -29.8227272034 44.6791114807
-23.6237468719 -29.8268165588 44.4790916443
-23.6272258759 -29.8303604126 44.2789535522
-23.6308116913 -29.8340320587 44.0788383484
-23.6355648041 -29.8390979767 43.8790092468
-23.6426048279 -29.8468971252 43.6797637939
-23.6522617340 -29.8578262329 43.4811897278
-23.6635608673 -29.8707180023 43.2830467224
-23.6748142242 -29.8835563660 43.0848999023
-23.6849060059 -29.8950042725 42.8864593506
-23.6939659119 -29.9052181244 42.6877555847
-23.7029552460 -29.9153499603 42.4890365601
-23.7129631042 -29.9266967773 42.2905921936
-23.7248325348 -29.9402675629 42.0926437378
-23.7388916016 -29.9564609528 41.8952827454
-23.7544822693 -29.9744815826 41.6983413696
-23.7697772980 -29.9921493530 41.5013389587
-23.7826843262 -30.0069618225 41.3037147522
-23.7922554016 -30.0177898407 41.1052093506
-23.7992534637 -30.0255393982 40.9060173035
-23.8054542542 -30.0323371887 40.7066116333
-23.8126525879 -30.0403270721 40.5074768066
-23.8221454620 -30.0510597229 40.3089637756
-23.8347110748 -30.0654659271 40.1112937927
-23.8504753113 -30.0836944580 39.9145088196
-23.8684444427 -30.1045589447 39.7183494568
-23.8863525391 -30.1253490448 39.5221900940
-23.9015979767 -30.1429615021 39.3253211975
-23.9127483368 -30.1556758881 39.1273307800
-23.9200973511 -30.1638450623 38.9282913208
-23.9249229431 -30.1689968109 38.7285461426
-23.9284286499 -30.1725730896 38.5284309387
-23.9312839508 -30.1753711700 38.3281288147
-23.9337215424 -30.1776714325 38.1276969910
-23.9358043671 -30.1795444489 37.9271621704
-23.9376182556 -30.1810970306 37.7265357971
-23.9393501282 -30.1825542450 37.5258827209
-23.9412937164 -30.1842594147 37.3252792358
-23.9437751770 -30.1866111755 37.1248207092
-23.9471168518 -30.1899909973 36.9245986938
-23.9515972137 -30.1947326660 36.7247047424
-23.9574489594 -30.2011108398 36.5251998901
-23.9648818970 -30.2093811035 36.3261528015
-23.9741897583 -30.2198925018 36.1276550293
-23.9859371185 -30.2333202362 35.9298744202
-24.0010757446 -30.2508029938 35.7331008911
-24.0206661224 -30.2736053467 35.5376510620
-24.0451984406 -30.3023204803 35.3436889648
-24.0741481781 -30.3363132477 35.1510658264
-24.1062107086 -30.3740253448 34.9594116211
-24.1395492554 -30.4132652283 34.7681846619
-24.1713695526 -30.4506912231 34.5765533447
-24.1977672577 -30.4816341400 34.3833427429
-24.2150306702 -30.5016555786 34.1874237061
-24.2216606140 -30.5089664459 33.9883117676
-24.2193965912 -30.5056457520 33.7865066528
-24.2125911713 -30.4968948364 33.5833053589
-24.2065486908 -30.4890556335 33.3803138733
-24.2056694031 -30.4873886108 33.1788711548
-24.2120742798 -30.4944305420 32.9796524048
-24.2250251770 -30.5092964172 32.7824440002
-24.2413749695 -30.5282287598 32.5862998962
-24.2571678162 -30.5464935303 32.3899993896
-24.2695236206 -30.5606479645 32.1926460266
-24.2775211334 -30.5695953369 31.9939517975
-24.2817745209 -30.5740642548 31.7940883636
-24.2835140228 -30.5755290985 31.5934333801
-24.2839317322 -30.5754127502 31.3923530579
-24.2839050293 -30.5747642517 31.1911201477
-24.2839698792 -30.5742263794 30.9899044037
-24.2844181061 -30.5741481781 30.7887973785
-24.2854690552 -30.5747871399 30.5878715515
-24.2874622345 -30.5765552521 30.3872337341
-24.2910881042 -30.5802726746 30.1871109009
-24.2974567413 -30.5872726440 29.9878616333
-24.3077297211 -30.5989398956 29.7898693085
-24.3223037720 -30.6157474518 29.5932712555
-24.3403968811 -30.6367626190 29.3978271484
-24.3608398438 -30.6605854034 29.2031688690
-24.3833961487 -30.6869392395 29.0092239380
-24.4089870453 -30.7169189453 28.8163013458
-24.4383735657 -30.7514343262 28.6246566772
-24.4708957672 -30.7897033691 28.4340858459
-24.5046119690 -30.8293952942 28.2439575195
-24.5372333527 -30.8677806854 28.0535182953
-24.5667934418 -30.9025077820 27.8621158600
-24.5920886993 -30.9321346283 27.6693382263
-24.6132907867 -30.9568672180 27.4752330780
-24.6321411133 -30.9787883759 27.2803688049
-24.6509532928 -31.0006637573 27.0855159760
-24.6710014343 -31.0240192413 26.8910999298
-24.6917648315 -31.0482273102 26.6969528198
-24.7118301392 -31.0716018677 26.5025939941
-24.7305221558 -31.0933341980 26.3077983856
-24.7483501434 -31.1140346527 26.1127300262
-24.7658195496 -31.1343059540 25.9175605774
-24.7821826935 -31.1532535553 25.7220344543
-24.7957019806 -31.1688022614 25.5255508423
-24.8049201965 -31.1792087555 25.3276023865
-24.8093223572 -31.1838569641 25.1280002594
-24.8089733124 -31.1828250885 24.9267520905
-24.8041801453 -31.1764793396 24.7239494324
-24.7959804535 -31.1660594940 24.5199413300
-24.7867374420 -31.1543922424 24.3155422211
-24.7798404694 -31.1455307007 24.1119327545
-24.7787628174 -31.1436271667 23.9103355408
-24.7865238190 -31.1522922516 23.7118282318
-24.8054924011 -31.1743545532 23.5172710419
-24.8365345001 -31.2108554840 23.3270034790
-24.8777675629 -31.2595386505 23.1403884888
-24.9243793488 -31.3146533966 22.9557514191
-24.9702358246 -31.3688659668 22.7709197998
-25.0102443695 -31.4160881042 22.5840778351
-25.0422000885 -31.4536800385 22.3944149017
-25.0671939850 -31.4829483032 22.2023010254
-25.0882225037 -31.5074768066 22.0087966919
-25.1077022552 -31.5301532745 21.8147602081
-25.1258659363 -31.5512561798 21.6202716827
-25.1412982941 -31.5690917969 21.4248142242
-25.1527290344 -31.5821437836 21.2279186249
-25.1601848602 -31.5904445648 21.0295829773
-25.1648120880 -31.5953636169 20.8302154541
-25.1681728363 -31.5987644196 20.6303806305
-25.1717605591 -31.6024417877 20.4306221008
-25.1768131256 -31.6078662872 20.2313957214
-25.1840820313 -31.6159420013 20.0329875946
-25.1936225891 -31.6267356873 19.8354206085
-25.2047653198 -31.6394443512 19.6384544373
-25.2164802551 -31.6528358459 19.4417095184
-25.2280921936 -31.6661052704 19.2449359894
-25.2399578094 -31.6796760559 19.0482673645
-25.2535381317 -31.6952991486 18.8522510529
-25.2706890106 -31.7151927948 18.6575908661
-25.2928276062 -31.7410488129 18.4648323059
-25.3207454681 -31.7738151550 18.2742862701
-25.3545398712 -31.8136081696 18.0860061646
-25.3926849365 -31.8586044312 17.8994331360
-25.4312324524 -31.9040794373 17.7130718231
-25.4651203156 -31.9439868927 17.5249938965
-25.4911251068 -31.9744663239 17.3339500427
-25.5095310211 -31.9958591461 17.1400260925
-25.5232601166 -32.0116615295 16.9443283081
-25.5359325409 -32.0261993408 16.7482357025
-25.5503330231 -32.0428047180 16.5528221130
-25.5675392151 -32.0627632141 16.3585109711
-25.5867691040 -32.0851440430 16.1650066376
-25.6063957214 -32.1079978943 15.9716806412
-25.6255874634 -32.1303291321 15.7782087326
-25.6451301575 -32.1530838013 15.5848999023
-25.6667232513 -32.1782875061 15.3924188614
-25.6915168762 -32.2073211670 15.2012243271
-25.7192916870 -32.2399177551 15.0112400055
-25.7487773895 -32.2745590210 14.8219718933
-25.7783432007 -32.3092994690 14.6327800751
-25.8064460754 -32.3422889709 14.4430503845
-25.8321208954 -32.3723754883 14.2523956299
-25.8556804657 -32.3999328613 14.0609331131
-25.8785514832 -32.4266700745 13.8692274094
-25.9017887115 -32.4538421631 13.6777000427
-25.9246959686 -32.4806175232 13.4860715866
-25.9452323914 -32.5045623779 13.2935190201
-25.9617652893 -32.5237197876 13.0993785858
-25.9743080139 -32.5381011963 12.9036407471
-25.9843997955 -32.5495567322 12.7069206238
-25.9942779541 -32.5607528687 12.5101203918
-26.0058956146 -32.5740318298 12.3140344620
-26.0199623108 -32.5902404785 12.1189594269
-26.0355339050 -32.6082420349 11.9245138168
-26.0507678986 -32.6258468628 11.7299470901
-26.0643444061 -32.6414680481 11.5347156525
-26.0762138367 -32.6550445557 11.3387928009
-26.0872859955 -32.6676712036 11.1425523758
-26.0988712311 -32.6809120178 10.9465312958
-26.1124858856 -32.6965789795 10.7513628006
-26.1296997070 -32.7165489197 10.5577049255
-26.1515235901 -32.7420310974 10.3659906387
-26.1777610779 -32.7727928162 10.1761493683
-26.2071113586 -32.8072776794 9.9876508713
-26.2378349304 -32.8434066772 9.7997722626
-26.2682266235 -32.8791351318 9.6118001938
-26.2968215942 -32.9127159119 9.4231157303
-26.3225917816 -32.9429168701 9.2332782745
-26.3450336456 -32.9691429138 9.0420675278
-26.3641929626 -32.9914360046 8.8494920731
-26.3807792664 -33.0106582642 8.6558465958
-26.3961391449 -33.0284118652 8.4616966248
-26.4118919373 -33.0466384888 8.2677307129
-26.4295368195 -33.0671272278 8.0745944977
-26.4500789642 -33.0910797119 7.8827228546
-26.4735450745 -33.1185226440 7.6921358109
-26.4988765717 -33.1482048035 7.5023870468
-26.5247993469 -33.1785926819 7.3129291534
-26.5509185791 -33.2092132568 7.1235933304
-26.5776901245 -33.2406158447 6.9345779419
-26.6054763794 -33.2732315063 6.7460436821
-26.6342372894 -33.3070144653 6.5579743385
-26.6639900208 -33.3419799805 6.3703808784
-26.6947746277 -33.3781814575 6.1832838058
-26.7260074615 -33.4149169922 5.9964303970
-26.7564907074 -33.4507598877 5.8092932701
-26.7852039337 -33.4844856262 5.6214222908
-26.8116073608 -33.5154457092 5.4325723648
-26.8352584839 -33.5431175232 5.2425413132
-26.8559513092 -33.5672531128 5.0512309074
-26.8744316101 -33.5887413025 4.8589620590
-26.8923072815 -33.6095046997 4.6664471626
-26.9107131958 -33.6309013367 4.4741897583
-26.9291706085 -33.6523628235 4.2819790840
-26.9461784363 -33.6720886230 4.0891404152
-26.9609680176 -33.6891632080 3.8953251839
-26.9745635986 -33.7048110962 3.7009866238
-26.9890918732 -33.7215728760 3.5070829391
-27.0061817169 -33.7413978577 3.3143544197
-27.0260581970 -33.7645530701 3.1229081154
-27.0481853485 -33.7904052734 2.9325103760
-27.0726070404 -33.8189964294 2.7431869507
-27.1002140045 -33.8514022827 2.5553512573
-27.1315040588 -33.8882102966 2.3692402840
-27.1651878357 -33.9278831482 2.1842734814
-27.1981582642 -33.9666976929 1.9990299940
-27.2268810272 -34.0004386902 1.8118836880
-27.2491416931 -34.0264472961 1.6217999458
-27.2649288177 -34.0447158813 1.4287552834
-27.2760658264 -34.0574226379 1.2335752249
-27.2851219177 -34.0676422119 1.0374388695
-27.2945957184 -34.0783576965 0.8415004611
-27.3067569733 -34.0922889709 0.6468201876
-27.3237514496 -34.1120033264 0.4544073045
-27.3472843170 -34.1395339966 0.2650726736
-27.3776855469 -34.1752815247 0.0789895132
-32.4942054749 15.2567195892 80.6548461914
-32.5017395020 15.2632541656 80.4571533203
-32.5195655823 15.2752780914 80.2601699829
-32.5485343933 15.2932472229 80.0639648438
-32.5864677429 15.3159952164 79.8684158325
-32.6266975403 15.3399696350 79.6730804443
-32.6611824036 15.3608770370 79.4773712158
-32.6851959229 15.3762016296 79.2809448242
-32.6988754272 15.3860120773 79.0837860107
-32.7051963806 15.3918981552 78.8860931396
-32.7074966431 15.3956394196 78.6881027222
-32.7082290649 15.3985443115 78.4899826050
-32.7087631226 15.4013442993 78.2918395996
-32.7095718384 15.4042911530 78.0937042236
-32.7105712891 15.4073381424 77.8955688477
-32.7115554810 15.4103803635 77.6974258423
-32.7126998901 15.4135046005 77.4992828369
-32.7148971558 15.4171934128 77.3012161255
-32.7198028564 15.4223251343 77.1033554077
-32.7290458679 15.4297704697 76.9058380127
-32.7428207397 15.4396305084 76.7086944580
-32.7590217590 15.4507875443 76.5117492676
-32.7742347717 15.4614143372 76.3147430420
-32.7857971191 15.4700965881 76.1174316406
-32.7930297852 15.4764690399 75.9197692871
-32.7967071533 15.4809455872 75.7217941284
-32.7979621887 15.4841318130 75.5236129761
-32.7977790833 15.4865503311 75.3252944946
-32.7970962524 15.4887037277 75.1269149780
-32.7969856262 15.4911613464 74.9285812378
-32.7984504700 15.4944591522 74.7303695679
-32.8019981384 15.4988679886 74.5323333740
-32.8073387146 15.5042314529 74.3344497681
-32.8134613037 15.5100154877 74.1366348267
-32.8190803528 15.5155267715 73.9387741089
-32.8231124878 15.5201940536 73.7407608032
-32.8250885010 15.5237646103 73.5425491333
-32.8251914978 15.5263376236 73.3441543579
-32.8239860535 15.5282125473 73.1456222534
-32.8220367432 15.5296916962 72.9470062256
-32.8197135925 15.5309724808 72.7483444214
-32.8172721863 15.5321893692 72.5496520996
-32.8149604797 15.5334749222 72.3509521484
-32.8130722046 15.5349884033 72.1522903442
-32.8119316101 15.5368986130 71.9536743164
-32.8118095398 15.5393533707 71.7551574707
-32.8128433228 15.5424232483 71.5567321777
-32.8149223328 15.5460500717 71.3584060669
-32.8176574707 15.5500288010 71.1601409912
-32.8205184937 15.5540733337 70.9618759155
-32.8229980469 15.5579128265 70.7635650635
-32.8247718811 15.5613803864 70.5651702881
-32.8258171082 15.5644559860 70.3666915894
-32.8263435364 15.5672569275 70.1681518555
-32.8266830444 15.5699577332 69.9695816040
-32.8271064758 15.5727052689 69.7710037231
-32.8277664185 15.5755767822 69.5724411011
-32.8286552429 15.5785722733 69.3738861084
-32.8296623230 15.5816297531 69.1753387451
-32.8306465149 15.5846748352 68.9767837524
-32.8315811157 15.5876941681 68.7782058716
-32.8326835632 15.5908031464 68.5796356201
-32.8342933655 15.5941829681 68.3811111450
-32.8365974426 15.5979318619 68.1826553345
-32.8394126892 15.6019535065 67.9842529297
-32.8422050476 15.6059627533 67.7858352661
-32.8442993164 15.6096019745 67.5873260498
-32.8451423645 15.6125726700 67.3886718750
-32.8445014954 15.6147537231 67.1898345947
-32.8425559998 15.6162385941 66.9908294678
-32.8397789001 15.6172828674 66.7917098999
-32.8367195129 15.6181755066 66.5925445557
-32.8337936401 15.6191396713 66.3933792114
-32.8312530518 15.6203107834 66.1942443848
-32.8292694092 15.6217756271 65.9951553345
-32.8280868530 15.6236696243 65.7961502075
-32.8283157349 15.6263151169 65.5973052979
-32.8311462402 15.6303462982 65.3987579346
-32.8382148743 15.6366367340 65.2007293701
-32.8507690430 15.6458501816 65.0033721924
-32.8683471680 15.6577367783 64.8066482544
-32.8882713318 15.6708765030 64.6102218628
-32.9071464539 15.6834545135 64.4136810303
-32.9234313965 15.6946535110 64.2168350220
-32.9388084412 15.7053689957 64.0198822021
-32.9568405151 15.7174987793 63.8232727051
-32.9799880981 15.7323532104 63.6273345947
-33.0075454712 15.7495546341 63.4319877625
-33.0362358093 15.7673606873 63.2368164063
-33.0625877380 15.7839202881 63.0413665771
-33.0847129822 15.7982292175 62.8453865051
-33.1026306152 15.8102960587 62.6488723755
-33.1180229187 15.8210191727 62.4520378113
-33.1341323853 15.8321228027 62.2553100586
-33.1548652649 15.8456878662 62.0592117310
-33.1823921204 15.8628730774 61.8640441895
-33.2145843506 15.8825416565 61.6695365906
-33.2449645996 15.9012451172 61.4748153687
-33.2659873962 15.9149627686 61.2788429260
-33.2731018066 15.9212760925 61.0809783936
-33.2668762207 15.9204835892 60.8812675476
-33.2522354126 15.9152107239 60.6803703308
-33.2357940674 15.9089784622 60.4791831970
-33.2230758667 15.9047298431 60.2784881592
-33.2173614502 15.9042119980 60.0787467957
-33.2201576233 15.9082250595 59.8801956177
-33.2316131592 15.9168500900 59.6828651428
-33.2499923706 15.9291620255 59.4865341187
-33.2713775635 15.9430732727 59.2906455994
-33.2910308838 15.9560632706 59.0945281982
-33.3057708740 15.9664373398 58.8977127075
-33.3151283264 15.9739446640 58.7001190186
-33.3204994202 15.9793281555 58.5019416809
-33.3236007690 15.9835033417 58.3034248352
-33.3256378174 15.9871129990 58.1047439575
-33.3272972107 15.9905223846 57.9059944153
-33.3289985657 15.9939537048 57.7072448730
-33.3310470581 15.9975700378 57.5085372925
-33.3336372375 16.0014743805 57.3098983765
-33.3368110657 16.0056896210 57.1113433838
-33.3404846191 16.0101718903 56.9128570557
-33.3445587158 16.0148658752 56.7144241333
-33.3490371704 16.0197753906 56.5160484314
-33.3540496826 16.0249710083 56.3177490234
-33.3596649170 16.0304870605 56.1195373535
-33.3656272888 16.0361881256 55.9213752747
-33.3712310791 16.0416965485 55.7231521606
-33.3755149841 16.0465030670 55.5247192383
-33.3776397705 16.0501613617 55.3259391785
-33.3772621155 16.0524883270 55.1267509460
-33.3747863770 16.0536975861 54.9272155762
-33.3714981079 16.0544738770 54.7275352478
-33.3694915771 16.0559329987 54.5280456543
-33.3713798523 16.0594654083 54.3291664124
-33.3793678284 16.0662441254 54.1312713623
-33.3938407898 16.0764751434 53.9344329834
-33.4126129150 16.0889949799 53.7383079529
-33.4319992065 16.1018409729 53.5422973633
-33.4489555359 16.1133918762 53.3459014893
-33.4623298645 16.1230373383 53.1489257813
-33.4725151062 16.1309871674 52.9514198303
-33.4805297852 16.1377792358 52.7535552979
-33.4873924255 16.1439590454 52.5555000305
-33.4939918518 16.1499996185 52.3573951721
-33.5012664795 16.1563987732 52.1594009399
-33.5105705261 16.1638774872 51.9617500305
-33.5239334106 16.1735172272 51.7647972107
-33.5434951782 16.1864547729 51.5689125061
-33.5701293945 16.2031536102 51.3742637634
-33.6024932861 16.2229061127 51.1806335449
-33.6377449036 16.2441883087 50.9875373840
-33.6729621887 16.2654571533 50.7944755554
-33.7054176331 16.2852535248 50.6009674072
-33.7318344116 16.3018360138 50.4064331055
-33.7488861084 16.3134346008 50.2102661133
-33.7549934387 16.3192138672 50.0121688843
-33.7511825562 16.3197116852 49.8123054504
-33.7398910522 16.3162326813 49.6110839844
-33.7234497070 16.3100147247 49.4089088440
-33.7039718628 16.3021812439 49.2061538696
-33.6846008301 16.2944049835 49.0033760071
-33.6704330444 16.2893943787 48.8015022278
-33.6675796509 16.2904071808 48.6016616821
-33.6804924011 16.2998065948 48.4046897888
-33.7091827393 16.3175964355 48.2106285095
-33.7483329773 16.3409538269 48.0185241699
-33.7894287109 16.3653450012 47.8268241882
-33.8249053955 16.3867435455 47.6341285706
-33.8515281677 16.4034347534 47.4398155212
-33.8707122803 16.4161682129 47.2441329956
-33.8863906860 16.4270343781 47.0478096008
-33.9026069641 16.4381904602 46.8515968323
-33.9216766357 16.4508609772 46.6559333801
-33.9428024292 16.4646282196 46.4606781006
-33.9618911743 16.4773101807 46.2650527954
-33.9734420776 16.4859809875 46.0679969788
-33.9738159180 16.4887084961 45.8687934875
-33.9636268616 16.4858188629 45.6675415039
-33.9476623535 16.4798583984 45.4651412964
-33.9324798584 16.4743118286 45.2628555298
-33.9235229492 16.4720783234 45.0617561340
-33.9237136841 16.4747104645 44.8624191284
-33.9335632324 16.4824771881 44.6649742126
-33.9514160156 16.4945030212 44.4691123962
-33.9736557007 16.5088596344 44.2741317749
-33.9958877563 16.5232124329 44.0791702271
-34.0148925781 16.5358486176 43.8835830688
-34.0296859741 16.5462436676 43.6871643066
-34.0410003662 16.5547904968 43.4900588989
-34.0502967834 16.5622653961 43.2925491333
-34.0591545105 16.5695056915 43.0949516296
-34.0692329407 16.5773944855 42.8976058960
-34.0823745728 16.5869121552 42.7008819580
-34.1002578735 16.5989513397 42.5051383972
-34.1234169006 16.6137962341 42.3104896545
-34.1506080627 16.6307830811 42.1166915894
-34.1796646118 16.6487598419 41.9233093262
-34.2091178894 16.6669502258 41.7300338745
-34.2384834290 16.6850929260 41.5367736816
-34.2667388916 16.7026443481 41.3433113098
-34.2911338806 16.7181434631 41.1490669250
-34.3081893921 16.7297401428 40.9533042908
-34.3159904480 16.7364196777 40.7555961609
-34.3154182434 16.7386436462 40.5561180115
-34.3094444275 16.7379989624 40.3554763794
-34.3016777039 16.7363986969 40.1544342041
-34.2952117920 16.7354927063 39.9536437988
-34.2920494080 16.7363433838 39.7535438538
-34.2929496765 16.7393531799 39.5543022156
-34.2976913452 16.7444019318 39.3558769226
-34.3056297302 16.7511558533 39.1581420898
-34.3163299561 16.7593727112 38.9610061646
-34.3298912048 16.7691116333 38.7644958496
-34.3465919495 16.7805194855 38.5686798096
-34.3657951355 16.7932586670 38.3734283447
-34.3852424622 16.8061256409 38.1782455444
-34.4020080566 16.8175678253 37.9824829102
-34.4144287109 16.8267002106 37.7857704163
-34.4228973389 16.8337345123 37.5881843567
-34.4289627075 16.8394870758 37.3900604248
-34.4340057373 16.8446998596 37.1917037964
-34.4387664795 16.8497600555 36.9932785034
-34.4435272217 16.8548240662 36.7948493958
-34.4484672546 16.8599796295 36.5964546204
-34.4538154602 16.8653545380 36.3981475830
-34.4599113464 16.8711261749 36.2000083923
-34.4671630859 16.8775100708 36.0021247864
-34.4760284424 16.8847541809 35.8046112061
-34.4870986938 16.8931694031 35.6076049805
-34.5013885498 16.9032955170 35.4113464355
-34.5205917358 16.9160327911 35.2162284851
-34.5467720032 16.9324741364 35.0227432251
-34.5810661316 16.9532279968 34.8311691284
-34.6221923828 16.9776134491 34.6412315369
-34.6660995483 17.0034732819 34.4519844055
-34.7072868347 17.0278892517 34.2621536255
-34.7409934998 17.0483303070 34.0706100464
-34.7648582458 17.0635414124 33.8767738342
-34.7793197632 17.0737552643 33.6807365417
-34.7866706848 17.0801906586 33.4830169678
-34.7893524170 17.0841464996 33.2841835022
-34.7886047363 17.0862827301 33.0845222473
-34.7846260071 17.0866985321 32.8840713501
-34.7780609131 17.0857429504 32.6829795837
-34.7708702087 17.0844554901 32.4817199707
-34.7653999329 17.0840816498 32.2808494568
-34.7631072998 17.0853958130 32.0807342529
-34.7646789551 17.0887641907 31.8815402985
-34.7709884644 17.0946483612 31.6834926605
-34.7832145691 17.1036758423 31.4868907928
-34.8016624451 17.1160068512 31.2918224335
-34.8247451782 17.1308002472 31.0979080200
-34.8498229980 17.1466541290 30.9045085907
-34.8752937317 17.1627159119 30.7112274170
-34.9016113281 17.1792278290 30.5181846619
-34.9300994873 17.1968898773 30.3257064819
-34.9608726501 17.2157688141 30.1338272095
-34.9921302795 17.2349014282 29.9421024323
-35.0215263367 17.2530479431 29.7499408722
-35.0481414795 17.2697143555 29.5571098328
-35.0726394653 17.2852573395 29.3637714386
-35.0952987671 17.2998237610 29.1699886322
-35.1142158508 17.3124008179 28.9752731323
-35.1261940002 17.3212928772 28.7788066864
-35.1299552917 17.3258247375 28.5802459717
-35.1286468506 17.3276596069 28.3803787231
-35.1287803650 17.3302650452 28.1808681488
-35.1360282898 17.3366451263 27.9831771851
-35.1513366699 17.3473052979 27.7875690460
-35.1710243225 17.3602924347 27.5931053162
-35.1902694702 17.3730449677 27.3985424042
-35.2061920166 17.3840312958 27.2031288147
-35.2183341980 17.3930130005 27.0067405701
-35.2274818420 17.4004020691 26.8095703125
-35.2344703674 17.4066448212 26.6118335724
-35.2396430969 17.4119243622 26.4136180878
-35.2428131104 17.4161396027 26.2148666382
-35.2436294556 17.4191055298 26.0154857635
-35.2421569824 17.4208564758 25.8154850006
-35.2394828796 17.4219703674 25.6151504517
-35.2379264832 17.4236793518 25.4150981903
-35.2403182983 17.4274806976 25.2160873413
-35.2483711243 17.4342899323 25.0185890198
-35.2615165710 17.4438037872 24.8224601746
-35.2775840759 17.4548664093 24.6271266937
-35.2948341370 17.4665584564 24.4321250916
-35.3130836487 17.4787788391 24.2374076843
-35.3325157166 17.4916286469 24.0430259705
-35.3515434265 17.5042629242 23.8485469818
-35.3662948608 17.5146274567 23.6529159546
-35.3730430603 17.5207424164 23.4550991058
-35.3713912964 17.5224018097 23.2549686432
-35.3647727966 17.5214214325 23.0534553528
-35.3579826355 17.5203514099 22.8518714905
-35.3547477722 17.5211677551 22.6512527466
-35.3573265076 17.5250720978 22.4522304535
-35.3670692444 17.5327777863 22.2551956177
-35.3843383789 17.5444774628 22.0602664948
-35.4078063965 17.5594673157 21.8670845032
-35.4346351624 17.5762424469 21.6748676300
-35.4625320435 17.5935821533 21.4829788208
-35.4921607971 17.6118412018 21.2916049957
-35.5270080566 17.6328697205 21.1017379761
-35.5698890686 17.6581611633 20.9141883850
-35.6192054749 17.6868667603 20.7285194397
-35.6687469482 17.7156906128 20.5429706573
-35.7113113403 17.7408123016 20.3554897308
-35.7427444458 17.7600269318 20.1648674011
-35.7632255554 17.7734279633 19.9711322784
-35.7758293152 17.7826499939 19.7751464844
-35.7843437195 17.7897014618 19.5779876709
-35.7919273376 17.7962570190 19.3805561066
-35.8009071350 17.8035545349 19.1835308075
-35.8130836487 17.8125514984 18.9874362946
-35.8295021057 17.8237953186 18.7925815582
-35.8494720459 17.8369255066 18.5987777710
-35.8700447083 17.8503723145 18.4051666260
-35.8872146606 17.8620166779 18.2105731964
-35.8983421326 17.8704528809 18.0142135620
-35.9036369324 17.8757972717 17.8161373138
-35.9058570862 17.8795070648 17.6171436310
-35.9090156555 17.8837165833 17.4184207916
-35.9171905518 17.8905887604 17.2211837769
-35.9331588745 17.9015941620 17.0262680054
-35.9566040039 17.9165649414 16.8335952759
-35.9832954407 17.9332580566 16.6419162750
-36.0068702698 17.9482975006 16.4493293762
-36.0222892761 17.9590110779 16.2543106079
-36.0280342102 17.9645919800 16.0563812256
-36.0257263184 17.9659042358 15.8560152054
-36.0186691284 17.9646930695 15.6541919708
-36.0109634399 17.9631404877 15.4521503448
-36.0072212219 17.9636898041 15.2512931824
-36.0116653442 17.9685802460 15.0529146194
-36.0265769958 17.9790248871 14.8577356339
-36.0515747070 17.9948196411 14.6656589508
-36.0843391418 18.0147323608 14.4759941101
-36.1215553284 18.0370063782 14.2877349854
-36.1593627930 18.0595912933 14.0997009277
-36.1944122314 18.0807132721 13.9108543396
-36.2256584167 18.0998210907 13.7208671570
-36.2546577454 18.1177349091 13.5302133560
-36.2833137512 18.1354656219 13.3394832611
-36.3113632202 18.1528759003 13.1485910416
-36.3363838196 18.1686782837 12.9567804337
-36.3559036255 18.1815624237 12.7632646561
-36.3689727783 18.1910266876 12.5677356720
-36.3760337830 18.1973056793 12.3703193665
-36.3780899048 18.2009277344 12.1713171005
-36.3762054443 18.2024631500 11.9710588455
-36.3715095520 18.2025070190 11.7698917389
-36.3652572632 18.2017250061 11.5682106018
-36.3589324951 18.2009067535 11.3664846420
-36.3543510437 18.2010116577 11.1652946472
-36.3537330627 18.2032184601 10.9653558731
-36.3598136902 18.2089786530 10.7675561905
-36.3757438660 18.2199573517 10.5729217529
-36.4043045044 18.2376365662 10.3823747635
-36.4462394714 18.2624053955 10.1961803436
-36.4986686707 18.2927379608 10.0134353638
-36.5557098389 18.3255138397 9.8322515488
-36.6114883423 18.3576202393 9.6507272720
-36.6625633240 18.3872318268 9.4677371979
-36.7073402405 18.4135017395 9.2827482224
-36.7441024780 18.4355239868 9.0951871872
-36.7709426880 18.4522857666 8.9044075012
-36.7875137329 18.4636039734 8.7102746964
-36.7960739136 18.4706726074 8.5135107040
-36.8006896973 18.4756526947 8.3154439926
-36.8058586121 18.4809265137 8.1175546646
-36.8155632019 18.4886035919 7.9211668968
-36.8326339722 18.5001869202 7.7272315025
-36.8580703735 18.5162010193 7.5360980034
-36.8907623291 18.5360641479 7.3474140167
-36.9281082153 18.5583915710 7.1603236198
-36.9669036865 18.5814876556 6.9737620354
-37.0038681030 18.6036109924 6.7866277695
-37.0363578796 18.6233654022 6.5980272293
-37.0636901855 18.6403827667 6.4077181816
-37.0875282288 18.6555500031 6.2162547112
-37.1100502014 18.6700191498 6.0243663788
-37.1310691833 18.6836891174 5.8319869041
-37.1472930908 18.6948204041 5.6379919052
-37.1550750732 18.7014751434 5.4411258698
-37.1540031433 18.7034397125 5.2412295341
-37.1474800110 18.7025165558 5.0394506454
-37.1401176453 18.7011451721 4.8373603821
-37.1351165771 18.7010288239 4.6360611916
-37.1337318420 18.7028274536 4.4359908104
-37.1362075806 18.7066726685 4.2372403145
-37.1429862976 18.7127971649 4.0399713516
-37.1554718018 18.7219467163 3.8446826935
-37.1758651733 18.7352867126 3.6521518230
-37.2060813904 18.7538299561 3.4630622864
-37.2466201782 18.7778434753 3.2776107788
-37.2959785461 18.8065280914 3.0952949524
-37.3502426147 18.8378143311 2.9147598743
-37.4032211304 18.8684139252 2.7338371277
-37.4485244751 18.8949508667 2.5502772331
-37.4829597473 18.9157257080 2.3629319668
-37.5078620911 18.9314517975 2.1722543240
-37.5273437500 18.9443035126 1.9796766043
-37.5456123352 18.9565143585 1.7866848707
-37.5656280518 18.9696502686 1.5943300724
-37.5885963440 18.9843482971 1.4030432701
-37.6134605408 19.0000534058 1.2124569416
-37.6371231079 19.0151195526 1.0214626789
-37.6561088562 19.0277080536 0.8288128376
-37.6687316895 19.0369243622 0.6338900924
-37.6757164001 19.0431556702 0.4369422197
-37.6791343689 19.0474987030 0.2387047261
-37.6812400818 19.0511455536 0.0399848446
-30.3307170868 -20.3014278412 80.1720733643
-30.3480205536 -20.3118095398 79.9734268188
-30.3755168915 -20.3285751343 79.7754440308
-30.4035625458 -20.3456878662 79.5775299072
-30.4250259399 -20.3586730957 79.3792114258
-30.4376430511 -20.3661174774 79.1803131104
-30.4430599213 -20.3690490723 78.9809417725
-30.4447288513 -20.3696327209 78.7813034058
-30.4464836121 -20.3702697754 78.5816650391
-30.4517917633 -20.3731307983 78.3822631836
-30.4627895355 -20.3795604706 78.1832580566
-30.4789962769 -20.3892536163 77.9846191406
-30.4967117310 -20.3998908997 77.7861099243
-30.5103816986 -20.4079952240 77.5873184204
-30.5156021118 -20.4108047485 77.3879089355
-30.5117225647 -20.4079093933 77.1878280640
-30.5020656586 -20.4013957977 76.9872970581
-30.4916763306 -20.3944225311 76.7866821289
-30.4845428467 -20.3894882202 76.5862960815
-30.4825439453 -20.3877735138 76.3862762451
-30.4861984253 -20.3896007538 76.1866760254
-30.4954795837 -20.3949527740 75.9875106812
-30.5094947815 -20.4032726288 75.7887268066
-30.5259380341 -20.4131126404 75.5901336670
-30.5417270660 -20.4225444794 75.3915023804
-30.5545272827 -20.4301033020 75.1926422119
-30.5634231567 -20.4352149963 74.9934692383
-30.5681285858 -20.4377002716 74.7939453125
-30.5679531097 -20.4371280670 74.5940170288
-30.5617179871 -20.4327564240 74.3935623169
-30.5487709045 -20.4241790771 74.1925277710
-30.5304164886 -20.4122142792 73.9909973145
-30.5109901428 -20.3995761871 73.7893295288
-30.4973678589 -20.3905773163 73.5881347656
-30.4960823059 -20.3893070221 73.3879852295
-30.5093517303 -20.3971595764 73.1890945435
-30.5333919525 -20.4117622375 72.9911727905
-30.5608291626 -20.4284934998 72.7935791016
-30.5850009918 -20.4431762695 72.5957183838
-30.6025066376 -20.4536838531 72.3972702026
-30.6129550934 -20.4597682953 72.1981887817
-30.6174411774 -20.4621162415 71.9985580444
-30.6174087524 -20.4616336823 71.7985076904
-30.6142082214 -20.4591636658 71.5981369019
-30.6090583801 -20.4554729462 71.3975753784
-30.6031627655 -20.4513149261 71.1969223022
-30.5978813171 -20.4475421906 70.9962997437
-30.5948467255 -20.4451751709 70.7958831787
-30.5959606171 -20.4454097748 70.5958480835
-30.6031246185 -20.4494342804 70.3964004517
-30.6174411774 -20.4579448700 70.1976547241
-30.6380882263 -20.4704208374 69.9995422363
-30.6619033813 -20.4848823547 69.8017654419
-30.6846427917 -20.4986686707 69.6039047241
-30.7030887604 -20.5097656250 69.4056320190
-30.7161216736 -20.5174694061 69.2068099976
-30.7241706848 -20.5220489502 69.0074844360
-30.7281780243 -20.5240974426 68.8077468872
-30.7290763855 -20.5241966248 68.6076660156
-30.7277832031 -20.5229225159 68.4073562622
-30.7252845764 -20.5208930969 68.2068939209
-30.7225894928 -20.5187397003 68.0064010620
-30.7205772400 -20.5170154572 67.8059616089
-30.7198200226 -20.5160770416 67.6056442261
-30.7204685211 -20.5160198212 67.4054718018
-30.7222557068 -20.5166740417 67.2054061890
-30.7245388031 -20.5176410675 67.0053863525
-30.7263889313 -20.5183372498 66.8053131104
-30.7266025543 -20.5180072784 66.6050415039
-30.7237834930 -20.5157756805 66.4044189453
-30.7169017792 -20.5109996796 66.2033233643
-30.7063465118 -20.5039196014 66.0017929077
-30.6944961548 -20.4960289001 65.8000793457
-30.6848297119 -20.4895057678 65.5985946655
-30.6803665161 -20.4862442017 65.3976821899
-30.6831207275 -20.4875068665 65.1975936890
-30.6944789886 -20.4941596985 64.9985046387
-30.7149848938 -20.5065479279 64.8004989624
-30.7434349060 -20.5239143372 64.6034469604
-30.7766113281 -20.5442428589 64.4069900513
-30.8099040985 -20.5646457672 64.2105865479
-30.8380126953 -20.5817985535 64.0135879517
-30.8558349609 -20.5925045013 63.8153686523
-30.8600025177 -20.5946521759 63.6154937744
-30.8503036499 -20.5881099701 63.4139099121
-30.8300342560 -20.5749416351 63.2109947205
-30.8050403595 -20.5588111877 63.0074501038
-30.7816505432 -20.5436878204 62.8040580750
-30.7643413544 -20.5323734283 62.6013832092
-30.7546215057 -20.5258159637 62.3996315002
-30.7516174316 -20.5234680176 62.1987113953
-30.7534160614 -20.5241317749 61.9983863831
-30.7582283020 -20.5266838074 61.7984390259
-30.7652473450 -20.5306167603 61.5987701416
-30.7749767303 -20.5362510681 61.3994522095
-30.7885799408 -20.5443134308 61.2006416321
-30.8063068390 -20.5549583435 61.0023803711
-30.8263950348 -20.5670852661 60.8044471741
-30.8457641602 -20.5787601471 60.6064300537
-30.8619079590 -20.5884151459 60.4080009460
-30.8740215302 -20.5955429077 60.2090415955
-30.8826160431 -20.6004638672 60.0096092224
-30.8885478973 -20.6037178040 59.8098182678
-30.8924865723 -20.6057224274 59.6097526550
-30.8948516846 -20.6067390442 59.4094619751
-30.8959274292 -20.6069488525 59.2089843750
-30.8959503174 -20.6064987183 59.0083503723
-30.8951721191 -20.6055450439 58.8075942993
-30.8938617706 -20.6042594910 58.6067504883
-30.8922748566 -20.6027984619 58.4058532715
-30.8905830383 -20.6012744904 58.2049255371
-30.8888492584 -20.5997219086 58.0039787292
-30.8870525360 -20.5981311798 57.8030052185
-30.8851737976 -20.5964889526 57.6020088196
-30.8832836151 -20.5948371887 57.4009933472
-30.8816204071 -20.5933303833 57.1999969482
-30.8806171417 -20.5922374725 56.9990844727
-30.8808670044 -20.5919284821 56.7983360291
-30.8830051422 -20.5928020477 56.5978584290
-30.8875350952 -20.5951766968 56.3977241516
-30.8946952820 -20.5992012024 56.1979713440
-30.9044647217 -20.6048583984 55.9986076355
-30.9167976379 -20.6121234894 55.7996330261
-30.9320926666 -20.6212463379 55.6011085510
-30.9514827728 -20.6329345703 55.4032096863
-30.9764041901 -20.6480903625 55.2061691284
-31.0072841644 -20.6669826508 55.0100669861
-31.0423145294 -20.6884746552 54.8146286011
-31.0774936676 -20.7100601196 54.6192512512
-31.1081218719 -20.7287940979 54.4232101440
-31.1308879852 -20.7425994873 54.2259712219
-31.1452426910 -20.7511329651 54.0274429321
-31.1532363892 -20.7556800842 53.8279190063
-31.1580638885 -20.7582397461 53.6278991699
-31.1625499725 -20.7605857849 53.4278182983
-31.1685848236 -20.7639045715 53.2279777527
-31.1773948669 -20.7689628601 53.0285758972
-31.1899585724 -20.7763710022 52.8297767639
-31.2068557739 -20.7864990234 52.6316871643
-31.2275257111 -20.7989902496 52.4342155457
-31.2498474121 -20.8125171661 52.2370338440
-31.2709903717 -20.8253059387 52.0396766663
-31.2889499664 -20.8360977173 51.8418159485
-31.3031940460 -20.8445625305 51.6433563232
-31.3140964508 -20.8509311676 51.4443511963
-31.3220882416 -20.8554763794 51.2448616028
-31.3274059296 -20.8583431244 51.0449295044
-31.3303470612 -20.8597221375 50.8445892334
-31.3315124512 -20.8599872589 50.6439476013
-31.3317432404 -20.8596668243 50.4431343079
-31.3318634033 -20.8592758179 50.2422866821
-31.3324432373 -20.8591747284 50.0415077209
-31.3337383270 -20.8595218658 49.8408432007
-31.3357524872 -20.8603172302 49.6402893066
-31.3383350372 -20.8614711761 49.4398231506
-31.3412513733 -20.8628349304 49.2394065857
-31.3442077637 -20.8642215729 49.0389900208
-31.3469238281 -20.8654594421 48.8385238647
-31.3492488861 -20.8664512634 48.6379814148
-31.3513031006 -20.8672733307 48.4373779297
-31.3535404205 -20.8682098389 48.2368011475
-31.3567562103 -20.8697605133 48.0363883972
-31.3620567322 -20.8726177216 47.8363418579
-31.3707656860 -20.8776111603 47.6368980408
-31.3841056824 -20.8855075836 47.4382896423
-31.4024486542 -20.8965415955 47.2405891418
-31.4241714478 -20.9096946716 47.0435180664
-31.4451522827 -20.9223804474 46.8463325500
-31.4602127075 -20.9313564301 46.6480789185
-31.4662876129 -20.9347000122 46.4481887817
-31.4648666382 -20.9333419800 46.2469100952
-31.4612255096 -20.9305953979 46.0452117920
-31.4606437683 -20.9297637939 45.8440589905
-31.4649562836 -20.9320011139 45.6438064575
-31.4727039337 -20.9363937378 45.4441909790
-31.4821300507 -20.9418354034 45.2448921204
-31.4934864044 -20.9484901428 45.0459556580
-31.5084991455 -20.9574356079 44.8477134705
-31.5280475616 -20.9692249298 44.6503448486
-31.5506324768 -20.9829177856 44.4535675049
-31.5731525421 -20.9965705872 44.2568016052
-31.5930767059 -21.0085945129 44.0595550537
-31.6097640991 -21.0185909271 43.8617019653
-31.6240882874 -21.0271053314 43.6634025574
-31.6373519897 -21.0349559784 43.4649047852
-31.6506614685 -21.0428333282 43.2664222717
-31.6649074554 -21.0512981415 43.0681304932
-31.6809616089 -21.0608978271 42.8702011108
-31.6993885040 -21.0719852448 42.6727485657
-31.7196140289 -21.0841979980 42.4756698608
-31.7394771576 -21.0961856842 42.2785339355
-31.7562103271 -21.1062107086 42.0807876587
-31.7681560516 -21.1132335663 41.8820991516
-31.7755126953 -21.1173801422 41.6824951172
-31.7796001434 -21.1194763184 41.4822311401
-31.7817268372 -21.1203441620 41.2815628052
-31.7827548981 -21.1205234528 41.0806617737
-31.7833576202 -21.1204338074 40.8796653748
-31.7845134735 -21.1206932068 40.6787681580
-31.7878646851 -21.1223278046 40.4783096313
-31.7955875397 -21.1267032623 40.2787475586
-31.8095073700 -21.1349639893 40.0804595947
-31.8296718597 -21.1471405029 39.8834724426
-31.8535690308 -21.1616573334 39.6872787476
-31.8770980835 -21.1759433746 39.4910316467
-31.8967380524 -21.1877899170 39.2939872742
-31.9110240936 -21.1962814331 39.0958404541
-31.9203968048 -21.2016906738 38.8966636658
-31.9262237549 -21.2048778534 38.6967353821
-31.9300537109 -21.2068138123 38.4963836670
-31.9333209991 -21.2083969116 38.2959060669
-31.9372997284 -21.2104244232 38.0955696106
-31.9431076050 -21.2136001587 37.8956184387
-31.9517478943 -21.2185497284 37.6962738037
-31.9641246796 -21.2258453369 37.4977378845
-31.9809741974 -21.2359428406 37.3001708984
-32.0024108887 -21.2489166260 37.1036148071
-32.0270767212 -21.2639141083 36.9077796936
-32.0517807007 -21.2789382935 36.7119750977
-32.0726356506 -21.2915477753 36.5153503418
-32.0870399475 -21.3001117706 36.3173255920
-32.0946769714 -21.3044357300 36.1178131104
-32.0969276428 -21.3053817749 35.9171066284
-32.0957489014 -21.3041744232 35.7156295776
-32.0929832458 -21.3019733429 35.5137825012
-32.0901603699 -21.2997379303 35.3119087219
-32.0883865356 -21.2981605530 35.1102523804
-32.0881805420 -21.2975635529 34.9089355469
-32.0894050598 -21.2978668213 34.7079315186
-32.0913619995 -21.2986259460 34.5070762634
-32.0929222107 -21.2991371155 34.3061256409
-32.0925216675 -21.2984199524 34.1047172546
-32.0882682800 -21.2952861786 33.9024162292
-32.0786628723 -21.2887973785 33.6988677979
-32.0639648438 -21.2791156769 33.4941215515
-32.0469589233 -21.2679882050 33.2888107300
-32.0320930481 -21.2581977844 33.0839576721
-32.0236778259 -21.2524547577 32.8805694580
-32.0250701904 -21.2528610229 32.6794395447
-32.0389671326 -21.2611083984 32.4812240601
-32.0671348572 -21.2783031464 32.2863578796
-32.1089134216 -21.3040332794 32.0947227478
-32.1604614258 -21.3358879089 31.9054355621
-32.2167701721 -21.3707275391 31.7173385620
-32.2747421265 -21.4066104889 31.5297031403
-32.3334617615 -21.4429626465 31.3423175812
-32.3915977478 -21.4789505005 31.1548652649
-32.4459342957 -21.5125541687 30.9665737152
-32.4934310913 -21.5418701172 30.7767066956
-32.5340995789 -21.5669040680 30.5852489471
-32.5709571838 -21.5895500183 30.3929195404
-32.6071586609 -21.6117820740 30.2004680634
-32.6435089111 -21.6341094971 30.0080947876
-32.6785354614 -21.6556072235 29.8154392242
-32.7099761963 -21.6748542786 29.6219444275
-32.7354354858 -21.6903514862 29.4270153046
-32.7522544861 -21.7004337311 29.2299880981
-32.7583007813 -21.7037582397 29.0303134918
-32.7539825439 -21.7005844116 28.8280754089
-32.7433090210 -21.6934261322 28.6242408752
-32.7322540283 -21.6860275269 28.4202823639
-32.7258186340 -21.6815261841 28.2174491882
-32.7265739441 -21.6815319061 28.0163936615
-32.7352256775 -21.6864929199 27.8173065186
-32.7514915466 -21.6962242126 27.6201381683
-32.7738647461 -21.7097892761 27.4245204926
-32.7992439270 -21.7252368927 27.2296829224
-32.8238716125 -21.7402133942 27.0346794128
-32.8453063965 -21.7531871796 26.8388862610
-32.8635520935 -21.7641620636 26.6422977448
-32.8806228638 -21.7744007111 26.4454231262
-32.8992462158 -21.7856121063 26.2489585876
-32.9214401245 -21.7990646362 26.0534267426
-32.9472541809 -21.8147869110 25.8588504791
-32.9745140076 -21.8314113617 25.6646709442
-33.0003128052 -21.8471240997 25.4701404572
-33.0235214233 -21.8612117767 25.2749614716
-33.0460395813 -21.8748664856 25.0796222687
-33.0715942383 -21.8904247284 24.8850975037
-33.1026992798 -21.9094657898 24.6920547485
-33.1380386353 -21.9311599731 24.5001583099
-33.1726837158 -21.9524192810 24.3081169128
-33.2013435364 -21.9699230194 24.1145286560
-33.2217903137 -21.9822807312 23.9187927246
-33.2356414795 -21.9905014038 23.7213172913
-33.2464866638 -21.9968357086 23.5230484009
-33.2574234009 -22.0032291412 23.3248081207
-33.2696342468 -22.0104198456 23.1269111633
-33.2822799683 -22.0178833008 22.9291362762
-33.2933807373 -22.0243778229 22.7309513092
-33.3011932373 -22.0288105011 22.5318813324
-33.3055305481 -22.0310649872 22.3318691254
-33.3083114624 -22.0323429108 22.1314277649
-33.3130722046 -22.0348606110 21.9315147400
-33.3238029480 -22.0411243439 21.7332305908
-33.3435440063 -22.0530395508 21.5374164581
-33.3727149963 -22.0708656311 21.3442096710
-33.4079818726 -22.0925159454 21.1527099609
-33.4432754517 -22.1141834259 20.9612560272
-33.4730377197 -22.1323814392 20.7683105469
-33.4951820374 -22.1458034515 20.5732803345
-33.5112190247 -22.1553936005 20.3765697479
-33.5241432190 -22.1630325317 20.1790027618
-33.5363655090 -22.1702308655 19.9812450409
-33.5489845276 -22.1776790619 19.7836036682
-33.5620346069 -22.1853961945 19.5860900879
-33.5750160217 -22.1930713654 19.3885631561
-33.5874137878 -22.2003803253 19.1908779144
-33.5991249084 -22.2072582245 18.9930019379
-33.6107673645 -22.2140941620 18.7951126099
-33.6237525940 -22.2217712402 18.5976104736
-33.6396903992 -22.2313003540 18.4009571075
-33.6591835022 -22.2430591583 18.2053318024
-33.6809730530 -22.2562580109 18.0103816986
-33.7024993896 -22.2692928314 17.8153743744
-33.7215499878 -22.2807731628 17.6196708679
-33.7373390198 -22.2902088165 17.4230403900
-33.7503509521 -22.2979030609 17.2256164551
-33.7618141174 -22.3046264648 17.0277481079
-33.7735519409 -22.3115215302 16.8299655914
-33.7880096436 -22.3201217651 16.6329784393
-33.8077125549 -22.3320121765 16.4375381470
-33.8341903687 -22.3481540680 16.2441005707
-33.8673286438 -22.3684692383 16.0526466370
-33.9059219360 -22.3922061920 15.8628387451
-33.9488372803 -22.4186553955 15.6743507385
-33.9955215454 -22.4474697113 15.4870300293
-34.0456924438 -22.4784679413 15.3007993698
-34.0984268188 -22.5110759735 15.1153917313
-34.1510810852 -22.5436306000 14.9300241470
-34.1992568970 -22.5733814240 14.7433815002
-34.2387046814 -22.5976562500 14.5541772842
-34.2675704956 -22.6152935028 14.3618364334
-34.2869834900 -22.6270027161 14.1666755676
-34.3000221252 -22.6347160339 13.9696063995
-34.3105888367 -22.6408767700 13.7717933655
-34.3227081299 -22.6480102539 13.5744552612
-34.3396911621 -22.6581974030 13.3786029816
-34.3628349304 -22.6722469330 13.1846399307
-34.3906402588 -22.6892204285 12.9921236038
-34.4199180603 -22.7071170807 12.8000879288
-34.4482383728 -22.7244148254 12.6077871323
-34.4756317139 -22.7411289215 12.4152288437
-34.5042991638 -22.7586441040 12.2230911255
-34.5369758606 -22.7786731720 12.0322237015
-34.5751113892 -22.8021240234 11.8430824280
-34.6177978516 -22.8284320831 11.6553983688
-34.6621208191 -22.8557662964 11.4682731628
-34.7048263550 -22.8820858002 11.2806959152
-34.7443122864 -22.9063854218 11.0921592712
-34.7816314697 -22.9293270111 10.9029884338
-34.8196563721 -22.9527111053 10.7140808105
-34.8604507446 -22.9778327942 10.5260887146
-34.9027557373 -23.0039005280 10.3386192322
-34.9420928955 -23.0281085968 10.1502609253
-34.9739418030 -23.0476188660 9.9595708847
-34.9969329834 -23.0615749359 9.7660970688
-35.0131111145 -23.0712566376 9.5704736710
-35.0258789063 -23.0788002014 9.3737716675
-35.0382118225 -23.0860691071 9.1769361496
-35.0522918701 -23.0944347382 8.9806671143
