-28.7256031036 0.2866516709 45.1587486267
-28.6915416718 0.2866498232 44.9474868774
-28.6535892487 0.2865612805 44.7354927063
-28.6128845215 0.2864115536 44.5229530334
-28.5746555328 0.2863173485 44.3107872009
-28.5444259644 0.2864018679 44.0999603271
-28.5240650177 0.2867067754 43.8908233643
-28.5114288330 0.2871841490 43.6830101013
-28.5028781891 0.2877527475 43.4758911133
-28.4956264496 0.2883504331 43.2689819336
-28.4883575439 0.2889478803 43.0620460510
-28.4807453156 0.2895376980 42.8550262451
-28.4728755951 0.2901218534 42.6479339600
-28.4649639130 0.2907052040 42.4408111572
-28.4572677612 0.2912934124 42.2337036133
-28.4500064850 0.2918914258 42.0266532898
-28.4433269501 0.2925024927 41.8196830750
-28.4373207092 0.2931286395 41.6128158569
-28.4320240021 0.2937707007 41.4060554504
-28.4272422791 0.2944242656 41.1993675232
-28.4221458435 0.2950708866 40.9926071167
-28.4148082733 0.2956677079 40.7854042053
-28.4021873474 0.2961468995 40.5771980286
-28.3812713623 0.2964414656 40.3674049377
-28.3512115479 0.2965325415 40.1558609009
-28.3145122528 0.2964759469 39.9430122375
-28.2753543854 0.2963648140 39.7296371460
-28.2363300323 0.2962569296 39.5162277222
-28.1973609924 0.2961504757 39.3027610779
-28.1581077576 0.2960379422 39.0891799927
-28.1206226349 0.2959650159 38.8758735657
-28.0886344910 0.2960146666 38.6635589600
-28.0643329620 0.2962355018 38.4526710510
-28.0463695526 0.2965975702 38.2429656982
-28.0308170319 0.2970133722 38.0336914063
-28.0137901306 0.2973965108 37.8240966797
-27.9939002991 0.2977161109 37.6139068604
-27.9730243683 0.2980139554 37.4034843445
-27.9546222687 0.2983669043 37.1935043335
-27.9409389496 0.2988249362 36.9844207764
-27.9317531586 0.2993831038 36.7761955261
-27.9253654480 0.3000035584 36.5684967041
-27.9201736450 0.3006506562 36.3610153198
-27.9152641296 0.3013041019 36.1535720825
-27.9100208282 0.3019502163 35.9460372925
-27.9033775330 0.3025653064 35.7382049561
-27.8934230804 0.3031069040 35.5296783447
-27.8780441284 0.3035281003 35.3200302124
-27.8566780090 0.3038164079 35.1091346741
-27.8316059113 0.3040225506 34.8974418640
-27.8068466187 0.3042358160 34.6857681274
-27.7852516174 0.3045195043 34.4746971130
-27.7665081024 0.3048666716 34.2641716003
-27.7476596832 0.3052116334 34.0535850525
-27.7254676819 0.3054825068 33.8422698975
-27.6990528107 0.3056598306 33.6300354004
-27.6710491180 0.3058020473 33.4174270630
-27.6460323334 0.3060107529 33.2053871155
-27.6274986267 0.3063634634 32.9946594238
-27.6161270142 0.3068752289 32.7853965759
-27.6103553772 0.3075113893 32.5772857666
-27.6077976227 0.3082188666 32.3698272705
-27.6060295105 0.3089439571 32.1625213623
-27.6026153564 0.3096325994 31.9548511505
-27.5948982239 0.3102258444 31.7462444305
-27.5801525116 0.3106634021 31.5361118317
-27.5565776825 0.3109052777 31.3240547180
-27.5248394012 0.3109663129 31.1102008820
-27.4886360168 0.3109285533 30.8953285217
-27.4527015686 0.3108970225 30.6804561615
-27.4195213318 0.3109267354 30.4661197662
-27.3883323669 0.3110007942 30.2521610260
-27.3576908112 0.3110871613 30.0382671356
-27.3284015656 0.3112037182 29.8246154785
-27.3032646179 0.3114124238 29.6118240356
-27.2842960358 0.3117579222 29.4003429413
-27.2708148956 0.3122251332 29.1900329590
-27.2597713470 0.3127464652 28.9802322388
-27.2470645905 0.3132310212 28.7700347900
-27.2289886475 0.3135968149 28.5586109161
-27.2040233612 0.3138102293 28.3456134796
-27.1741333008 0.3139148057 28.1314697266
-27.1439113617 0.3140121996 27.9171962738
-27.1178722382 0.3142023981 27.7038135529
-27.0982704163 0.3145352304 27.4918365479
-27.0846042633 0.3149995208 27.2811622620
-27.0739994049 0.3155316710 27.0711517334
-27.0619640350 0.3160322607 26.8607864380
-27.0441608429 0.3164054155 26.6490783691
-27.0190048218 0.3166160285 26.4356479645
-26.9889545441 0.3167185783 26.2210502625
-26.9587593079 0.3168181479 26.0063667297
-26.9321384430 0.3169969320 25.7924556732
-26.9100551605 0.3172761798 25.5795440674
-26.8915634155 0.3176349998 25.3674259186
-26.8754692078 0.3180469871 25.1558265686
-26.8612422943 0.3185003400 24.9446296692
-26.8488922119 0.3189952970 24.7338371277
-26.8382339478 0.3195277750 24.5234127045
-26.8280963898 0.3200718164 24.3130836487
-26.8161716461 0.3205764592 24.1023044586
-26.8000507355 0.3209885657 23.8905048370
-26.7790431976 0.3212928772 23.6775112152
-26.7549095154 0.3215282261 23.4637336731
-26.7301654816 0.3217503428 23.2497653961
-26.7058238983 0.3219814897 23.0358486176
-26.6816215515 0.3222158551 22.8219184875
-26.6581687927 0.3224669397 22.6081237793
-26.6374912262 0.3227794766 22.3949546814
-26.6211624146 0.3231880963 22.1827945709
-26.6087665558 0.3236836791 21.9715518951
-26.5984134674 0.3242244422 21.7607746124
-26.5880985260 0.3247661293 21.5499801636
-26.5763607025 0.3252765536 21.3388118744
-26.5620288849 0.3257298768 21.1269779205
-26.5438804626 0.3260990977 20.9141750336
-26.5212860107 0.3263703883 20.7002410889
-26.4958801270 0.3265798986 20.4855728149
-26.4726295471 0.3268370628 20.2713890076
-26.4582481384 0.3272899389 20.0593605042
-26.4573078156 0.3280392587 19.8506393433
-26.4688072205 0.3290628493 19.6450023651
-26.4858283997 0.3302081525 19.4407444000
-26.4987564087 0.3312631845 19.2354698181
-26.5001144409 0.3320632875 19.0272922516
-26.4880847931 0.3325684667 18.8157329559
-26.4666347504 0.3328661621 18.6017665863
-26.4423408508 0.3331013918 18.3870372772
-26.4202480316 0.3333852589 18.1728229523
-26.4015140533 0.3337432742 17.9594192505
-26.3838348389 0.3341246545 17.7462463379
-26.3637542725 0.3344532847 17.5324230194
-26.3394889832 0.3346899152 17.3174877167
-26.3125514984 0.3348679245 17.1018218994
-26.2867393494 0.3350708485 16.8863964081
-26.2653598785 0.3353715241 16.6720676422
-26.2495288849 0.3357944787 16.4591331482
-26.2385597229 0.3363245428 16.2474250793
-26.2310218811 0.3369301856 16.0365810394
-26.2251663208 0.3375729322 15.8261499405
-26.2189140320 0.3382070661 15.6155948639
-26.2097320557 0.3387767971 15.4042491913
-26.1945056915 0.3392137289 15.1912918091
-26.1700191498 0.3394471109 14.9758625031
-26.1346950531 0.3394423723 14.7575292587
-26.0906753540 0.3392466605 14.5368375778
-26.0440597534 0.3389941156 14.3153858185
-26.0024681091 0.3388523161 14.0951967239
-25.9715366364 0.3389450312 13.8777790070
-25.9526672363 0.3393030763 13.6635284424
-25.9432716370 0.3398694098 13.4517745972
-25.9388885498 0.3405459821 13.2413387299
-25.9355297089 0.3412452042 13.0311594009
-25.9309196472 0.3419169486 12.8206233978
-25.9244022369 0.3425468504 12.6095514297
-25.9162254333 0.3431404233 12.3980073929
-25.9069309235 0.3437095582 12.1861362457
-25.8970909119 0.3442667723 11.9740896225
-25.8872852325 0.3448248804 11.7620258331
-25.8781051636 0.3453967869 11.5501060486
-25.8701457977 0.3459956348 11.3384943008
-25.8639659882 0.3466335833 11.1273469925
-25.8599567413 0.3473192751 10.9167757034
-25.8580570221 0.3480513096 10.7067661285
-25.8573036194 0.3488085270 10.4970560074
-25.8554153442 0.3495409787 10.2870178223
-25.8489246368 0.3501724899 10.0756826401
-25.8344612122 0.3506292105 9.8621053696
-25.8110637665 0.3508901298 9.6460008621
-25.7816562653 0.3510193527 9.4281711578
-25.7517547607 0.3511379957 9.2101507187
-25.7262096405 0.3513522744 8.9933023453
-25.7068119049 0.3517015874 8.7781381607
-25.6922664642 0.3521573544 8.5643043518
-25.6793003082 0.3526479006 8.3508853912
-25.6638050079 0.3530831039 8.1367177963
-25.6423320770 0.3533873856 7.9208164215
-25.6141166687 0.3535441756 7.7029533386
-25.5819282532 0.3536140621 7.4839048386
-25.5499973297 0.3536898196 7.2648749352
-25.5206394196 0.3538220823 7.0465273857
-25.4931697845 0.3539959490 6.8286705017
-25.4661979675 0.3541809022 6.6109080315
-25.4402408600 0.3543882370 6.3933892250
-25.4174728394 0.3546656072 6.1767458916
-25.3991889954 0.3550412357 5.9613585472
-25.3840312958 0.3554854989 5.7468423843
-25.3686637878 0.3559252918 5.5322318077
-25.3499946594 0.3562929034 5.3166222572
-25.3273620605 0.3565739989 5.0998163223
-25.3031520844 0.3568206728 4.8825035095
-25.2810096741 0.3571127951 4.6657528877
-25.2631664276 0.3574990630 4.4502253532
-25.2494201660 0.3579751253 4.2358698845
-25.2383441925 0.3585097194 4.0222721100
-25.2288608551 0.3590792418 3.8091175556
-25.2207736969 0.3596794009 3.5963509083
-25.2143821716 0.3603166938 3.3840644360
-25.2099113464 0.3609960675 3.1723279953
-25.2071895599 0.3617137969 2.9610946178
-25.2057113647 0.3624587059 2.7502152920
-25.2048912048 0.3632180989 2.5395171642
-25.2042827606 0.3639821708 2.3288676739
-25.2036743164 0.3647463024 2.1182026863
-25.2030963898 0.3655111194 1.9075316191
-25.2027397156 0.3662808537 1.6969120502
-25.2027244568 0.3670580983 1.4863816500
-25.2028617859 0.3678387403 1.2758830786
-25.2025909424 0.3686105013 1.0652455091
-25.2010536194 0.3693546653 0.8542063236
-25.1970462799 0.3700449765 0.6423953772
-25.1887493134 0.3706417084 0.4292495251
-25.1736640930 0.3710903525 0.2139927000
-38.5675888062 6.3032455444 135.0613098145
-38.5732650757 6.3050050735 134.8678283691
-38.5773620605 6.3064765930 134.6745147705
-38.5746421814 6.3067040443 134.4819183350
-38.5637016296 6.3054323196 134.2901763916
-38.5476989746 6.3032379150 134.0989379883
-38.5317726135 6.3010568619 133.9076690674
-38.5198402405 6.2996044159 133.7159576416
-38.5128479004 6.2990531921 133.5236816406
-38.5085105896 6.2989864349 133.3311309814
-38.5006408691 6.2982754707 133.1389160156
-38.4760780334 6.2945203781 132.9483795166
-38.4089393616 6.2829990387 132.7621307373
-38.2590866089 6.2563924789 132.5841217041
-37.9885253906 6.2077713013 132.4179992676
-37.5966110229 6.1370182037 132.2636108398
-37.1425018311 6.0549244881 132.1148834229
-36.7180023193 5.9782323837 131.9626770020
-36.3867301941 5.9185447693 131.8008117676
-36.1515655518 5.8763866425 131.6291809082
-35.9786376953 5.8455796242 131.4512481689
-35.8402175903 5.8210673332 131.2697753906
-35.7311019897 5.8018994331 131.0853271484
-35.6564369202 5.7890148163 130.8974609375
-35.6171951294 5.7825899124 130.7061767578
-35.6081428528 5.7816715240 130.5120086670
-35.6219711304 5.7849249840 130.3156890869
-35.6503372192 5.7908296585 130.1180419922
-35.6826133728 5.7974476814 129.9200439453
-35.7079429626 5.8027982712 129.7227172852
-35.7200317383 5.8057351112 129.5266113281
-35.7192420959 5.8063230515 129.3316497803
-35.7101173401 5.8053908348 129.1374206543
-35.6976432800 5.8038482666 128.9434509277
-35.6852760315 5.8023252487 128.7494506836
-35.6747856140 5.8011450768 128.5552673340
-35.6668510437 5.8004307747 128.3608245850
-35.6616058350 5.8002066612 128.1661376953
-35.6589622498 5.8004570007 127.9712066650
-35.6587142944 5.8011441231 127.7760543823
-35.6605186462 5.8022060394 127.5807189941
-35.6638679504 5.8035492897 127.3852386475
-35.6681289673 5.8050589561 127.1896820068
-35.6726684570 5.8066191673 126.9940872192
-35.6770133972 5.8081440926 126.7985076904
-35.6808815002 5.8095817566 126.6029586792
-35.6840171814 5.8108868599 126.4074554443
-35.6858520508 5.8119540215 126.2120437622
-35.6850395203 5.8125386238 126.0168380737
-35.6794090271 5.8122453690 125.8219909668
-35.6669082642 5.8106989861 125.6276626587
-35.6473884583 5.8078742027 125.4338455200
-35.6235466003 5.8042607307 125.2403259277
-35.5993385315 5.8005809784 125.0467834473
-35.5769805908 5.7972388268 124.8530578613
-35.5553665161 5.7940320969 124.6592407227
-35.5315628052 5.7904267311 124.4655456543
-35.5040473938 5.7861447334 124.2720794678
-35.4743614197 5.7814669609 124.0787277222
-35.4451103210 5.7768692970 123.8852844238
-35.4163055420 5.7723526955 123.6917648315
-35.3847579956 5.7673363686 123.4983978271
-35.3479728699 5.7613658905 123.3053359985
-35.3079528809 5.7548055649 123.1124420166
-35.2702407837 5.7486667633 122.9193344116
-35.2395706177 5.7438111305 122.7256774902
-35.2172050476 5.7404694557 122.5314025879
-35.2019386292 5.7384219170 122.3366165161
-35.1921844482 5.7373790741 122.1414337158
-35.1868286133 5.7371382713 121.9459304810
-35.1848487854 5.7375121117 121.7501907349
-35.1848258972 5.7382435799 121.5543060303
-35.1850090027 5.7390117645 121.3583908081
-35.1836318970 5.7394967079 121.1625671387
-35.1793174744 5.7394452095 120.9669113159
-35.1712837219 5.7387170792 120.7714767456
-35.1595420837 5.7373123169 120.5762329102
-35.1448516846 5.7353711128 120.3811492920
-35.1284103394 5.7331099510 120.1861419678
-35.1111679077 5.7307038307 119.9911422729
-35.0929946899 5.7281279564 119.7961654663
-35.0723495483 5.7251019478 119.6013031006
-35.0472984314 5.7212729454 119.4066467285
-35.0176506042 5.7166061401 119.2122116089
-34.9862861633 5.7116270065 119.0178298950
-34.9579467773 5.7071995735 118.8232192993
-34.9364356995 5.7040166855 118.6281814575
-34.9228630066 5.7022795677 118.4326782227
-34.9159812927 5.7017621994 118.2367782593
-34.9135513306 5.7020568848 118.0406188965
-34.9134483337 5.7027745247 117.8443145752
-34.9141464233 5.7036380768 117.6479644775
-34.9146766663 5.7044715881 117.4516067505
-34.9141502380 5.7051129341 117.2552947998
-34.9109420776 5.7052655220 117.0590972900
-34.9020042419 5.7043743134 116.8631668091
-34.8832015991 5.7016849518 116.6677017212
-34.8512039185 5.6965928078 116.4728393555
-34.8062171936 5.6891341209 116.2785339355
-34.7533988953 5.6802487373 116.0845413208
-34.7013320923 5.6715002060 115.8904266357
-34.6579284668 5.6643309593 115.6958312988
-34.6265945435 5.6593608856 115.5006332397
-34.6057701111 5.6563043594 115.3049087524
-34.5916709900 5.6544742584 115.1088485718
-34.5811882019 5.6533026695 114.9125976563
-34.5727462769 5.6525034904 114.7162399292
-34.5657234192 5.6519627571 114.5197982788
-34.5596885681 5.6516017914 114.3232879639
-34.5541000366 5.6513223648 114.1267395020
-34.5483283997 5.6510090828 113.9301834106
-34.5418663025 5.6505708694 113.7336273193
-34.5344581604 5.6499605179 113.5370941162
-34.5261039734 5.6491775513 113.3405685425
-34.5169982910 5.6482577324 113.1440505981
-34.5075302124 5.6472721100 112.9475250244
-34.4982414246 5.6463189125 112.7509613037
-34.4897155762 5.6455049515 112.5543518066
-34.4824829102 5.6449270248 112.3576736450
-34.4769096375 5.6446514130 112.1609115601
-34.4730186462 5.6446814537 111.9640731812
-34.4703903198 5.6449422836 111.7671737671
-34.4683609009 5.6453118324 111.5702362061
-34.4663581848 5.6456866264 111.3732833862
-34.4641075134 5.6460165977 111.1763229370
-34.4615821838 5.6462955475 110.9793548584
-34.4587173462 5.6465134621 110.7823867798
-34.4550323486 5.6465821266 110.5854187012
-34.4491996765 5.6462597847 110.3884963989
-34.4390335083 5.6451482773 110.1916809082
-34.4225120544 5.6428790092 109.9950103760
-34.3996734619 5.6394596100 109.7984771729
-34.3736877441 5.6354675293 109.6019897461
-34.3494796753 5.6317992210 109.4054031372
-34.3308601379 5.6291494370 109.2086410522
-34.3187446594 5.6276831627 109.0116729736
-34.3113479614 5.6270766258 108.8145675659
-34.3051490784 5.6266884804 108.6174163818
-34.2956314087 5.6256952286 108.4203186035
-34.2783355713 5.6232872009 108.2233657837
-34.2505722046 5.6189723015 108.0265960693
-34.2124214172 5.6127662659 107.8300018311
-34.1662597656 5.6051020622 107.6335067749
-34.1159477234 5.5966820717 107.4370193481
-34.0664787292 5.5884160995 107.2404403687
-34.0225448608 5.5811581612 107.0436859131
-33.9859962463 5.5752449036 106.8467330933
-33.9552688599 5.5703921318 106.6496200562
-33.9278182983 5.5661363602 106.4524002075
-33.9026489258 5.5622954369 106.2550964355
-33.8806381226 5.5590305328 106.0577087402
-33.8632125854 5.5565996170 105.8602066040
-33.8509445190 5.5551085472 105.6625976563
-33.8430938721 5.5544219017 105.4648971558
-33.8380775452 5.5542511940 105.2671432495
-33.8342895508 5.5543036461 105.0693588257
-33.8304100037 5.5543403625 104.8715515137
-33.8249702454 5.5540924072 104.6737442017
-33.8154144287 5.5530953407 104.4759597778
-33.7977485657 5.5506224632 104.2782287598
-33.7682609558 5.5459971428 104.0805587769
-33.7270507813 5.5392379761 103.8829421997
-33.6801147461 5.5314369202 103.6853027344
-33.6365737915 5.5242543221 103.4875640869
-33.6030273438 5.5188908577 103.2897033691
-33.5806236267 5.5155563354 103.0917129517
-33.5666923523 5.5137643814 102.8936462402
-33.5578613281 5.5129003525 102.6955184937
-33.5517005920 5.5125231743 102.4973602295
-33.5468978882 5.5123925209 102.2991714478
-33.5429267883 5.5124135017 102.1009674072
-33.5397758484 5.5125842094 101.9027404785
-33.5376777649 5.5129466057 101.7044982910
-33.5368919373 5.5135474205 101.5062408447
-33.5375061035 5.5144033432 101.3079605103
-33.5391578674 5.5154480934 101.1096725464
-33.5405387878 5.5164437294 100.9113769531
-33.5387611389 5.5168647766 100.7130584717
-33.5294113159 5.5159068108 100.5147094727
-33.5084304810 5.5128331184 100.3162994385
-33.4756088257 5.5076045990 100.1178054810
-33.4364013672 5.5012135506 99.9192276001
-33.3989601135 5.4951443672 99.7205963135
-33.3685035706 5.4903464317 99.5219421387
-33.3446655273 5.4867534637 99.3232803345
-33.3237991333 5.4837017059 99.1245956421
-33.3027572632 5.4806175232 98.9258651733
-33.2806587219 5.4773406982 98.7270889282
-33.2584190369 5.4740395546 98.5282745361
-33.2375297546 5.4709839821 98.3294296265
-33.2189254761 5.4683442116 98.1305618286
-33.2023200989 5.4660682678 97.9316864014
-33.1859970093 5.4638438225 97.7327728271
-33.1672210693 5.4611730576 97.5338058472
-33.1435394287 5.4576101303 97.3347320557
-33.1146926880 5.4531073570 97.1355514526
-33.0834350586 5.4481658936 96.9362869263
-33.0536460876 5.4434914589 96.7369842529
-33.0266685486 5.4393296242 96.5376815796
-32.9989700317 5.4350366592 96.3383178711
-32.9635925293 5.4293460846 96.1387786865
-32.9154548645 5.4213347435 95.9389648438
-32.8570251465 5.4114508629 95.7388992310
-32.7987403870 5.4015936852 95.5387496948
-32.7523040771 5.3938922882 95.3387374878
-32.7228813171 5.3892874718 95.1389770508
-32.7073287964 5.3872051239 94.9394531250
-32.6986885071 5.3863811493 94.7400360107
-32.6918983459 5.3858933449 94.5406341553
-32.6864624023 5.3856520653 94.3412399292
-32.6848754883 5.3861117363 94.1419143677
-32.6884994507 5.3875193596 93.9426956177
-32.6951446533 5.3894758224 93.7435379028
-32.7007789612 5.3912491798 93.5443496704
-32.7027702332 5.3923597336 93.3450622559
-32.7009696960 5.3927798271 93.1456680298
-32.6966323853 5.3927392960 92.9461975098
-32.6911888123 5.3924970627 92.7466735840
-32.6856651306 5.3922405243 92.5471267700
-32.6804389954 5.3920388222 92.3475646973
-32.6749649048 5.3917913437 92.1479797363
-32.6677932739 5.3912358284 91.9483184814
-32.6574096680 5.3900957108 91.7485427856
-32.6434478760 5.3883042336 91.5486297607
-32.6268615723 5.3860363960 91.3486022949
-32.6084136963 5.3834300041 91.1484832764
-32.5870132446 5.3802866936 90.9482269287
-32.5601844788 5.3761558533 90.7477569580
-32.5267906189 5.3708310127 90.5470046997
-32.4895019531 5.3647985458 90.3460693359
-32.4540481567 5.3590993881 90.1451416016
-32.4256248474 5.3546795845 89.9443969727
-32.4061927795 5.3518953323 89.7439422607
-32.3946914673 5.3505535126 89.5437393188
-32.3889083862 5.3502511978 89.3437271118
-32.3868446350 5.3506259918 89.1438293457
-32.3870124817 5.3514065742 88.9440078735
-32.3881874084 5.3523702621 88.7442169189
-32.3890991211 5.3532857895 88.5444030762
-32.3879165649 5.3538212776 88.3444824219
-32.3812751770 5.3533639908 88.1443252563
-32.3631324768 5.3508148193 87.9436645508
-32.3255462646 5.3447294235 87.7421340942
-32.2635765076 5.3342113495 87.5394744873
-32.1821556091 5.3201560974 87.3358688354
-32.0973472595 5.3054852486 87.1320037842
-32.0277824402 5.2935867310 86.9287033081
-31.9833145142 5.2862524986 86.7264480591
-31.9617252350 5.2830781937 86.5251998901
-31.9544582367 5.2825083733 86.3245849609
-31.9535655975 5.2830977440 86.1242523193
-31.9544048309 5.2840023041 85.9239959717
-31.9549369812 5.2848510742 85.7237014771
-31.9543914795 5.2855033875 85.5233459473
-31.9526405334 5.2859373093 85.3229141235
-31.9502067566 5.2862467766 85.1224365234
-31.9485740662 5.2867016792 84.9219741821
-31.9501628876 5.2877426147 84.7216720581
-31.9572315216 5.2897801399 84.5216522217
-31.9697704315 5.2928118706 84.3219146729
-31.9842929840 5.2962045670 84.1222839355
-31.9954795837 5.2989902496 83.9224853516
-31.9995861053 5.3004889488 83.7222824097
-31.9962902069 5.3006424904 83.5216674805
-31.9877357483 5.2998394966 83.3207321167
-31.9765586853 5.2985596657 83.1196212769
-31.9647979736 5.2971744537 82.9184417725
-31.9537277222 5.2959141731 82.7172851563
-31.9439277649 5.2948856354 82.5161743164
-31.9353733063 5.2940835953 82.3151092529
-31.9275474548 5.2934131622 82.1140670776
-31.9194431305 5.2926931381 81.9129791260
-31.9093189240 5.2916054726 81.7117462158
-31.8946704865 5.2896962166 81.5102081299
-31.8732948303 5.2865633965 81.3082046509
-31.8452930450 5.2822270393 81.1057434082
-31.8141593933 5.2773208618 80.9030303955
-31.7852725983 5.2728233337 80.7004165649
-31.7627925873 5.2694911957 80.4981689453
-31.7475585938 5.2674760818 80.2963562012
-31.7369804382 5.2663068771 80.0948257446
-31.7261276245 5.2650880814 79.8932495117
-31.7095813751 5.2628350258 79.6912536621
-31.6836872101 5.2588825226 79.4885864258
-31.6478481293 5.2531228065 79.2851791382
-31.6041030884 5.2459263802 79.0811614990
-31.5564308167 5.2380166054 78.8767929077
-31.5106201172 5.2304453850 78.6724853516
-31.4727325439 5.2243146896 78.4686737061
-31.4458484650 5.2201833725 78.2656021118
-31.4285297394 5.2177910805 78.0631866455
-31.4168834686 5.2164292336 77.8611526489
-31.4076061249 5.2154989243 77.6592636108
-31.3992519379 5.2147355080 77.4574203491
-31.3916587830 5.2141113281 77.2556152344
-31.3849391937 5.2136454582 77.0538482666
-31.3787517548 5.2132763863 76.8520965576
-31.3721065521 5.2128238678 76.6502990723
-31.3637008667 5.2120523453 76.4483337402
-31.3524875641 5.2107701302 76.2461242676
-31.3380031586 5.2088942528 76.0436248779
-31.3201828003 5.2064118385 75.8408279419
-31.2987594604 5.2032747269 75.6377029419
-31.2728519440 5.1993231773 75.4341735840
-31.2414035797 5.1943650246 75.2301406860
-31.2043113708 5.1883816719 75.0255889893
-31.1625709534 5.1815538406 74.8205871582
-31.1163768768 5.1739172935 74.6151428223
-31.0634880066 5.1650643349 74.4090652466
-31.0016193390 5.1545801163 74.2021408081
-30.9337348938 5.1430039406 73.9946060181
-30.8695449829 5.1320986748 73.7872848511
-30.8198585510 5.1238288879 73.5811386108
-30.7893619537 5.1190457344 73.3766021729
-30.7751407623 5.1172199249 73.1734542847
-30.7709312439 5.1172127724 72.9711608887
-30.7717170715 5.1181135178 72.7693023682
-30.7757129669 5.1195974350 72.5677185059
-30.7845973969 5.1219692230 72.3665695190
-30.8031616211 5.1261000633 72.1663131714
-30.8372306824 5.1330471039 71.9674911499
-30.8889083862 5.1431927681 71.7703323364
-30.9521064758 5.1554312706 71.5743103027
-31.0135955811 5.1673588753 71.3781890869
-31.0597648621 5.1765031815 71.1806793213
-31.0821819305 5.1813330650 70.9809494019
-31.0774192810 5.1812257767 70.7786254883
-31.0452499390 5.1761398315 70.5736236572
-30.9905071259 5.1669540405 70.3663787842
-30.9254207611 5.1558899879 70.1580276489
-30.8656349182 5.1457886696 69.9501113892
-30.8215866089 5.1385459900 69.7436599731
-30.7942314148 5.1343359947 69.5388107300
-30.7784423828 5.1322269440 69.3350753784
-30.7687091827 5.1312179565 69.1319198608
-30.7618293762 5.1307268143 68.9290313721
-30.7566070557 5.1305375099 68.7262878418
-30.7527618408 5.1305980682 68.5236663818
-30.7502136230 5.1308946609 68.3211593628
-30.7487545013 5.1313881874 68.1187515259
-30.7478828430 5.1319894791 67.9163894653
-30.7466735840 5.1325292587 67.7139739990
-30.7436027527 5.1327309608 67.5113449097
-30.7363681793 5.1321759224 67.3082580566
-30.7220630646 5.1303377151 67.1043853760
-30.6983165741 5.1267848015 66.8994598389
-30.6652431488 5.1215381622 66.6934738159
-30.6264514923 5.1152534485 66.4868087769
-30.5873775482 5.1089172363 66.2800521851
-30.5518474579 5.1032252312 66.0736160278
-30.5201587677 5.0982308388 65.8675537109
-30.4906711578 5.0936365128 65.6616897583
-30.4635162354 5.0894660950 65.4560317993
-30.4427127838 5.0864491463 65.2510452271
-30.4338855743 5.0856065750 65.0473785400
-30.4390563965 5.0873064995 64.8452987671
-30.4538288116 5.0907492638 64.6443099976
-30.4700107574 5.0944485664 64.4434967041
-30.4806499481 5.0971407890 64.2420349121
-30.4823436737 5.0982093811 64.0395355225
-30.4740180969 5.0974583626 63.8358421326
-30.4554519653 5.0948486328 63.6309089661
-30.4277019501 5.0905709267 63.4248504639
-30.3934841156 5.0851192474 63.2179641724
-30.3554039001 5.0789670944 63.0105590820
-30.3140811920 5.0722255707 62.8027000427
-30.2697486877 5.0649385452 62.5944061279
-30.2255878448 5.0576829910 62.3860664368
-30.1874065399 5.0515131950 62.1783905029
-30.1594085693 5.0471920967 61.9719085693
-30.1414356232 5.0446915627 61.7666206360
-30.1303939819 5.0434489250 61.5621604919
-30.1231403351 5.0428943634 61.3581504822
-30.1178016663 5.0426878929 61.1543579102
-30.1134967804 5.0426683426 60.9506721497
-30.1096420288 5.0427312851 60.7470283508
-30.1054763794 5.0427374840 60.5433235168
-30.0996379852 5.0424404144 60.3393859863
-30.0898056030 5.0414180756 60.1349143982
-30.0727500916 5.0390849113 59.9294738770
-30.0455665588 5.0349135399 59.7226791382
-30.0076751709 5.0287985802 59.5144309998
-29.9619102478 5.0212545395 59.3050842285
-29.9135990143 5.0132489204 59.0953254700
-29.8690490723 5.0059256554 58.8859939575
-29.8346061707 5.0004377365 58.6779403687
-29.8150653839 4.9976544380 58.4718322754
-29.8108634949 4.9976558685 58.2677574158
-29.8169479370 4.9995241165 58.0650558472
-29.8256225586 5.0018625259 57.8627052307
-29.8311347961 5.0036268234 57.6599159241
-29.8318138123 5.0045137405 57.4564552307
-29.8288230896 5.0047349930 57.2524757385
-29.8238029480 5.0045881271 57.0481948853
-29.8171977997 5.0041532516 56.8436737061
-29.8072357178 5.0031099319 56.6386604309
-29.7893943787 5.0006361008 56.4325141907
-29.7575836182 4.9956274033 56.2243537903
-29.7083415985 4.9874558449 56.0136680603
-29.6457633972 4.9768638611 55.8009986877
-29.5815849304 4.9659824371 55.5880088806
-29.5284805298 4.9571104050 55.3765182495
-29.4924278259 4.9513335228 55.1674079895
-29.4712848663 4.9482622147 54.9604034424
-29.4591808319 4.9468312263 54.7546768188
-29.4510593414 4.9461231232 54.5495033264
-29.4441318512 4.9456315041 54.3444824219
-29.4371299744 4.9451270103 54.1394271851
-29.4292774200 4.9444680214 53.9342231750
-29.4197978973 4.9435138702 53.7287521362
-29.4078941345 4.9421195984 53.5228919983
-29.3927402496 4.9401359558 53.3165168762
-29.3730983734 4.9373383522 53.1094284058
-29.3469867706 4.9333667755 52.9013214111
-29.3127231598 4.9279165268 52.6919288635
-29.2715301514 4.9212093353 52.4814147949
-29.2289409637 4.9142484665 52.2706222534
-29.1921234131 4.9083352089 52.0606536865
-29.1650867462 4.9041972160 51.8521347046
-29.1467590332 4.9016389847 51.6449203491
-29.1333332062 4.8999700546 51.4384346008
-29.1215457916 4.8985991478 51.2321777344
-29.1099720001 4.8972668648 51.0259208679
-29.0984630585 4.8959460258 50.8196487427
-29.0871486664 4.8946609497 50.6133766174
-29.0759067535 4.8933892250 50.4070892334
-29.0644187927 4.8920722008 50.2007369995
-29.0522975922 4.8906412125 49.9942512512
-29.0387516022 4.8889517784 49.7875061035
-29.0216751099 4.8866219521 49.5801582336
-28.9971866608 4.8829474449 49.3715705872
-28.9614315033 4.8772296906 49.1611022949
-28.9150581360 4.8695859909 48.9488372803
-28.8662776947 4.8615059853 48.7360992432
-28.8271522522 4.8551774025 48.5248794556
-28.8049068451 4.8519110680 48.3163948059
-28.7973537445 4.8513097763 48.1103096008
-28.7968692780 4.8519906998 47.9053802490
-28.7971019745 4.8528017998 47.7005538940
-28.7956104279 4.8533000946 47.4954261780
-28.7924690247 4.8534994125 47.2900047302
-28.7882957458 4.8535118103 47.0843887329
-28.7834720612 4.8534059525 46.8786468506
-28.7781658173 4.8532128334 46.6727981567
-28.7725009918 4.8529543877 46.4668693542
-28.7665271759 4.8526406288 46.2608680725
-28.7599220276 4.8522119522 46.0547332764
-28.7514438629 4.8514432907 45.8482513428
-28.7385082245 4.8498673439 45.6409721375
-28.7178554535 4.8468914032 45.4323120117
-28.6876125336 4.8421764374 45.2219314575
-28.6493835449 4.8360133171 45.0100936890
-28.6082878113 4.8293309212 44.7976875305
-28.5710697174 4.8233513832 44.5859031677
-28.5439071655 4.8191962242 44.3758430481
-28.5305900574 4.8175516129 44.1682052612
-28.5309600830 4.8183894157 43.9629898071
-28.5404853821 4.8208870888 43.7594032288
-28.5521583557 4.8237743378 43.5562057495
-28.5600242615 4.8259711266 43.3523178101
-28.5617370605 4.8270521164 43.1473121643
-28.5584030151 4.8272185326 42.9413719177
-28.5525436401 4.8269267082 42.7349510193
-28.5459880829 4.8265089989 42.5283813477
-28.5385742188 4.8259353638 42.3216285706
-28.5279502869 4.8247799873 42.1142616272
-28.5109443665 4.8224673271 41.9056854248
-28.4860630035 4.8187274933 41.6956062317
-28.4548072815 4.8138318062 41.4842872620
-28.4197616577 4.8082489967 41.2722053528
-28.3812580109 4.8020396233 41.0594139099
-28.3370971680 4.7948045731 40.8454933167
-28.2865352631 4.7864098549 40.6302871704
-28.2338218689 4.7776250839 40.4145965576
-28.1864757538 4.7698135376 40.1998443604
-28.1500205994 4.7639770508 39.9871025085
-28.1250419617 4.7602210045 39.7765045166
-28.1087226868 4.7580347061 39.5675277710
-28.0978107452 4.7568292618 39.3595581055
-28.0900173187 4.7561888695 39.1521682739
-28.0837192535 4.7558202744 38.9450416565
-28.0771636963 4.7554049492 38.7378463745
-28.0681152344 4.7545371056 38.5301399231
-28.0546340942 4.7528667450 38.3215370178
-28.0369281769 4.7504301071 38.1120681763
-28.0184192657 4.7478480339 37.9024047852
-28.0040550232 4.7460179329 37.6935272217
-27.9964790344 4.7454180717 37.4859657288
-27.9936714172 4.7456822395 37.2793350220
-27.9906558990 4.7459092140 37.0726432800
-27.9837512970 4.7454314232 36.8651542664
-27.9731063843 4.7442755699 36.6568870544
-27.9614238739 4.7429318428 36.4483833313
-27.9512157440 4.7418551445 36.2401504517
-27.9435424805 4.7412381172 36.0324058533
-27.9383029938 4.7410626411 35.8251304626
-27.9346427917 4.7411732674 35.6181640625
-27.9311008453 4.7413053513 35.4111976624
-27.9260082245 4.7411565781 35.2038955688
-27.9181575775 4.7405080795 34.9960021973
-27.9070339203 4.7392663956 34.7874069214
-27.8923377991 4.7373771667 34.5780410767
-27.8733329773 4.7347073555 34.3677444458
-27.8491249084 4.7310948372 34.1563148499
-27.8200149536 4.7265939713 33.9438171387
-27.7883911133 4.7216377258 33.7307357788
-27.7573223114 4.7167825699 33.5177154541
-27.7279624939 4.7122368813 33.3050041199
-27.6990356445 4.7077703476 33.0923347473
-27.6693859100 4.7031726837 32.8794593811
-27.6403827667 4.6986927986 32.6666679382
-27.6152267456 4.6949095726 32.4546546936
-27.5961627960 4.6922311783 32.2439002991
-27.5828628540 4.6905965805 32.0343551636
-27.5730648041 4.6895971298 31.8255348206
-27.5638427734 4.6887021065 31.6168117523
-27.5522937775 4.6873850822 31.4075584412
-27.5362281799 4.6852502823 31.1972885132
-27.5154953003 4.6822695732 30.9859619141
-27.4926719666 4.6789107323 30.7741374969
-27.4714927673 4.6758499146 30.5626296997
-27.4538879395 4.6734366417 30.3518714905
-27.4382991791 4.6713886261 30.1415233612
-27.4206390381 4.6689658165 29.9306793213
-27.3969383240 4.6654481888 29.7184543610
-27.3660659790 4.6606321335 29.5045814514
-27.3308238983 4.6550240517 29.2896747589
-27.2963085175 4.6495485306 29.0748729706
-27.2668266296 4.6449847221 28.8611469269
-27.2440567017 4.6416368484 28.6488857269
-27.2274932861 4.6394133568 28.4379863739
-27.2158107758 4.6380748749 28.2281646729
-27.2077064514 4.6373844147 28.0191268921
-27.2020359039 4.6371345520 27.8106231689
-27.1976318359 4.6371150017 27.6023864746
-27.1929054260 4.6370363235 27.3940582275
-27.1852569580 4.6364288330 27.1850337982
-27.1709365845 4.6346125603 26.9744434357
-27.1462402344 4.6309175491 26.7614154816
-27.1098880768 4.6251106262 26.5456333160
-27.0642299652 4.6176185608 26.3276176453
-27.0134372711 4.6091966629 26.1083297729
-26.9610881805 4.6004934311 25.8885974884
-26.9109039307 4.5921826363 25.6692924500
-26.8691864014 4.5854058266 25.4519062042
-26.8436660767 4.5815620422 25.2382774353
-26.8382263184 4.5813565254 25.0293636322
-26.8490924835 4.5841035843 24.8243026733
-26.8662490845 4.5879902840 24.6207389832
-26.8784866333 4.5909862518 24.4160099030
-26.8783092499 4.5917334557 24.2083091736
-26.8642787933 4.5899715424 23.9972629547
-26.8399982452 4.5863537788 23.7837181091
-26.8105182648 4.5817947388 23.5688705444
-26.7785224915 4.5767798424 23.3533630371
-26.7432556152 4.5711731911 23.1370048523
-26.7029037476 4.5646457672 22.9193496704
-26.6581172943 4.5573153496 22.7005443573
-26.6133880615 4.5499954224 22.4816818237
-26.5748729706 4.5438013077 22.2642726898
-26.5467319489 4.5394864082 22.0493526459
-26.5293178558 4.5371136665 21.8370265961
-26.5201187134 4.5362286568 21.6266975403
-26.5155715942 4.5361857414 21.4174957275
-26.5120220184 4.5363245010 21.2085208893
-26.5059928894 4.5360136032 20.9989109039
-26.4948654175 4.5347800255 20.7880039215
-26.4783859253 4.5325775146 20.5757274628
-26.4596405029 4.5299644470 20.3628463745
-26.4439029694 4.5278959274 20.1506843567
-26.4357604980 4.5272035599 19.9404067993
-26.4365158081 4.5281219482 19.7323570251
-26.4430618286 4.5300884247 19.5257625580
-26.4490222931 4.5319495201 19.3190135956
-26.4486236572 4.5326590538 19.1106357574
-26.4407672882 4.5320186615 18.9003372192
-26.4292392731 4.5307130814 18.6890716553
-26.4189167023 4.5296263695 18.4780883789
-26.4122257233 4.5291967392 18.2680130005
-26.4083881378 4.5292840004 18.0586509705
-26.4043064117 4.5293273926 17.8492069244
-26.3956565857 4.5285434723 17.6385574341
-26.3785476685 4.5262284279 17.4256820679
-26.3519382477 4.5221939087 17.2102909088
-26.3190784454 4.5170273781 16.9932155609
-26.2859935760 4.5118212700 16.7760257721
-26.2579689026 4.5075306892 16.5601081848
-26.2372226715 4.5045576096 16.3460578918
-26.2232952118 4.5028200150 16.1337680817
-26.2146987915 4.5020465851 15.9228582382
-26.2098884583 4.5019593239 15.7129278183
-26.2072353363 4.5022616386 15.5035505295
-26.2044696808 4.5025448799 15.2941265106
-26.1985225677 4.5022516251 15.0838336945
-26.1865348816 4.5008649826 14.8718996048
-26.1678714752 4.4982700348 14.6581430435
-26.1451511383 4.4949417114 14.4432544708
-26.1224842072 4.4916224480 14.2283372879
-26.1021327972 4.4887228012 14.0140037537
-26.0827426910 4.4859972000 13.7998895645
-26.0604095459 4.4827389717 13.5849351883
-26.0314807892 4.4782872200 13.3681411743
-25.9953784943 4.4725379944 13.1493358612
-25.9556350708 4.4661293030 12.9294710159
-25.9178047180 4.4600672722 12.7100667953
-25.8855400085 4.4550127983 12.4921302795
-25.8583679199 4.4508800507 12.2755422592
-25.8332386017 4.4471173286 12.0594692230
-25.8082408905 4.4433784485 11.8433866501
-25.7847766876 4.4399170876 11.6276826859
-25.7660408020 4.4373121262 11.4132509232
-25.7535896301 4.4358444214 11.2005348206
-25.7455730438 4.4351787567 10.9890279770
-25.7378444672 4.4345655441 10.7775774002
-25.7262096405 4.4332461357 10.5650053024
-25.7083358765 4.4307971001 10.3506460190
-25.6850986481 4.4273781776 10.1347360611
-25.6606254578 4.4237356186 9.9184312820
-25.6400108337 4.4207916260 9.7031764984
-25.6261310577 4.4190659523 9.4897928238
-25.6184139252 4.4184556007 9.2781333923
-25.6142807007 4.4184942245 9.0674734116
-25.6111450195 4.4187130928 8.8570785522
-25.6071262360 4.4187722206 8.6464128494
-25.6005382538 4.4183669090 8.4349889755
-25.5891647339 4.4170956612 8.2221632004
-25.5703277588 4.4144740105 8.0071535110
-25.5422649384 4.4101834297 7.7894344330
-25.5062007904 4.4044456482 7.5693445206
-25.4672222137 4.3981804848 7.3483452797
-25.4323730469 4.3926625252 7.1284852028
-25.4070224762 4.3888635635 6.9113392830
-25.3924713135 4.3870182037 6.6973061562
-25.3864212036 4.3867115974 6.4857344627
-25.3851585388 4.3872704506 6.2755470276
-25.3854103088 4.3881034851 6.0657901764
-25.3850650787 4.3888287544 5.8558430672
-25.3830928802 4.3892593384 5.6454000473
-25.3792438507 4.3893508911 5.4343829155
-25.3737564087 4.3891458511 5.2228603363
-25.3671092987 4.3887314796 5.0109710693
-25.3598289490 4.3882021904 4.7988691330
-25.3524131775 4.3876490593 4.5867033005
-25.3453235626 4.3871545792 4.3746113777
-25.3389129639 4.3867831230 4.1626996994
-25.3333072662 4.3865575790 3.9510083199
-25.3281822205 4.3864188194 3.7394399643
-25.3223171234 4.3861460686 3.5276272297
-25.3129711151 4.3852438927 3.3147370815
-25.2957706451 4.3829212189 3.0994353294
-25.2664756775 4.3784117699 2.8804163933
-25.2245597839 4.3716192245 2.6574947834
-25.1754417419 4.3635244370 2.4323034286
-25.1280174255 4.3557357788 2.2075524330
-25.0891952515 4.3495039940 1.9853662252
-25.0610179901 4.3451972008 1.7663899660
-25.0423088074 4.3426032066 1.5502811670
-25.0315055847 4.3414387703 1.3365755081
-25.0274906158 4.3415021896 1.1249431372
-25.0287494659 4.3425197601 0.9149275422
-25.0326805115 4.3440203667 0.7057293057
-25.0358238220 4.3453788757 0.4962770343
-25.0346145630 4.3459501266 0.2854557335
-25.0262851715 4.3452334404 0.0723910555
-37.7468681335 12.4836006165 134.9886169434
-37.7516365051 12.4860267639 134.7956085205
-37.7548828125 12.4879188538 134.6027679443
-37.7523765564 12.4877929688 134.4105682373
-37.7423553467 12.4850292206 134.2191772461
-37.7243461609 12.4794626236 134.0286407471
-37.6969947815 12.4706182480 133.8390960693
-37.6589012146 12.4580039978 133.6506652832
-37.6119918823 12.4422960281 133.4631500244
-37.5629501343 12.4258394241 133.2757720947
-37.5180969238 12.4108543396 133.0878753662
-37.4722023010 12.3955030441 132.9000091553
-37.3982505798 12.3703060150 132.7150573730
-37.2502746582 12.3191347122 132.5377655029
-36.9876899719 12.2277469635 132.3722381592
-36.6102867126 12.0960702896 132.2182922363
-36.1722984314 11.9431362152 132.0700836182
-35.7549972534 11.7974624634 131.9191741943
-35.4196815491 11.6805610657 131.7593536377
-35.1836929321 11.5985126495 131.5890502930
-35.0320281982 11.5460548401 131.4099273682
-34.9405822754 11.5147294998 131.2245788574
-34.8885955811 11.4972486496 131.0351867676
-34.8603019714 11.4880828857 130.8433685303
-34.8443832397 11.4832592010 130.6502990723
-34.8339309692 11.4803533554 130.4566650391
-34.8259239197 11.4783048630 130.2627563477
-34.8202667236 11.4770822525 130.0686035156
-34.8191680908 11.4774580002 129.8739929199
-34.8265800476 11.4808206558 129.6785736084
-34.8461456299 11.4884481430 129.4819946289
-34.8775177002 11.5002174377 129.2843322754
-34.9143333435 11.5138959885 129.0861968994
-34.9472541809 11.5262088776 128.8884429932
-34.9699096680 11.5349197388 128.6916656494
-34.9817962646 11.5398511887 128.4958801270
-34.9861717224 11.5421485901 128.3007812500
-34.9865531921 11.5430440903 128.1060333252
-34.9850769043 11.5432882309 127.9114303589
-34.9827575684 11.5432357788 127.7168884277
-34.9801559448 11.5430850983 127.5223617554
-34.9777145386 11.5429906845 127.3277969360
-34.9758338928 11.5430927277 127.1331710815
-34.9748573303 11.5435132980 126.9384536743
-34.9750328064 11.5443363190 126.7436218262
-34.9762382507 11.5455226898 126.5486907959
-34.9774436951 11.5467081070 126.3537521362
-34.9759140015 11.5469341278 126.1590270996
-34.9668655396 11.5445213318 125.9649047852
-34.9447555542 11.5375280380 125.7718276978
-34.9063186646 11.5248060226 125.5800323486
-34.8528327942 11.5068054199 125.3893814087
-34.7894668579 11.4853391647 125.1994400024
-34.7232589722 11.4628753662 125.0096282959
-34.6619567871 11.4421339035 124.8193283081
-34.6126213074 11.4255905151 124.6280059814
-34.5788078308 11.4144926071 124.4354095459
-34.5591278076 11.4083518982 124.2416763306
-34.5491180420 11.4056053162 124.0471649170
-34.5443458557 11.4046955109 123.8522415161
-34.5419616699 11.4046239853 123.6571197510
-34.5405883789 11.4049062729 123.4619064331
-34.5396118164 11.4053277969 123.2666473389
-34.5385131836 11.4057064056 123.0713806152
-34.5363578796 11.4057149887 122.8761825562
-34.5317039490 11.4048471451 122.6811370850
-34.5230674744 11.4025821686 122.4863662720
-34.5098266602 11.3987016678 122.2918853760
-34.4928092957 11.3934965134 122.0976409912
-34.4741134644 11.3877038956 121.9034729004
-34.4563407898 11.3822345734 121.7092056274
-34.4416618347 11.3778505325 121.5146942139
-34.4310913086 11.3749084473 121.3198776245
-34.4243125916 11.3732957840 121.1247787476
-34.4201774597 11.3726110458 120.9294891357
-34.4174804688 11.3724298477 120.7340927124
-34.4154167175 11.3724708557 120.5386352539
-34.4136314392 11.3726110458 120.3431396484
-34.4120864868 11.3728342056 120.1476211548
-34.4108810425 11.3731775284 119.9520645142
-34.4101257324 11.3736772537 119.7564620972
-34.4097824097 11.3743219376 119.5608215332
-34.4096298218 11.3750352859 119.3651580811
-34.4093170166 11.3756904602 119.1694946289
-34.4084129333 11.3761396408 118.9738464355
-34.4063835144 11.3761940002 118.7782516479
-34.4022941589 11.3755254745 118.5827636719
-34.3942947388 11.3734846115 118.3874740601
-34.3794593811 11.3690481186 118.1925506592
-34.3549118042 11.3612051010 117.9981307983
-34.3197822571 11.3496503830 117.8042526245
-34.2757072449 11.3349599838 117.6108016968
-34.2248725891 11.3178977966 117.4176406860
-34.1686401367 11.2989425659 117.2246856689
-34.1091156006 11.2788343430 117.0318222046
-34.0507507324 11.2591323853 116.8388061523
-33.9984893799 11.2415723801 116.6453857422
-33.9550361633 11.2271003723 116.4514465332
-33.9215011597 11.2161073685 116.2569351196
-33.8997840881 11.2092599869 116.0617980957
-33.8915672302 11.2071456909 115.8659515381
-33.8946342468 11.2089891434 115.6695480347
-33.9022941589 11.2124443054 115.4729232788
-33.9072570801 11.2149515152 115.2764129639
-33.9054679871 11.2150936127 115.0802154541
-33.8965797424 11.2127437592 114.8843154907
-33.8821182251 11.2084417343 114.6886367798
-33.8637504578 11.2027683258 114.4931030273
-33.8422241211 11.1959877014 114.2976684570
-33.8170013428 11.1879110336 114.1023559570
-33.7868309021 11.1780996323 113.9071960449
-33.7516136169 11.1665191650 113.7121963501
-33.7143821716 11.1542329788 113.5172195435
-33.6812095642 11.1433696747 113.3220214844
-33.6580734253 11.1360263824 113.1263656616
-33.6469573975 11.1328973770 112.9302062988
-33.6449317932 11.1329555511 112.7336730957
-33.6470298767 11.1344614029 112.5369644165
-33.6496582031 11.1361532211 112.3402328491
-33.6515426636 11.1375827789 112.1435165405
-33.6525650024 11.1387109756 111.9468231201
-33.6524505615 11.1394405365 111.7501525879
-33.6499938965 11.1393489838 111.5535507202
-33.6429939270 11.1376638412 111.3570861816
-33.6292648315 11.1336202621 111.1608200073
-33.6086730957 11.1271686554 110.9647369385
-33.5840187073 11.1192941666 110.7687530518
-33.5587959290 11.1112222672 110.5727310181
-33.5335235596 11.1031303406 110.3766708374
-33.5053749084 11.0940322876 110.1806488037
-33.4724044800 11.0832424164 109.9847183228
-33.4373626709 11.0717267990 109.7887802124
-33.4062271118 11.0615806580 109.5926895142
-33.3830833435 11.0542383194 109.3963165283
-33.3672142029 11.0494441986 109.1997222900
-33.3546600342 11.0458135605 109.0029983521
-33.3414688110 11.0419607162 108.8062667847
-33.3255424500 11.0371475220 108.6095657349
-33.3066139221 11.0312833786 108.4129104614
-33.2853584290 11.0246019363 108.2162628174
-33.2622528076 11.0172739029 108.0196228027
-33.2369384766 11.0091695786 107.8229827881
-33.2086448669 11.0000228882 107.6263580322
-33.1777153015 10.9899520874 107.4297409058
-33.1466026306 10.9798164368 107.2330703735
-33.1188583374 10.9708614349 107.0362854004
-33.0969047546 10.9639368057 106.8393402100
-33.0809822083 10.9591274261 106.6422500610
-33.0699348450 10.9560279846 106.4450378418
-33.0625000000 10.9541940689 106.2477416992
-33.0578918457 10.9533500671 106.0503768921
-33.0556755066 10.9533452988 105.8529586792
-33.0554199219 10.9540290833 105.6555023193
-33.0564460754 10.9551620483 105.4580078125
-33.0579109192 10.9564466476 105.2604904175
-33.0590362549 10.9576148987 105.0629730225
-33.0592536926 10.9584636688 104.8654556274
-33.0580329895 10.9588088989 104.6679382324
-33.0546875000 10.9584083557 104.4704284668
-33.0486145020 10.9570531845 104.2729339600
-33.0403976440 10.9549465179 104.0754318237
-33.0327568054 10.9530401230 103.8778991699
-33.0294075012 10.9526405334 103.6803131104
-33.0317192078 10.9542236328 103.4826736450
-33.0362319946 10.9565792084 103.2850036621
-33.0354232788 10.9570693970 103.0873565674
-33.0204658508 10.9525995255 102.8897781372
-32.9848709106 10.9408960342 102.6922531128
-32.9290733337 10.9221124649 102.4947509766
-32.8628196716 10.8996629715 102.2972030640
-32.8006553650 10.8786487579 102.0995407104
-32.7531623840 10.8627748489 101.9017562866
-32.7223396301 10.8527460098 101.7038726807
-32.7043495178 10.8472156525 101.5059204102
-32.6943359375 10.8444805145 101.3079376221
-32.6884956360 10.8432083130 101.1099319458
-32.6834297180 10.8422079086 100.9119033813
-32.6748619080 10.8399801254 100.7138519287
-32.6574745178 10.8346605301 100.5157470703
-32.6268959045 10.8247184753 100.3175659180
-32.5833625793 10.8102359772 100.1192855835
-32.5335044861 10.7935371399 99.9208984375
-32.4871482849 10.7780656815 99.7224578857
-32.4512672424 10.7662658691 99.5240020752
-32.4268989563 10.7585010529 99.3255615234
-32.4111022949 10.7537412643 99.1271362305
-32.4006004333 10.7508354187 98.9287185669
-32.3932266235 10.7490282059 98.7303085327
-32.3873786926 10.7477540970 98.5318756104
-32.3818893433 10.7466068268 98.3334350586
-32.3770713806 10.7456941605 98.1349792480
-32.3745841980 10.7456007004 97.9365310669
-32.3756141663 10.7467365265 97.7381057739
-32.3799591064 10.7490367889 97.5397033691
-32.3871650696 10.7523384094 97.3413391113
-32.3969879150 10.7565574646 97.1430053711
-32.4079856873 10.7611875534 96.9446868896
-32.4162559509 10.7648630142 96.7463302612
-32.4162673950 10.7656431198 96.5478439331
-32.4029655457 10.7617588043 96.3491210938
-32.3738517761 10.7523326874 96.1501083374
-32.3305969238 10.7379522324 95.9507827759
-32.2796211243 10.7208662033 95.7512512207
-32.2302742004 10.7043504715 95.5516662598
-32.1907577515 10.6912803650 95.3522033691
-32.1643829346 10.6828165054 95.1529388428
-32.1492538452 10.6782922745 94.9538650513
-32.1410255432 10.6761865616 94.7548980713
-32.1357803345 10.6751270294 94.5559844971
-32.1310462952 10.6742458344 94.3570556641
-32.1255340576 10.6730918884 94.1580886841
-32.1187896729 10.6715078354 93.9590759277
-32.1110153198 10.6695613861 93.7600173950
-32.1027259827 10.6674346924 93.5609130859
-32.0943489075 10.6652774811 93.3617935181
-32.0859298706 10.6631059647 93.1626358032
-32.0771408081 10.6608057022 92.9634552002
-32.0675621033 10.6582269669 92.7642211914
-32.0569839478 10.6552991867 92.5649337769
-32.0456008911 10.6520891190 92.3656005859
-32.0339355469 10.6487808228 92.1662216187
-32.0225868225 10.6455831528 91.9668273926
-32.0117378235 10.6425619125 91.7674255371
-32.0005416870 10.6394176483 91.5679779053
-31.9868831635 10.6354103088 91.3684234619
-31.9682159424 10.6296491623 91.1686782837
-31.9435157776 10.6217746735 90.9686813354
-31.9147548676 10.6124773026 90.7685012817
-31.8860874176 10.6032123566 90.5682678223
-31.8610763550 10.5952291489 90.3681182861
-31.8404216766 10.5887727737 90.1680831909
-31.8213119507 10.5828580856 89.9680633545
-31.7982864380 10.5755701065 89.7678604126
-31.7659606934 10.5650253296 89.5672531128
-31.7231197357 10.5507965088 89.3661727905
-31.6745567322 10.5345630646 89.1647949219
-31.6281433105 10.5190830231 88.9634246826
-31.5902519226 10.5065889359 88.7623367310
-31.5637226105 10.4980764389 88.5616607666
-31.5482273102 10.4934282303 88.3614120483
-31.5412502289 10.4917650223 88.1614990234
-31.5394153595 10.4919033051 87.9617843628
-31.5398941040 10.4928522110 87.7621612549
-31.5409946442 10.4940185547 87.5625457764
-31.5419025421 10.4951181412 87.3629150391
-31.5421733856 10.4959945679 87.1632461548
-31.5414505005 10.4965229034 86.9635162354
-31.5393466949 10.4965677261 86.7637023926
-31.5353050232 10.4959325790 86.5637817383
-31.5283126831 10.4942646027 86.3636932373
-31.5166664124 10.4909667969 86.1633529663
-31.4983921051 10.4853467941 85.9626464844
-31.4728317261 10.4771747589 85.7615280151
