-38.0227394104 -6.5373787880 54.5621376038
-38.1998023987 -6.5619168282 54.3896980286
-38.4461708069 -6.5960474014 54.2275543213
-38.7047691345 -6.6318702698 54.0674934387
-38.9236183167 -6.6621918678 53.9019241333
-39.0856513977 -6.6846485138 53.7282562256
-39.2114639282 -6.7020926476 53.5494270325
-39.3350563049 -6.7192287445 53.3704185486
-39.4746246338 -6.7385759354 53.1939430237
-39.6206550598 -6.7588176727 53.0186042786
-39.7481994629 -6.7765011787 52.8406562805
-39.8392753601 -6.7891364098 52.6573562622
-39.8936424255 -6.7966909409 52.4685897827
-39.9219627380 -6.8006396294 52.2759170532
-39.9333839417 -6.8022499084 52.0806884766
-39.9286270142 -6.8016204834 51.8829765320
-39.8997230530 -6.7976489067 51.6815299988
-39.8351593018 -6.7887415886 51.4745101929
-39.7300033569 -6.7742156982 51.2610893250
-39.5956420898 -6.7556471825 51.0429649353
-39.4589195251 -6.7367525101 50.8242912292
-39.3488121033 -6.7215409279 50.6096267700
-39.2837371826 -6.7125625610 50.4019317627
-39.2726898193 -6.7110633850 50.2027206421
-39.3271331787 -6.7186284065 50.0139198303
-39.4667434692 -6.7379813194 49.8387985229
-39.7053756714 -6.7710399628 49.6797523499
-40.0250015259 -6.8153100014 49.5340576172
-40.3679618835 -6.8628087044 49.3925361633
-40.6669425964 -6.9042210579 49.2442932129
-40.8878250122 -6.9348230362 49.0836830139
-41.0413208008 -6.9560976028 48.9123077393
-41.1567420959 -6.9721026421 48.7348594666
-41.2516403198 -6.9852671623 48.5541610718
-41.3247680664 -6.9954175949 48.3699684143
-41.3669624329 -7.0012869835 48.1807174683
-41.3707580566 -7.0018410683 47.9850997925
-41.3324584961 -6.9965691566 47.7824249268
-41.2537422180 -6.9857029915 47.5728950500
-41.1451835632 -6.9707059860 47.3582191467
-41.0246963501 -6.9540586472 47.1413764954
-40.9073486328 -6.9378452301 46.9249038696
-40.7952461243 -6.9223580360 46.7091674805
-40.6794929504 -6.9063653946 46.4926567078
-40.5544815063 -6.8890914917 46.2743988037
-40.4312019348 -6.8720569611 46.0562744141
-40.3363380432 -6.8589558601 45.8429069519
-40.2997436523 -6.8539199829 45.6395416260
-40.3426513672 -6.8598880768 45.4500007629
-40.4707908630 -6.8776531219 45.2754364014
-40.6690902710 -6.9051294327 45.1133613586
-40.9020881653 -6.9374079704 44.9576492310
-41.1271133423 -6.9685826302 44.8008155823
-41.3140258789 -6.9944825172 44.6374855042
-41.4573059082 -7.0143432617 44.4666023254
-41.5737991333 -7.0304961205 44.2910957336
-41.6884841919 -7.0463986397 44.1154060364
-41.8154640198 -7.0640029907 43.9420661926
-41.9474029541 -7.0822935104 43.7697792053
-42.0632820129 -7.0983614922 43.5947341919
-42.1467170715 -7.1099386215 43.4139175415
-42.1956253052 -7.1167368889 43.2268905640
-42.2163848877 -7.1196393967 43.0347480774
-42.2122726440 -7.1190996170 42.8380508423
-42.1777153015 -7.1143450737 42.6357116699
-42.1028480530 -7.1040115356 42.4258537292
-41.9850196838 -7.0877318382 42.2078971863
-41.8366241455 -7.0672216415 41.9840812683
-41.6803436279 -7.0456204414 41.7585945129
-41.5375137329 -7.0258798599 41.5354232788
-41.4227180481 -7.0100207329 41.3173522949
-41.3469200134 -6.9995579720 41.1064987183
-41.3221588135 -6.9961605072 40.9052276611
-41.3641242981 -7.0019979477 40.7166213989
-41.4885673523 -7.0192503929 40.5438156128
-41.6970291138 -7.0481328964 40.3872680664
-41.9608726501 -7.0846800804 40.2416267395
-42.2255554199 -7.1213436127 40.0964775085
-42.4403533936 -7.1511020660 39.9419937134
-42.5872383118 -7.1714615822 39.7745857239
-42.6823387146 -7.1846528053 39.5972633362
-42.7532920837 -7.1945028305 39.4153366089
-42.8154296875 -7.2031316757 39.2317581177
-42.8635826111 -7.2098250389 39.0455017090
-42.8818550110 -7.2123837471 38.8533973694
-42.8605690002 -7.2094659805 38.6534729004
-42.8046684265 -7.2017579079 38.4466362000
-42.7279052734 -7.1911625862 38.2355613708
-42.6426048279 -7.1793851852 38.0226745605
-42.5552406311 -7.1673221588 37.8092536926
-42.4666748047 -7.1550927162 37.5954742432
-42.3732490540 -7.1421914101 37.3805923462
-42.2706451416 -7.1280193329 37.1637229919
-42.1605377197 -7.1128087044 36.9451904297
-42.0538444519 -7.0980706215 36.7272071838
-41.9671554565 -7.0861010551 36.5131683350
-41.9168701172 -7.0791702271 36.3064727783
-41.9170875549 -7.0792298317 36.1100921631
-41.9808654785 -7.0880856514 35.9268150330
-42.1175994873 -7.1070399284 35.7587127686
-42.3224449158 -7.1354207993 35.6049118042
-42.5664138794 -7.1692166328 35.4595069885
-42.8025169373 -7.2019238472 35.3127670288
-42.9890747070 -7.2277736664 35.1559333801
-43.1109771729 -7.2446742058 34.9857444763
-43.1807594299 -7.2543616295 34.8047180176
-43.2239112854 -7.2603631020 34.6181449890
-43.2655525208 -7.2661552429 34.4312934875
-43.3254699707 -7.2744770050 34.2483749390
-43.4146995544 -7.2868556976 34.0717773438
-43.5291671753 -7.3027276993 33.9006843567
-43.6470298767 -7.3190693855 33.7304534912
-43.7368469238 -7.3315296173 33.5543327332
-43.7717475891 -7.3363885880 33.3664627075
-43.7396774292 -7.3319787979 33.1641273499
-43.6468162537 -7.3191552162 32.9485473633
-43.5136299133 -7.3007507324 32.7240562439
-43.3624343872 -7.2798533440 32.4954566956
-43.2054595947 -7.2581562996 32.2653884888
-43.0474472046 -7.2363157272 32.0348815918
-42.8982810974 -7.2156996727 31.8061180115
-42.7763824463 -7.1988568306 31.5831794739
-42.6989135742 -7.1881642342 31.3699207306
-42.6745910645 -7.1848268509 31.1683654785
-42.7064208984 -7.1892609596 30.9792842865
-42.7944679260 -7.2014760971 30.8027992249
-42.9311180115 -7.2204179764 30.6373119354
-43.0978240967 -7.2435197830 30.4787445068
-43.2733039856 -7.2678360939 30.3223590851
-43.4449195862 -7.2916169167 30.1653137207
-43.6073722839 -7.3141298294 30.0064010620
-43.7522621155 -7.3342118263 29.8436965942
-43.8657951355 -7.3499546051 29.6740188599
-43.9372100830 -7.3598670959 29.4948501587
-43.9639205933 -7.3635931015 29.3055171967
-43.9480590820 -7.3614268303 29.1064243317
-43.8932914734 -7.3538756371 28.8983345032
-43.8075866699 -7.3420429230 28.6830158234
-43.7053184509 -7.3279175758 28.4637393951
-43.6023406982 -7.3136940002 28.2441616058
-43.5073738098 -7.3005790710 28.0263080597
-43.4179878235 -7.2882366180 27.8096294403
-43.3245315552 -7.2753314972 27.5918769836
-43.2195701599 -7.2608337402 27.3712921143
-43.1072692871 -7.2453198433 27.1488361359
-43.0070228577 -7.2314743996 26.9290752411
-42.9477157593 -7.2232952118 26.7188758850
-42.9529151917 -7.2240438461 26.5239124298
-43.0239677429 -7.2339067459 26.3446311951
-43.1351547241 -7.2493243217 26.1750125885
-43.2493515015 -7.2651581764 26.0062503815
-43.3427124023 -7.2781085968 25.8326206207
-43.4171028137 -7.2884335518 25.6545372009
-43.4929962158 -7.2989659309 25.4769020081
-43.5915145874 -7.3126296997 25.3048305511
-43.7174644470 -7.3300905228 25.1395301819
-43.8538398743 -7.3489942551 24.9769191742
-43.9733543396 -7.3655638695 24.8103580475
-44.0574798584 -7.3772354126 24.6352901459
-44.1048164368 -7.3838162422 24.4513034821
-44.1234016418 -7.3864169121 24.2602977753
-44.1182022095 -7.3857264519 24.0634498596
-44.0856132507 -7.3812451363 23.8598175049
-44.0184211731 -7.3719749451 23.6475639343
-43.9170646667 -7.3579759598 23.4267311096
-43.7961273193 -7.3412671089 23.2008857727
-43.6767692566 -7.3247766495 22.9752712250
-43.5713462830 -7.3102154732 22.7529850006
-43.4780540466 -7.2973327637 22.5335979462
-43.3910598755 -7.2853217125 22.3156661987
-43.3126411438 -7.2744970322 22.0997791290
-43.2536659241 -7.2663640976 21.8886985779
-43.2253532410 -7.2624750137 21.6853046417
-43.2336769104 -7.2636556625 21.4911746979
-43.2796669006 -7.2700495720 21.3066425323
-43.3606452942 -7.2812862396 21.1310939789
-43.4709663391 -7.2965831757 20.9631519318
-43.6038627625 -7.3150053024 20.8011379242
-43.7515983582 -7.3354806900 20.6431007385
-43.9013404846 -7.3562335968 20.4857616425
-44.0333251953 -7.3745293617 20.3240127563
-44.1276359558 -7.3876109123 20.1526603699
-44.1726455688 -7.3938689232 19.9686088562
-44.1659240723 -7.3929677010 19.7711334229
-44.1112976074 -7.3854365349 19.5611324310
-44.0205001831 -7.3728990555 19.3415832520
-43.9154777527 -7.3583936691 19.1181793213
-43.8210220337 -7.3453497887 18.8974113464
-43.7504005432 -7.3356051445 18.6828002930
-43.6985015869 -7.3284506798 18.4730358124
-43.6481628418 -7.3215131760 18.2636108398
-43.5819549561 -7.3123788834 18.0498981476
-43.4912109375 -7.2998495102 17.8295612335
-43.3800697327 -7.2844972610 17.6036567688
-43.2642440796 -7.2684960365 17.3763484955
-43.1653099060 -7.2548327446 17.1534137726
-43.1039619446 -7.2463717461 16.9404449463
-43.0953178406 -7.2452044487 16.7415885925
-43.1450500488 -7.2521162033 16.5584754944
-43.2442169189 -7.2658696175 16.3887996674
-43.3677368164 -7.2829933167 16.2258491516
-43.4844169617 -7.2991704941 16.0611858368
-43.5739288330 -7.3115878105 15.8892593384
-43.6356620789 -7.3201603889 15.7098474503
-43.6839103699 -7.3268671036 15.5268135071
-43.7380676270 -7.3343911171 15.3454542160
-43.8143806458 -7.3449811935 15.1702508926
-43.9182548523 -7.3593864441 15.0027389526
-44.0384750366 -7.3760533333 14.8398694992
-44.1502037048 -7.3915448189 14.6747913361
-44.2274055481 -7.4022583961 14.5002603531
-44.2544021606 -7.4060235023 14.3118438721
-44.2290191650 -7.4025397301 14.1088409424
-44.1608314514 -7.3931317329 13.8938264847
-44.0685234070 -7.3803853989 13.6719551086
-43.9739227295 -7.3673219681 13.4493150711
-43.8930892944 -7.3561644554 13.2304210663
-43.8311805725 -7.3476257324 13.0167551041
-43.7847023010 -7.3412222862 12.8073654175
-43.7471237183 -7.3360505104 12.6004304886
-43.7135086060 -7.3314275742 12.3945655823
-43.6836738586 -7.3273272514 12.1897249222
-43.6633796692 -7.3245477676 11.9875602722
-43.6614761353 -7.3243131638 11.7906208038
-43.6841926575 -7.3274860382 11.6007280350
-43.7334518433 -7.3343324661 11.4184827805
-43.8112487793 -7.3451285362 11.2445087433
-43.9210014343 -7.3603463173 11.0798463821
-44.0592346191 -7.3795061111 10.9235534668
-44.2075004578 -7.4000544548 10.7703371048
-44.3385467529 -7.4182195663 10.6122989655
-44.4322700500 -7.4312191010 10.4435539246
-44.4834518433 -7.4383316040 10.2625074387
-44.4945030212 -7.4398899078 10.0697832108
-44.4649734497 -7.4358320236 9.8651714325
-44.3916854858 -7.4257183075 9.6476621628
-44.2799415588 -7.4102826118 9.4187307358
-44.1514396667 -7.3925280571 9.1847047806
-44.0358657837 -7.3765621185 8.9543275833
-43.9523963928 -7.3650393486 8.7333049774
-43.9001693726 -7.3578405380 8.5214424133
-43.8640785217 -7.3528752327 8.3143062592
-43.8257484436 -7.3475995064 8.1064481735
-43.7714538574 -7.3401145935 7.8937606812
-43.6978340149 -7.3299551010 7.6752080917
-43.6154251099 -7.3185796738 7.4539160728
-43.5451087952 -7.3088774681 7.2361450195
-43.5061492920 -7.3035149574 7.0277266502
-43.5047073364 -7.3033442497 6.8305807114
-43.5335159302 -7.3073601723 6.6425795555
-43.5822067261 -7.3141274452 6.4606370926
-43.6454238892 -7.3229060173 6.2831640244
-43.7203407288 -7.3333029747 6.1093258858
-43.8001708984 -7.3443794250 5.9370746613
-43.8746032715 -7.3547096252 5.7632670403
-43.9363899231 -7.3632893562 5.5856690407
-43.9843215942 -7.3699517250 5.4038867950
-44.0190849304 -7.3747916222 5.2181038857
-44.0390434265 -7.3775825500 5.0277910233
-44.0422325134 -7.3780531883 4.8323125839
-44.0313224792 -7.3765726089 4.6324629784
-44.0142326355 -7.3742361069 4.4306726456
-43.9996337891 -7.3722448349 4.2296266556
-43.9928817749 -7.3713397980 4.0309991837
-43.9958000183 -7.3717722893 3.8353726864
-44.0088500977 -7.3736076355 3.6429126263
-44.0340652466 -7.3771262169 3.4542746544
-44.0784759521 -7.3833012581 3.2716913223
-44.1569175720 -7.3941860199 3.0998706818
-44.2897186279 -7.4125933647 2.9452900887
-44.4911651611 -7.4405007362 2.8125705719
-44.7544059753 -7.4769597054 2.6996743679
-45.0485267639 -7.5176920891 2.5969071388
-45.3344192505 -7.5572853088 2.4918911457
-45.5833244324 -7.5917606354 2.3754467964
-45.7808113098 -7.6191196442 2.2428948879
-45.9220123291 -7.6386895180 2.0925786495
-46.0108070374 -7.6510066986 1.9256325960
-46.0602455139 -7.6578774452 1.7461497784
-46.0872650146 -7.6616454124 1.5595058203
-46.1053886414 -7.6641826630 1.3700186014
-46.1215171814 -7.6664428711 1.1799006462
-46.1363716125 -7.6685280800 0.9893835783
-46.1443824768 -7.6696653366 0.7966560721
-46.1328468323 -7.6680979729 0.5975757837
-46.0863075256 -7.6616859436 0.3870702982
-46.0004844666 -7.6498379707 0.1636760235
-11.9397163391 -28.3506717682 91.2786102295
-11.9747428894 -28.4425411224 91.0775527954
-12.0439615250 -28.6210517883 90.8778381348
-12.1372709274 -28.8606109619 90.6792602539
-12.2380571365 -29.1191139221 90.4812698364
-12.3287811279 -29.3521099091 90.2831878662
-12.3993663788 -29.5340709686 90.0845336914
-12.4502172470 -29.6660213470 89.8852233887
-12.4871101379 -29.7625999451 89.6854324341
-12.5143823624 -29.8347988129 89.4852981567
-12.5330047607 -29.8850765228 89.2848205566
-12.5429821014 -29.9134483337 89.0839538574
-12.5454797745 -29.9228687286 88.8827209473
-12.5425148010 -29.9184436798 88.6811981201
-12.5356273651 -29.9040832520 88.4794387817
-12.5252532959 -29.8808879852 88.2774505615
-12.5111513138 -29.8482475281 88.0752029419
-12.4934968948 -29.8066043854 87.8726882935
-12.4741687775 -29.7607250214 87.6700057983
-12.4572467804 -29.7209415436 87.4674072266
-12.4478645325 -29.7002620697 87.2652359009
-12.4501237869 -29.7090797424 87.0638198853
-12.4654760361 -29.7510700226 86.8632965088
-12.4920806885 -29.8215675354 86.6636123657
-12.5251636505 -29.9084796906 86.4644699097
-12.5586929321 -29.9965209961 86.2654647827
-12.5880823135 -30.0740718842 86.0662536621
-12.6126918793 -30.1395092010 85.8667602539
-12.6363592148 -30.2025604248 85.6672668457
-12.6643180847 -30.2764835358 85.4681854248
-12.6979475021 -30.3647708893 85.2696609497
-12.7326908112 -30.4558773041 85.0713272095
-12.7618350983 -30.5327987671 84.8726196289
-12.7817564011 -30.5863513947 84.6732025146
-12.7932500839 -30.6185569763 84.4731063843
-12.7991304398 -30.6365394592 84.2725372314
-12.8015832901 -30.6458377838 84.0716629028
-12.8010330200 -30.6475315094 83.8705139160
-12.7959337234 -30.6377010345 83.6689300537
-12.7829256058 -30.6078338623 83.4665527344
-12.7581329346 -30.5481147766 83.2629776001
-12.7204484940 -30.4557418823 83.0580368042
-12.6751232147 -30.3440132141 82.8521881104
-12.6336212158 -30.2419738770 82.6465759277
-12.6081743240 -30.1806049347 82.4425048828
-12.6054115295 -30.1766967773 82.2407531738
-12.6250982285 -30.2296562195 82.0413970947
-12.6642036438 -30.3318042755 81.8442230225
-12.7203330994 -30.4770698547 81.6490631104
-12.7905216217 -30.6579437256 81.4556579590
-12.8685207367 -30.8585987091 81.2633590698
-12.9455099106 -31.0566940308 81.0711975098
-13.0137376785 -31.2325897217 80.8782501221
-13.0690917969 -31.3758773804 80.6839904785
-13.1112699509 -31.4857883453 80.4883041382
-13.1428108215 -31.5687580109 80.2914581299
-13.1674213409 -31.6341686249 80.0938415527
-13.1873435974 -31.6877059937 79.8957138062
-13.2014675140 -31.7265586853 79.6969070435
-13.2065420151 -31.7424888611 79.4969787598
-13.2009344101 -31.7313652039 79.2956619263
-13.1870985031 -31.6993999481 79.0932388306
-13.1701049805 -31.6594409943 78.8903350830
-13.1541891098 -31.6222095490 78.6875228882
-13.1410083771 -31.5919094086 78.4850234985
-13.1306142807 -31.5686645508 78.2828674316
-13.1231861115 -31.5529327393 78.0810775757
-13.1199970245 -31.5479354858 77.8798675537
-13.1234512329 -31.5597667694 77.6795883179
-13.1363487244 -31.5955104828 77.4806823730
-13.1607007980 -31.6602611542 77.2834930420
-13.1970930099 -31.7555007935 77.0881652832
-13.2449674606 -31.8798179626 76.8946685791
-13.3026313782 -32.0289230347 76.7028045654
-13.3668470383 -32.1946182251 76.5121231079
-13.4336557388 -32.3668746948 76.3220443726
-13.4998388290 -32.5375404358 76.1320877075
-13.5624799728 -32.6992416382 75.9417724609
-13.6177692413 -32.8423156738 75.7504806519
-13.6624593735 -32.9585533142 75.5576553345
-13.6968564987 -33.0487213135 75.3632888794
-13.7248125076 -33.1225776672 75.1679763794
-13.7499485016 -33.1892929077 74.9722747803
-13.7723293304 -33.2490310669 74.7761840820
-13.7889900208 -33.2942848206 74.5791931152
-13.7968540192 -33.3172645569 74.3807525635
-13.7943344116 -33.3139495850 74.1805267334
-13.7809362411 -33.2830886841 73.9784011841
-13.7576522827 -33.2271995544 73.7744827271
-13.7292013168 -33.1582298279 73.5695648193
-13.7048387527 -33.0996131897 73.3652801514
-13.6948966980 -33.0775108337 73.1635131836
-13.7055559158 -33.1075668335 72.9654693604
-13.7362384796 -33.1883201599 72.7711410522
-13.7805662155 -33.3036193848 72.5794372559
-13.8299140930 -33.4316253662 72.3888092041
-13.8783187866 -33.5572433472 72.1981658936
-13.9253463745 -33.6793708801 72.0074005127
-13.9736623764 -33.8047599792 71.8170394897
-14.0236301422 -33.9343261719 71.6271438599
-14.0712108612 -34.0578460693 71.4369354248
-14.1115150452 -34.1629447937 71.2454452515
-14.1435880661 -34.2472038269 71.0524444580
-14.1712398529 -34.3202667236 70.8586578369
-14.1994113922 -34.3946418762 70.6650619507
-14.2297410965 -34.4744834900 70.4719848633
-14.2592763901 -34.5523109436 70.2788391113
-14.2830982208 -34.6156730652 70.0846023560
-14.2979354858 -34.6562881470 69.8885650635
-14.3035020828 -34.6734352112 69.6906280518
-14.3015060425 -34.6714363098 69.4910964966
-14.2947483063 -34.6573867798 69.2905349731
-14.2873926163 -34.6418228149 69.0898208618
-14.2847852707 -34.6382789612 68.8900985718
-14.2913789749 -34.6580238342 68.6923751831
-14.3085021973 -34.7044258118 68.4969787598
-14.3347511292 -34.7739257813 68.3036499023
-14.3683748245 -34.8620910645 68.1120529175
-14.4085693359 -34.9668884277 67.9220275879
-14.4548540115 -35.0870971680 67.7335128784
-14.5059518814 -35.2194900513 67.5462341309
-14.5590658188 -35.3569831848 67.3595809937
-14.6097326279 -35.4882774353 67.1725311279
-14.6527442932 -35.6001968384 66.9838562012
-14.6841144562 -35.6826438904 66.7925796509
-14.7027854919 -35.7329521179 66.5984039307
-14.7108116150 -35.7563095093 66.4017562866
-14.7121610641 -35.7627716064 66.2035293579
-14.7114019394 -35.7638969421 66.0047912598
-14.7128715515 -35.7706642151 65.8065872192
-14.7196712494 -35.7909202576 65.6096801758
-14.7321395874 -35.8255233765 65.4141845703
-14.7472667694 -35.8668594360 65.2193832397
-14.7606897354 -35.9038772583 65.0242004395
-14.7701520920 -35.9308700562 64.8280563354
-14.7774429321 -35.9523696899 64.6313934326
-14.7878170013 -35.9816703796 64.4355316162
-14.8082046509 -36.0363121033 64.2422561646
-14.8447151184 -36.1317558289 64.0531921387
-14.8993015289 -36.2729415894 63.8689155579
-14.9676446915 -36.4489440918 63.6883964539
-15.0413703918 -36.6385612488 63.5095024109
-15.1134262085 -36.8239479065 63.3304023743
-15.1811647415 -36.9984092712 63.1503868103
-15.2441616058 -37.1608657837 62.9693183899
-15.3003511429 -37.3060913086 62.7866210938
-15.3459367752 -37.4244842529 62.6012344360
-15.3790826797 -37.5113945007 62.4126091003
-15.4023637772 -37.5733375549 62.2213859558
-15.4208974838 -37.6232681274 62.0289268494
-15.4383602142 -37.6704864502 61.8362236023
-15.4547996521 -37.7151184082 61.6432876587
-15.4677801132 -37.7509956360 61.4494323730
-15.4749336243 -37.7721252441 61.2539672852
-15.4751443863 -37.7756881714 61.0565567017
-15.4680557251 -37.7607841492 60.8570594788
-15.4540462494 -37.7283668518 60.6555480957
-15.4359369278 -37.6855735779 60.4528045654
-15.4205455780 -37.6496620178 60.2507858276
-15.4173240662 -37.6445426941 60.0522575378
-15.4343395233 -37.6906280518 59.8596420288
-15.4750871658 -37.7967605591 59.6740684509
-15.5381498337 -37.9593467712 59.4952354431
-15.6181573868 -38.1648063660 59.3216514587
-15.7064237595 -38.3911590576 59.1507987976
-15.7924222946 -38.6117668152 58.9795417786
-15.8674669266 -38.8046569824 58.8052406311
-15.9288005829 -38.9628562927 58.6270065308
-15.9802465439 -39.0960350037 58.4459342957
-16.0279045105 -39.2196273804 58.2638626099
-16.0743312836 -39.3401031494 58.0815582275
-16.1166267395 -39.4501228333 57.8981132507
-16.1498470306 -39.5371856689 57.7119636536
-16.1716785431 -39.5954322815 57.5223350525
-16.1839122772 -39.6293945313 57.3297424316
-16.1905021667 -39.6490783691 57.1353912354
-16.1946163177 -39.6625022888 56.9402656555
-16.1966953278 -39.6707763672 56.7444915771
-16.1946754456 -39.6686820984 56.5473976135
-16.1864643097 -39.6509246826 56.3482856750
-16.1726856232 -39.6190834045 56.1473274231
-16.1569385529 -39.5822601318 55.9456748962
-16.1436004639 -39.5515365601 55.7447586060
-16.1359424591 -39.5351791382 55.5456657410
-16.1362400055 -39.5389518738 55.3491897583
-16.1468753815 -39.5688705444 55.1561546326
-16.1702442169 -39.6310005188 54.9674224854
-16.2066726685 -39.7261581421 54.7831649780
-16.2521686554 -39.8442611694 54.6020889282
-16.2993659973 -39.9666595459 54.4217338562
-16.3419952393 -40.0774993896 54.2399635315
-16.3786849976 -40.1733169556 54.0562896729
-16.4122524261 -40.2612342834 53.8716468811
-16.4459152222 -40.3493919373 53.6871414185
-16.4806289673 -40.4402046204 53.5031089783
-16.5150299072 -40.5302200317 53.3190727234
-16.5464839935 -40.6127891541 53.1341056824
-16.5721569061 -40.6807250977 52.9471893311
-16.5901794434 -40.7293167114 52.7576370239
-16.6005039215 -40.7584419250 52.5653915405
-16.6046104431 -40.7718315125 52.3709487915
-16.6043682098 -40.7742271423 52.1749458313
-16.6011714935 -40.7691459656 51.9778671265
-16.5958442688 -40.7586784363 51.7799949646
-16.5889968872 -40.7443695068 51.5815505981
-16.5813961029 -40.7281532288 51.3828010559
-16.5742015839 -40.7129631042 51.1841659546
-16.5691356659 -40.7031631470 50.9862899780
-16.5686473846 -40.7049331665 50.7900924683
-16.5758838654 -40.7262420654 50.5967674255
-16.5940704346 -40.7752418518 50.4075660706
-16.6250820160 -40.8566780090 50.2232398987
-16.6681652069 -40.9686355591 50.0435676575
-16.7201881409 -41.1032028198 49.8674278259
-16.7773265839 -41.2507057190 49.6933975220
-16.8365745544 -41.4035339355 49.5203590393
-16.8957996368 -41.5563049316 49.3474960327
-16.9525585175 -41.7028350830 49.1738662720
-17.0031108856 -41.8336715698 48.9980125427
-17.0431976318 -41.9380340576 48.8182449341
-17.0704746246 -42.0100059509 48.6335945129
-17.0863418579 -42.0531272888 48.4445457458
-17.0950946808 -42.0782585144 48.2527389526
-17.1010951996 -42.0964279175 48.0598640442
-17.1064491272 -42.1129608154 47.8667488098
-17.1106357574 -42.1265449524 47.6731758118
-17.1114749908 -42.1316604614 47.4782714844
-17.1062717438 -42.1214981079 47.2809295654
-17.0931491852 -42.0913162231 47.0803680420
-17.0727558136 -42.0427474976 46.8768081665
-17.0491256714 -41.9860000610 46.6718559265
-17.0282096863 -41.9361114502 46.4679336548
-17.0151939392 -41.9062004089 46.2671775818
-17.0132884979 -41.9043846130 46.0709495544
-17.0242347717 -41.9350585938 45.8800315857
-17.0483512878 -41.9990310669 45.6946144104
-17.0834999084 -42.0908966064 45.5138664246
-17.1248416901 -42.1984176636 45.3358268738
-17.1667270660 -42.3073120117 45.1581382751
-17.2056636810 -42.4087486267 44.9793395996
-17.2417354584 -42.5029373169 44.7994499207
-17.2768936157 -42.5948181152 44.6192817688
-17.3117885590 -42.6860313416 44.4391098022
-17.3446254730 -42.7720413208 44.2581634521
-17.3729610443 -42.8466682434 44.0753822327
-17.3956794739 -42.9070930481 43.8902626038
-17.4129619598 -42.9537734985 43.7028579712
-17.4252529144 -42.9878387451 43.5133285522
-17.4328651428 -43.0100669861 43.3217926025
-17.4361381531 -43.0213356018 43.1283721924
-17.4353084564 -43.0222244263 42.9331512451
-17.4299182892 -43.0115928650 42.7359123230
-17.4181861877 -42.9849243164 42.5358314514
-17.3969993591 -42.9343566895 42.3315048218
-17.3637065887 -42.8531913757 42.1217002869
-17.3195762634 -42.7446289063 41.9069213867
-17.2719478607 -42.6272277832 41.6904220581
-17.2319583893 -42.5291366577 41.4772033691
-17.2096652985 -42.4757804871 41.2718696594
-17.2113285065 -42.4829826355 41.0773468018
-17.2393989563 -42.5569305420 40.8948707581
-17.2917690277 -42.6923027039 40.7236099243
-17.3605384827 -42.8691215515 40.5600471497
-17.4344348907 -43.0588989258 40.3990669250
-17.5046825409 -43.2394447327 40.2366371155
-17.5680656433 -43.4026451111 40.0712432861
-17.6243038177 -43.5477752686 39.9027175903
-17.6724433899 -43.6724357605 39.7305831909
-17.7110309601 -43.7729530334 39.5541152954
-17.7406044006 -43.8506851196 39.3735237122
-17.7643394470 -43.9136581421 39.1902618408
-17.7856922150 -43.9706077576 39.0059432983
-17.8055534363 -44.0237884521 38.8209800720
-17.8216438293 -44.0674400330 38.6342735291
-17.8303604126 -44.0924491882 38.4440803528
-17.8287963867 -44.0914802551 38.2489662170
-17.8154830933 -44.0608177185 38.0481758118
-17.7907371521 -44.0012626648 37.8417968750
-17.7573642731 -43.9198989868 37.6311454773
-17.7201881409 -43.8289337158 37.4185218811
-17.6836185455 -43.7395019531 37.2060699463
-17.6503543854 -43.6584243774 36.9951133728
-17.6235256195 -43.5936126709 36.7872085571
-17.6085472107 -43.5587501526 36.5850639343
-17.6102256775 -43.5659790039 36.3911170959
-17.6280212402 -43.6139411926 36.2051849365
-17.6559867859 -43.6875953674 36.0243721008
-17.6875324249 -43.7702980042 35.8454399109
-17.7188110352 -43.8523292542 35.6664695740
-17.7478713989 -43.9287490845 35.4864807129
-17.7731056213 -43.9954986572 35.3046455383
-17.7936649323 -44.0504417419 35.1205177307
-17.8100929260 -44.0949363708 34.9343490601
-17.8233604431 -44.1314468384 34.7466125488
-17.8335609436 -44.1602058411 34.5573501587
-17.8400726318 -44.1796455383 34.3662147522
-17.8427391052 -44.1893653870 34.1731185913
-17.8424835205 -44.1917037964 33.9785118103
-17.8406829834 -44.1901359558 33.7830963135
-17.8380546570 -44.1864852905 33.5872421265
-17.8337650299 -44.1786270142 33.3905067444
-17.8249397278 -44.1593132019 33.1913757324
-17.8068389893 -44.1165657043 32.9873390198
-17.7745227814 -44.0378990173 32.7757530212
-17.7265796661 -43.9197578430 32.5558013916
-17.6689758301 -43.7772026062 32.3305664063
-17.6145839691 -43.6427650452 32.1068458557
-17.5768165588 -43.5503425598 31.8918037415
-17.5628070831 -43.5179367065 31.6893367767
-17.5722198486 -43.5447082520 31.4993820190
-17.6001777649 -43.6183319092 31.3194293976
-17.6393966675 -43.7204093933 31.1456394196
-17.6817302704 -43.8303527832 30.9736595154
-17.7212734222 -43.9332427979 30.8002967834
-17.7569446564 -44.0263519287 30.6249485016
-17.7912788391 -44.1160774231 30.4489803314
-17.8265705109 -44.2082214355 30.2736434937
-17.8623867035 -44.3016891479 30.0987033844
-17.8958911896 -44.3893165588 29.9226016998
-17.9236412048 -44.4624061584 29.7434215546
-17.9432277679 -44.5148658752 29.5598011017
-17.9540920258 -44.5452957153 29.3713893890
-17.9572658539 -44.5562973022 29.1787166595
-17.9543132782 -44.5518226624 28.9826221466
-17.9462413788 -44.5344161987 28.7836399078
-17.9330406189 -44.5040512085 28.5817394257
-17.9142150879 -44.4594879150 28.3766174316
-17.8899688721 -44.4012222290 28.1683597565
-17.8616924286 -44.3327827454 27.9577293396
-17.8309059143 -44.2580032349 27.7455711365
-17.7980918884 -44.1781044006 27.5321483612
-17.7635955811 -44.0939598083 27.3176498413
-17.7296581268 -44.0112266541 27.1033535004
-17.7004852295 -43.9405288696 26.8916835785
-17.6800289154 -43.8918495178 26.6849422455
-17.6702690125 -43.8701896667 26.4843215942
-17.6715259552 -43.8763580322 26.2900600433
-17.6832275391 -43.9089050293 26.1018791199
-17.7036514282 -43.9634857178 25.9188232422
-17.7295169830 -44.0318031311 25.7390136719
-17.7567749023 -44.1036415100 25.5601005554
-17.7819843292 -44.1703033447 25.3800640106
-17.8028106689 -44.2258911133 25.1975154877
-17.8178806305 -44.2669448853 25.0116233826
-17.8269214630 -44.2927627563 24.8221912384
-17.8308010101 -44.3055496216 24.6297130585
-17.8308181763 -44.3085823059 24.4349346161
-17.8275108337 -44.3032188416 24.2381591797
-17.8198928833 -44.2869720459 24.0387802124
-17.8057403564 -44.2542152405 23.8354358673
-17.7830085754 -44.1997985840 23.6268615723
-17.7517433167 -44.1238327026 23.4130420685
-17.7149829865 -44.0339889526 23.1957817078
-17.6774101257 -43.9420967102 22.9778976440
-17.6420688629 -43.8558425903 22.7612457275
-17.6078033447 -43.7723083496 22.5451316833
-17.5706481934 -43.6814727783 22.3271255493
-17.5290660858 -43.5794639587 22.1062698364
-17.4882144928 -43.4793014526 21.8857212067
-17.4583587646 -43.4069099426 21.6718330383
-17.4485378265 -43.3851089478 21.4702606201
-17.4609203339 -43.4193763733 21.2824516296
-17.4896774292 -43.4949951172 21.1048812866
-17.5243816376 -43.5856246948 20.9311161041
-17.5555953979 -43.6674385071 20.7552719116
-17.5790157318 -43.7295761108 20.5746288300
-17.5956077576 -43.7744674683 20.3897552490
-17.6085319519 -43.8101005554 20.2026157379
-17.6197929382 -43.8415298462 20.0144577026
-17.6287364960 -43.8671112061 19.8248615265
-17.6328754425 -43.8805541992 19.6322288513
-17.6299800873 -43.8762435913 19.4351177216
-17.6197261810 -43.8533477783 19.2332839966
-17.6033782959 -43.8150711060 19.0275020599
-17.5813484192 -43.7624435425 18.8180084229
-17.5501480103 -43.6866683960 18.6025238037
-17.5019950867 -43.5680885315 18.3759784698
-17.4298171997 -43.3888587952 18.1337032318
-17.3355178833 -43.1537780762 17.8768177032
-17.2335586548 -42.8993682861 17.6146297455
-17.1443004608 -42.6770286560 17.3603935242
-17.0826148987 -42.5242958069 17.1238975525
-17.0523242950 -42.4508399963 16.9077930450
-17.0491409302 -42.4458160400 16.7094116211
-17.0663337708 -42.4922294617 16.5244445801
-17.0980186462 -42.5752334595 16.3491077423
-17.1390705109 -42.6818847656 16.1800765991
-17.1835727692 -42.7972412109 16.0134658813
-17.2250556946 -42.9049682617 15.8449821472
-17.2592945099 -42.9944152832 15.6717958450
-17.2865047455 -43.0661125183 15.4940109253
-17.3100776672 -43.1286239624 15.3138694763
-17.3331184387 -43.1897926331 15.1334409714
-17.3558578491 -43.2502021790 14.9528799057
-17.3759059906 -43.3038139343 14.7705678940
-17.3907661438 -43.3443336487 14.5848026276
-17.4000434875 -43.3707580566 14.3952884674
-17.4051265717 -43.3865928650 14.2029438019
-17.4067935944 -43.3938064575 14.0082798004
-17.4035224915 -43.3885536194 13.8102378845
-17.3930130005 -43.3650283813 13.6072149277
-17.3763942719 -43.3260879517 13.3999547958
-17.3610954285 -43.2904739380 13.1935415268
-17.3583545685 -43.2865638733 12.9957447052
-17.3765335083 -43.3354530334 12.8124122620
-17.4158840179 -43.4377861023 12.6438217163
-17.4691066742 -43.5751266479 12.4850015640
-17.5265083313 -43.7230148315 12.3292627335
-17.5811176300 -43.8638458252 12.1717548370
-17.6303176880 -43.9910278320 12.0106325150
-17.6743297577 -44.1051101685 11.8460235596
-17.7140636444 -44.2083930969 11.6785421371
-17.7499332428 -44.3019256592 11.5084609985
-17.7815284729 -44.3846626282 11.3354692459
-17.8078575134 -44.4541091919 11.1588439941
-17.8282661438 -44.5086135864 10.9780941010
-17.8431282043 -44.5491180420 10.7934570313
-17.8532428741 -44.5776405334 10.6054763794
-17.8586120605 -44.5941848755 10.4141283035
-17.8583736420 -44.5965766907 10.2187719345
-17.8521480560 -44.5838623047 10.0191087723
-17.8410129547 -44.5587539673 9.8158817291
-17.8267707825 -44.5258064270 9.6103715897
-17.8103771210 -44.4874343872 9.4032526016
-17.7914485931 -44.4426651001 9.1942358017
-17.7697067261 -44.3907928467 8.9831047058
-17.7471179962 -44.3367881775 8.7712812424
-17.7287807465 -44.2935142517 8.5624799728
-17.7217273712 -44.2787132263 8.3618679047
-17.7323741913 -44.3085784912 8.1742029190
-17.7637691498 -44.3908042908 8.0018148422
-17.8137588501 -44.5199470520 7.8432183266
-17.8753948212 -44.6784744263 7.6933770180
-17.9398899078 -44.8442115784 7.5458455086
-18.0000495911 -44.9990081787 7.3953070641
-18.0518741608 -45.1327705383 7.2387657166
-18.0942459106 -45.2426795959 7.0753498077
-18.1280326843 -45.3309211731 6.9056601524
-18.1550483704 -45.4020805359 6.7310104370
-18.1768321991 -45.4600334167 6.5525212288
-18.1937999725 -45.5058364868 6.3704800606
-18.2053527832 -45.5379753113 6.1844105721
-18.2107353210 -45.5545425415 5.9937171936
-18.2100219727 -45.5557327271 5.7984271049
-18.2044429779 -45.5446434021 5.5994391441
-18.1957092285 -45.5255966187 5.3980317116
-18.1850261688 -45.5016326904 5.1951069832
-18.1726779938 -45.4734687805 4.9908695221
-18.1584606171 -45.4405860901 4.7851567268
-18.1426086426 -45.4035835266 4.5781397820
-18.1263580322 -45.3655776978 4.3707580566
-18.1115322113 -45.3311614990 4.1644120216
-18.0996417999 -45.3041572571 3.9602763653
-18.0916957855 -45.2871017456 3.7591414452
-18.0889835358 -45.2832527161 3.5620281696
-18.0938205719 -45.2984466553 3.3707563877
-18.1090469360 -45.3398513794 3.1875734329
-18.1363372803 -45.4116935730 3.0138356686
-18.1746673584 -45.5113792419 2.8488016129
-18.2205142975 -45.6300277710 2.6897697449
-18.2696037292 -45.7568588257 2.5334258080
-18.3182773590 -45.8826293945 2.3769092560
-18.3632659912 -45.9991073608 2.2176461220
-18.4010734558 -46.0974693298 2.0528581142
-18.4286327362 -46.1699752808 1.8800842762
-18.4446182251 -46.2132797241 1.6982239485
-18.4494247437 -46.2283897400 1.5075343847
-18.4438209534 -46.2172393799 1.3085711002
-18.4281482697 -46.1806907654 1.1015558243
-18.4028148651 -46.1197738647 0.8867647648
-18.3687858582 -46.0369224548 0.6649212837
-18.3268394470 -45.9341049194 0.4366086423
-18.2764434814 -45.8099784851 0.2013602406
-37.2309226990 12.8857116699 90.4911270142
-37.2719802856 12.9013757706 90.2964324951
-37.3461914063 12.9297103882 90.1028594971
-37.4477119446 12.9684839249 89.9102859497
-37.5670967102 13.0140857697 89.7184371948
-37.6906623840 13.0612859726 89.5268859863
-37.8029708862 13.1041831970 89.3350906372
-37.8921928406 13.1382570267 89.1426162720
-37.9544067383 13.1620054245 88.9492645264
-37.9928436279 13.1766681671 88.7551116943
-38.0125198364 13.1841564178 88.5602874756
-38.0141181946 13.1847372055 88.3647842407
-37.9915580750 13.1760835648 88.1683349609
-37.9361343384 13.1548681259 87.9705429077
-37.8463554382 13.1205215454 87.7712707520
-37.7349205017 13.0778961182 87.5709915161
-37.6229591370 13.0350694656 87.3705215454
-37.5247459412 12.9974994659 87.1704864502
-37.4389686584 12.9646806717 86.9708480835
-37.3549690247 12.9325437546 86.7711563110
-37.2655715942 12.8983402252 86.5711059570
-37.1745948792 12.8635358810 86.3708648682
-37.0979461670 12.8342075348 86.1711425781
-37.0619392395 12.8204135895 85.9731979370
-37.0980606079 12.8341903687 85.7785949707
-37.2314033508 12.8851270676 85.5886688232
-37.4659500122 12.9747486115 85.4038162231
-37.7753601074 13.0929851532 85.2229461670
-38.1082839966 13.2202100754 85.0436477661
-38.4116706848 13.3361434937 84.8632965088
-38.6591339111 13.4307022095 84.6804809570
-38.8588523865 13.5070114136 84.4955215454
-39.0322837830 13.5732727051 84.3094406128
-39.1876792908 13.6326398849 84.1226196289
-39.3162040710 13.6817359924 83.9345550537
-39.4080924988 13.7168283463 83.7446670532
-39.4652633667 13.7386503220 83.5529708862
-39.5002632141 13.7519979477 83.3601074219
-39.5317153931 13.7639904022 83.1670837402
-39.5862426758 13.7848024368 82.9754104614
-39.7008857727 13.8285923004 82.7872772217
-39.9096527100 13.9083604813 82.6047897339
-40.2122917175 14.0240097046 82.4281158447
-40.5554771423 14.1551580429 82.2542572021
-40.8582267761 14.2708482742 82.0784149170
-41.0634002686 14.3492441177 81.8969955444
-41.1627235413 14.3871784210 81.7093124390
-41.1788139343 14.3932971954 81.5165481567
-41.1377487183 14.3775711060 81.3201980591
-41.0614891052 14.3483915329 81.1215362549
-40.9733352661 14.3146648407 80.9219970703
-40.8968849182 14.2854127884 80.7230911255
-40.8463211060 14.2660551071 80.5257797241
-40.8208351135 14.2562837601 80.3300628662
-40.8089599609 14.2517127991 80.1352081299
-40.7968711853 14.2470617294 79.9403228760
-40.7747573853 14.2385787964 79.7447204590
-40.7408370972 14.2255821228 79.5482711792
-40.7019805908 14.2106990814 79.3514175415
-40.6685676575 14.1978979111 79.1548919678
-40.6467132568 14.1895132065 78.9591293335
-40.6351661682 14.1850700378 78.7640762329
-40.6288032532 14.1826057434 78.5693664551
-40.6234741211 14.1805391312 78.3747253418
-40.6176147461 14.1782684326 78.1800231934
-40.6105499268 14.1755380630 77.9852142334
-40.5997276306 14.1713705063 77.7901077271
-40.5790977478 14.1634540558 77.5942306519
-40.5409355164 14.1488380432 77.3969802856
-40.4811096191 14.1259393692 77.1979980469
-40.4032287598 14.0961389542 76.9975280762
-40.3189315796 14.0638875961 76.7964324951
-40.2481765747 14.0368118286 76.5962982178
-40.2234230042 14.0273189545 76.3997268677
-40.2888107300 14.0522813797 76.2103652954
-40.4792137146 14.1250324249 76.0312271118
-40.7840194702 14.2415094376 75.8616943359
-41.1316261292 14.3743495941 75.6960983276
-41.4253959656 14.4866094589 75.5264739990
-41.6058120728 14.5555419922 75.3477401733
-41.6788749695 14.5834388733 75.1601638794
-41.6907043457 14.5879297256 74.9674606323
-41.6859893799 14.5860967636 74.7733459473
-41.6898498535 14.5875434875 74.5799636841
-41.7156829834 14.5973863602 74.3884887695
-41.7777328491 14.6210746765 74.2002258301
-41.8896598816 14.6638278961 74.0164413452
-42.0453109741 14.7232933044 73.8367080688
-42.2002067566 14.7824697495 73.6570968628
-42.2849121094 14.8148183823 73.4713363647
-42.2533569336 14.8027257919 73.2750854492
-42.1208152771 14.7520322800 73.0695037842
-41.9463577271 14.6853170395 72.8598556519
-41.7783508301 14.6210680008 72.6505737305
-41.6238937378 14.5619964600 72.4423294067
-41.4666862488 14.5018749237 72.2336044312
-41.3004379272 14.4382982254 72.0238037109
-41.1398315430 14.3768758774 71.8143157959
-41.0075340271 14.3262767792 71.6073303223
-40.9189567566 14.2923870087 71.4044113159
-40.8795318604 14.2772874832 71.2061767578
-40.8926086426 14.2822551727 71.0130538940
-40.9681701660 14.3111076355 70.8261413574
-41.1219749451 14.3698692322 70.6471328735
-41.3599586487 14.4608058929 70.4767837524
-41.6571960449 14.5743923187 70.3127441406
-41.9558792114 14.6885309219 70.1492385864
-42.1954116821 14.7800617218 69.9800643921
-42.3494300842 14.8389034271 69.8023681641
-42.4327354431 14.8707160950 69.6175231934
-42.4774055481 14.8877611160 69.4287490845
-42.5084381104 14.8995914459 69.2385864258
-42.5368118286 14.9104070663 69.0481796265
-42.5636596680 14.9206399918 68.8576354980
-42.5851669312 14.9288311005 68.6665496826
-42.5957832336 14.9328584671 68.4743041992
-42.5906257629 14.9308557510 68.2803573608
-42.5655364990 14.9212360382 68.0842132568
-42.5149459839 14.9018678665 67.8852233887
-42.4321975708 14.8702058792 67.6826019287
-42.3167495728 14.8260469437 67.4762268066
-42.1843948364 14.7754249573 67.2677993774
-42.0700035095 14.7316684723 67.0612030029
-42.0196723938 14.7123985291 66.8617019653
-42.0768127441 14.7342109680 66.6743698120
-42.2624549866 14.8051424026 66.5018310547
-42.5511856079 14.9154767990 66.3414154053
-42.8663406372 15.0359125137 66.1844406128
-43.1181945801 15.1321535110 66.0205001831
-43.2599601746 15.1863126755 65.8439712524
-43.3066596985 15.2041320801 65.6564178467
-43.3046340942 15.2033281326 65.4631423950
-43.2918777466 15.1984214783 65.2685699463
-43.2835502625 15.1952075958 65.0745010376
-43.2799720764 15.1938104630 64.8809890747
-43.2780952454 15.1930627823 64.6876678467
-43.2764282227 15.1923961639 64.4943695068
-43.2747650146 15.1917295456 64.3010482788
-43.2721748352 15.1907081604 64.1076126099
-43.2651023865 15.1879758835 63.9136047363
-43.2456893921 15.1805238724 63.7180404663
-43.2020149231 15.1637992859 63.5194015503
-43.1233024597 15.1336812973 63.3162803650
-43.0092430115 15.0900526047 63.1085700989
-42.8745384216 15.0385313034 62.8980674744
-42.7404212952 14.9872350693 62.6874542236
-42.6204299927 14.9413385391 62.4784660339
-42.5172348022 14.9018611908 62.2714843750
-42.4336090088 14.8698663712 62.0668983459
-42.3830337524 14.8505029678 61.8665122986
-42.3880348206 14.8523836136 61.6733474731
-42.4687500000 14.8832073212 61.4901809692
-42.6295700073 14.9446496964 61.3177413940
-42.8495712280 15.0287151337 61.1534042358
-43.0833892822 15.1180610657 60.9912033081
-43.2781066895 15.1924600601 60.8240394592
-43.3990173340 15.2386484146 60.6471405029
-43.4451179504 15.2562398911 60.4602127075
-43.4426422119 15.2552633286 60.2667007446
-43.4242095947 15.2481870651 60.0709838867
-43.4107666016 15.2430181503 59.8759193420
-43.4068794250 15.2415037155 59.6821594238
-43.4066390991 15.2413806915 59.4888916016
-43.4010162354 15.2392015457 59.2948608398
-43.3813972473 15.2316703796 59.0988426208
-43.3406639099 15.2160701752 58.8998069763
-43.2750740051 15.1909685135 58.6971740723
-43.1868629456 15.1572198868 58.4912147522
-43.0844955444 15.1180591583 58.2831001282
-42.9787521362 15.0776090622 58.0743522644
-42.8771820068 15.0387535095 57.8660583496
-42.7820739746 15.0023679733 57.6585578918
-42.6946601868 14.9689226151 57.4520492554
-42.6221427917 14.9411725998 57.2475967407
-42.5812416077 14.9255075455 57.0477027893
-42.5967216492 14.9313945770 56.8560981750
-42.6950111389 14.9689350128 56.6768264771
-42.8882713318 15.0427789688 56.5118751526
-43.1514511108 15.1433496475 56.3576736450
-43.4164237976 15.2446050644 56.2040863037
-43.6047859192 15.3165769577 56.0392417908
-43.6784133911 15.3446903229 55.8571815491
-43.6592178345 15.3373222351 55.6610260010
-43.6014404297 15.3152065277 55.4589157104
-43.5493164063 15.2952518463 55.2575874329
-43.5183334351 15.2833786011 55.0594558716
-43.5039138794 15.2778367996 54.8638534546
-43.4968948364 15.2751226425 54.6693763733
-43.4906883240 15.2727203369 54.4750099182
-43.4801063538 15.2686443329 54.2799339294
-43.4573402405 15.2599124908 54.0829124451
-43.4103202820 15.2419090271 53.8819961548
-43.3272514343 15.2101249695 53.6752548218
-43.2067832947 15.1640453339 53.4624061584
-43.0646743774 15.1096935272 53.2459030151
-42.9285545349 15.0576305389 53.0301666260
-42.8256416321 15.0182619095 52.8196258545
-42.7757263184 14.9991502762 52.6175727844
-42.7921600342 15.0054025650 52.4263000488
-42.8860282898 15.0412530899 52.2477569580
-43.0660514832 15.1100368500 52.0835418701
-43.3247222900 15.2088851929 51.9325828552
-43.6155853271 15.3200368881 51.7873153687
-43.8553733826 15.4116678238 51.6339035034
-43.9712448120 15.4559288025 51.4600372314
-43.9528579712 15.4488716125 51.2637252808
-43.8530044556 15.4106702805 51.0536155701
-43.7403182983 15.3675651550 50.8411865234
-43.6561927795 15.3353776932 50.6334571838
-43.6075668335 15.3167600632 50.4316825867
-43.5839385986 15.3076982498 50.2341194153
-43.5738258362 15.3038015366 50.0388488770
-43.5703659058 15.3024492264 49.8447036743
-43.5699195862 15.3022480011 49.6510696411
-43.5690498352 15.3018856049 49.4573554993
-43.5620307922 15.2991724014 49.2625503540
-43.5388984680 15.2902994156 49.0648994446
-43.4869155884 15.2703971863 48.8621215820
-43.3975067139 15.2361907959 48.6526412964
-43.2753639221 15.1894702911 48.4372138977
-43.1416206360 15.1383161545 48.2195434570
-43.0277252197 15.0947484970 48.0052375793
-42.9642257690 15.0704450607 47.7998313904
-42.9706039429 15.0728530884 47.6069335938
-43.0494499207 15.1029624939 47.4271545410
-43.1868400574 15.1554498672 47.2581176758
-43.3581123352 15.2208881378 47.0954322815
-43.5359802246 15.2888488770 46.9341773987
-43.6981620789 15.3508148193 46.7702751160
-43.8322181702 15.4020271301 46.6013908386
-43.9357109070 15.4415578842 46.4270248413
-44.0104866028 15.4701108932 46.2474517822
-44.0536117554 15.4865655899 46.0620727539
-44.0548934937 15.4870252609 45.8689117432
-44.0082588196 15.4691686630 45.6667480469
-43.9256210327 15.4375495911 45.4577255249
-43.8330612183 15.4021368027 45.2467079163
-43.7503967285 15.3705081940 45.0374336243
-43.6767807007 15.3423376083 44.8297653198
-43.5963363647 15.3115568161 44.6206817627
-43.4960136414 15.2731771469 44.4076690674
-43.3793983459 15.2285690308 44.1913795471
-43.2658119202 15.1851205826 43.9755058289
-43.1765174866 15.1509561539 43.7641830444
-43.1212005615 15.1297798157 43.5593376160
-43.0964851379 15.1203022003 43.3603820801
-43.0948524475 15.1196470261 43.1659088135
-43.1140632629 15.1269598007 42.9755172729
-43.1600265503 15.1444997787 42.7904243469
-43.2405242920 15.1752414703 42.6122169495
-43.3530502319 15.2182245255 42.4404678345
-43.4780807495 15.2659873962 42.2713546753
-43.5880813599 15.3080053329 42.0993957520
-43.6653938293 15.3375291824 41.9210205078
-43.7107086182 15.3548202515 41.7363014221
-43.7355499268 15.3642854691 41.5475006104
-43.7492179871 15.3694801331 41.3564605713
-43.7508811951 15.3700847626 41.1629867554
-43.7296447754 15.3619384766 40.9648399353
-43.6724624634 15.3400497437 40.7593002319
-43.5766944885 15.3034095764 40.5457534790
-43.4565925598 15.2574691772 40.3270568848
-43.3335380554 15.2103996277 40.1075820923
-43.2175559998 15.1660346985 39.8893966675
-43.1006622314 15.1213207245 39.6708564758
-42.9695510864 15.0711717606 39.4491844177
-42.8231048584 15.0151596069 39.2241134644
-42.6773147583 14.9593992233 38.9989776611
-42.5570220947 14.9133853912 38.7790107727
-42.4860458374 14.8862237930 38.5692939758
-42.4826354980 14.8848896027 38.3737983704
-42.5563354492 14.9130315781 38.1946945190
-42.7010421753 14.9683160782 38.0308341980
-42.8876686096 15.0396270752 37.8761329651
-43.0687408447 15.1088132858 37.7204818726
-43.2010955811 15.1593770981 37.5545730591
-43.2706336975 15.1859273911 37.3752593994
-43.2941436768 15.1948833466 37.1860542297
-43.2980957031 15.1963644028 36.9926185608
-43.2988166809 15.1966104507 36.7984771729
-43.2991981506 15.1967258453 36.6042518616
-43.2947463989 15.1949930191 36.4089584351
-43.2774429321 15.1883478165 36.2108230591
-43.2365188599 15.1726741791 36.0074386597
-43.1626091003 15.1443901062 35.7966842651
-43.0571136475 15.1040334702 35.5788078308
-42.9378128052 15.0583982468 35.3577003479
-42.8303909302 15.0173044205 35.1390800476
-42.7512931824 14.9870367050 34.9266548157
-42.6985282898 14.9668369293 34.7200393677
-42.6572914124 14.9510431290 34.5159416199
-42.6125984192 14.9339275360 34.3109970093
-42.5593566895 14.9135456085 34.1040458679
-42.5058135986 14.8930473328 33.8969421387
-42.4702415466 14.8794183731 33.6938629150
-42.4757614136 14.8814983368 33.5001296997
-42.5464859009 14.9085035324 33.3213691711
-42.6989631653 14.9667596817 33.1615142822
-42.9247741699 15.0530481339 33.0187950134
-43.1807632446 15.1508731842 32.8833618164
-43.4075775146 15.2375459671 32.7414894104
-43.5647735596 15.2976055145 32.5836944580
-43.6474418640 15.3291749954 32.4086914063
-43.6727561951 15.3388223648 32.2203559875
-43.6581192017 15.3331956863 32.0226554871
-43.6117858887 15.3154544830 31.8174591064
-43.5360755920 15.2864818573 31.6052474976
-43.4327087402 15.2469387054 31.3863716125
-43.3056335449 15.1983318329 31.1617126465
-43.1639900208 15.1441555023 30.9334011078
-43.0243759155 15.0907554626 30.7053756714
-42.9057540894 15.0453796387 30.4821834564
-42.8175888062 15.0116462708 30.2661437988
-42.7538757324 14.9872608185 30.0558719635
-42.7004661560 14.9668140411 29.8479957581
-42.6484718323 14.9469079971 29.6403827667
-42.6017189026 14.9290046692 29.4339637756
-42.5740318298 14.9183912277 29.2321205139
-42.5817222595 14.9212999344 29.0388793945
-42.6377067566 14.9426708221 28.8574771881
-42.7468338013 14.9843559265 28.6892032623
-42.9000015259 15.0428743362 28.5319213867
-43.0719833374 15.1085872650 28.3794898987
-43.2300491333 15.1689805984 28.2238330841
-43.3490066528 15.2144231796 28.0586624146
-43.4193458557 15.2412815094 27.8815307617
-43.4422340393 15.2500009537 27.6926307678
-43.4193840027 15.2412347794 27.4922943115
-43.3502197266 15.2147645950 27.2802848816
-43.2384605408 15.1720132828 27.0574474335
-43.0976448059 15.1181526184 26.8271102905
-42.9460830688 15.0601844788 26.5938529968
-42.7969665527 15.0031528473 26.3610038757
-42.6562881470 14.9493446350 26.1300926208
-42.5291442871 14.9007110596 25.9024372101
-42.4239196777 14.8604564667 25.6802101135
-42.3490371704 14.8318004608 25.4656181335
-42.3079261780 14.8160552979 25.2596054077
-42.2990417480 14.8126277924 25.0618419647
-42.3208351135 14.8209285736 24.8719902039
-42.3754768372 14.8417854309 24.6906795502
-42.4655494690 14.8761863708 24.5186424255
-42.5849113464 14.9217844009 24.3543548584
-42.7137718201 14.9710130692 24.1927032471
-42.8266105652 15.0141162872 24.0270175934
-42.9071655273 15.0448799133 23.8529968262
-42.9554328918 15.0633001328 23.6705722809
