-7.0497159958 -50.5904197693 61.5872192383
-7.0382542610 -50.5144042969 61.3866615295
-7.0278506279 -50.4464797974 61.1868896484
-7.0189251900 -50.3898620605 60.9882659912
-7.0118970871 -50.3477363586 60.7911643982
-7.0064320564 -50.3175582886 60.5953330994
-7.0012302399 -50.2893943787 60.3996772766
-6.9946246147 -50.2505111694 60.2027740479
-6.9857535362 -50.1943206787 60.0038604736
-6.9752488136 -50.1256599426 59.8034553528
-6.9644083977 -50.0544395447 59.6026649475
-6.9534964561 -49.9826812744 59.4017143250
-6.9410119057 -49.8989143372 59.1992835999
-6.9247770309 -49.7865066528 58.9934196472
-6.9039788246 -49.6392593384 58.7833480835
-6.8804597855 -49.4712448120 58.5706558228
-6.8579473495 -49.3109321594 58.3586578369
-6.8396835327 -49.1830749512 58.1502990723
-6.8265924454 -49.0947265625 57.9464721680
-6.8173942566 -49.0361137390 57.7460899353
-6.8099627495 -48.9909934998 57.5472450256
-6.8025245667 -48.9458274841 57.3483314514
-6.7942037582 -48.8939208984 57.1485366821
-6.7849469185 -48.8348808289 56.9477958679
-6.7749695778 -48.7703399658 56.7462997437
-6.7642483711 -48.7001266479 56.5440177917
-6.7526917458 -48.6235389709 56.3408508301
-6.7406668663 -48.5433883667 56.1371383667
-6.7289443016 -48.4655456543 55.9336051941
-6.7179088593 -48.3929595947 55.7306327820
-6.7069444656 -48.3209190369 55.5276298523
-6.6946549416 -48.2387695313 55.3232460022
-6.6796631813 -48.1360015869 55.1161231995
-6.6612658501 -48.0072555542 54.9055404663
-6.6395215988 -47.8529739380 54.6915016174
-6.6149544716 -47.6771583557 54.4744834900
-6.5884394646 -47.4864921570 54.2553100586
-6.5614957809 -47.2925682068 54.0354728699
-6.5364909172 -47.1134567261 53.8173294067
-6.5160913467 -46.9695014954 53.6035919189
-6.5021314621 -46.8746871948 53.3961753845
-6.4948096275 -46.8305320740 53.1953697205
-6.4927973747 -46.8268852234 52.9999122620
-6.4940118790 -46.8478622437 52.8077430725
-6.4964900017 -46.8784751892 52.6168899536
-6.4988317490 -46.9080505371 52.4259223938
-6.5000424385 -46.9289894104 52.2338066101
-6.4990963936 -46.9334754944 52.0394630432
-6.4947724342 -46.9122009277 51.8415756226
-6.4860596657 -46.8574523926 51.6390380859
-6.4729666710 -46.7692947388 51.4318046570
-6.4569778442 -46.6590614319 51.2213783264
-6.4403853416 -46.5442314148 51.0101699829
-6.4248409271 -46.4374008179 50.7999343872
-6.4105000496 -46.3397598267 50.5908546448
-6.3964653015 -46.2444572449 50.3819732666
-6.3819131851 -46.1452217102 50.1724090576
-6.3669447899 -46.0428199768 49.9622650146
-6.3526892662 -45.9458618164 49.7527656555
-6.3408155441 -45.8670654297 49.5457496643
-6.3327631950 -45.8174171448 49.3428421021
-6.3289680481 -45.8002319336 49.1445770264
-6.3285412788 -45.8087310791 48.9500236511
-6.3297877312 -45.8299789429 48.7573394775
-6.3311848640 -45.8523826599 48.5648384094
-6.3319787979 -45.8701782227 48.3716773987
-6.3320703506 -45.8826293945 48.1777343750
-6.3316240311 -45.8909721375 47.9831848145
-6.3307957649 -45.8964042664 47.7882041931
-6.3296542168 -45.8994522095 47.5928611755
-6.3281979561 -45.9001007080 47.3971481323
-6.3263959885 -45.8981132507 47.2010307312
-6.3242192268 -45.8932723999 47.0044670105
-6.3216357231 -45.8853302002 46.8074150085
-6.3185529709 -45.8735847473 46.6097602844
-6.3147368431 -45.8562545776 46.4112243652
-6.3098154068 -45.8305053711 46.2113609314
-6.3035264015 -45.7943305969 46.0098381042
-6.2961912155 -45.7501945496 45.8070259094
-6.2890233994 -45.7073326111 45.6043510437
-6.2838053703 -45.6793327332 45.4039382935
-6.2820129395 -45.6774330139 45.2075920105
-6.2840490341 -45.7047042847 45.0158386230
-6.2891778946 -45.7555313110 44.8278427124
-6.2961010933 -45.8200263977 44.6420745850
-6.3035454750 -45.8884849548 44.4570083618
-6.3104763031 -45.9530334473 44.2713890076
-6.3161630630 -46.0080986023 44.0843124390
-6.3203496933 -46.0517311096 43.8954467773
-6.3232836723 -46.0858192444 43.7050743103
-6.3254141808 -46.1137924194 43.5137405396
-6.3270173073 -46.1377410889 43.3217735291
-6.3280200958 -46.1571197510 43.1290740967
-6.3280196190 -46.1688575745 42.9351310730
-6.3264288902 -46.1684875488 42.7391929626
-6.3228273392 -46.1528015137 42.5407066345
-6.3173971176 -46.1231956482 42.3398704529
-6.3110399246 -46.0865325928 42.1378135681
-6.3049316406 -46.0517692566 41.9360160828
-6.2998638153 -46.0249328613 41.7355041504
-6.2959485054 -46.0068664551 41.5364303589
-6.2928180695 -45.9947853088 41.3383369446
-6.2900056839 -45.9851264954 41.1406326294
-6.2872095108 -45.9755859375 40.9429283142
-6.2843785286 -45.9657821655 40.7451591492
-6.2816824913 -45.9570121765 40.5475425720
-6.2794022560 -45.9514083862 40.3504524231
-6.2777857780 -45.9508552551 40.1542205811
-6.2769255638 -45.9560585022 39.9589805603
-6.2767100334 -45.9661674500 39.7645912170
-6.2768654823 -45.9791030884 39.5706977844
-6.2770552635 -45.9922943115 39.3768577576
-6.2769622803 -46.0033416748 39.1826438904
-6.2763414383 -46.0103645325 38.9877243042
-6.2750229836 -46.0120849609 38.7918586731
-6.2729020119 -46.0076904297 38.5949020386
-6.2699136734 -45.9967041016 38.3967514038
-6.2660017014 -45.9786911011 38.1973152161
-6.2610650063 -45.9528846741 37.9964485168
-6.2549462318 -45.9180831909 37.7939147949
-6.2475762367 -45.8737678528 37.5896072388
-6.2392678261 -45.8223152161 37.3839378357
-6.2308554649 -45.7700805664 37.1780548096
-6.2233710289 -45.7249031067 36.9733886719
-6.2174558640 -45.6916694641 36.7708511353
-6.2130832672 -45.6701736450 36.5704231262
-6.2097749710 -45.6567726135 36.3714561462
-6.2069787979 -45.6472702026 36.1731834412
-6.2042717934 -45.6384468079 35.9750175476
-6.2013540268 -45.6280250549 35.7765312195
-6.1979441643 -45.6138572693 35.5773200989
-6.1936554909 -45.5930099487 35.3768310547
-6.1879615784 -45.5614776611 35.1742935181
-6.1803946495 -45.5157089233 34.9690132141
-6.1709656715 -45.4557800293 34.7609825134
-6.1604323387 -45.3874626160 34.5512771606
-6.1500244141 -45.3201026917 34.3416557312
-6.1407957077 -45.2617111206 34.1336631775
-6.1332244873 -45.2159309387 33.9280090332
-6.1273183823 -45.1828117371 33.7247314453
-6.1229124069 -45.1611022949 33.5236091614
-6.1198587418 -45.1496734619 33.3244438171
-6.1180748940 -45.1478958130 33.1271324158
-6.1175503731 -45.1556930542 32.9316749573
-6.1183028221 -45.1732025146 32.7381210327
-6.1202383041 -45.1996955872 32.5463447571
-6.1229739189 -45.2322731018 32.3557853699
-6.1258029938 -45.2655563354 32.1653976440
-6.1279091835 -45.2933502197 31.9739513397
-6.1286993027 -45.3111343384 31.7805404663
-6.1279706955 -45.3173789978 31.5848407745
-6.1258192062 -45.3128089905 31.3869762421
-6.1224246025 -45.2987976074 31.1872005463
-6.1179056168 -45.2762374878 30.9856777191
-6.1123538017 -45.2458381653 30.7825355530
-6.1060194969 -45.2094879150 30.5781402588
-6.0994029045 -45.1710052490 30.3732585907
-6.0930566788 -45.1345748901 30.1687393188
-6.0872035027 -45.1018981934 29.9649295807
-6.0815553665 -45.0707778931 29.7613906860
-6.0755100250 -45.0366439819 29.5571861267
-6.0685343742 -44.9954452515 29.3514709473
-6.0604434013 -44.9457817078 29.1439476013
-6.0514535904 -44.8892898560 28.9349365234
-6.0421009064 -44.8300476074 28.7252750397
-6.0331602097 -44.7739448547 28.5161857605
-6.0255508423 -44.7279510498 28.3091335297
-6.0201215744 -44.6985206604 28.1054897308
-6.0173468590 -44.6892585754 27.9060440063
-6.0171756744 -44.6997642517 27.7107505798
-6.0191860199 -44.7268371582 27.5189647675
-6.0228672028 -44.7665939331 27.3298969269
-6.0277509689 -44.8154792786 27.1428089142
-6.0333876610 -44.8700866699 26.9569931030
-6.0393381119 -44.9270668030 26.7717418671
-6.0452585220 -44.9838180542 26.5865020752
-6.0510125160 -45.0392990112 26.4010486603
-6.0566720963 -45.0940628052 26.2154979706
-6.0623378754 -45.1488685608 26.0300159454
-6.0678853989 -45.2027740479 25.8443927765
-6.0728578568 -45.2523078918 25.6578750610
-6.0766305923 -45.2927360535 25.4694194794
-6.0787453651 -45.3205757141 25.2782459259
-6.0791592598 -45.3355026245 25.0842628479
-6.0782165527 -45.3401336670 24.8880195618
-6.0764102936 -45.3382072449 24.6903228760
-6.0741634369 -45.3329391479 24.4918766022
-6.0717577934 -45.3264732361 24.2931461334
-6.0693545341 -45.3200187683 24.0944004059
-6.0670194626 -45.3140830994 23.8957538605
-6.0647535324 -45.3086776733 23.6972084045
-6.0625381470 -45.3036537170 23.4987335205
-6.0603971481 -45.2991943359 23.3003692627
-6.0584559441 -45.2962532043 23.1023311615
-6.0569701195 -45.2967681885 22.9050617218
-6.0562806129 -45.3033256531 22.7091560364
-6.0566501617 -45.3179168701 22.5150775909
-6.0580244064 -45.3401336670 22.3227443695
-6.0599298477 -45.3663711548 22.1313514709
-6.0616660118 -45.3913307190 21.9396858215
-6.0626692772 -45.4107246399 21.7467613220
-6.0627188683 -45.4228897095 21.5521831512
-6.0618886948 -45.4283752441 21.3560657501
-6.0603761673 -45.4286880493 21.1587467194
-6.0583763123 -45.4253044128 20.9605579376
-6.0559926033 -45.4190101624 20.7616786957
-6.0531630516 -45.4093360901 20.5619888306
-6.0496020317 -45.3941154480 20.3609809875
-6.0448107719 -45.3695716858 20.1577510834
-6.0382714272 -45.3317680359 19.9513607025
-6.0298628807 -45.2797966003 19.7415676117
-6.0202555656 -45.2187423706 19.5295505524
-6.0108323097 -45.1590881348 19.3177795410
-6.0030808449 -45.1121101379 19.1089439392
-5.9979681969 -45.0851478577 18.9048156738
-5.9957885742 -45.0804176331 18.7059650421
-5.9963583946 -45.0965385437 18.5120983124
-5.9991621971 -45.1295928955 18.3223133087
-6.0033302307 -45.1729850769 18.1350498199
-6.0076766014 -45.2177314758 17.9481582642
-6.0109572411 -45.2543907166 17.7593536377
-6.0122165680 -45.2757339478 17.5668621063
-6.0110301971 -45.2785339355 17.3698711395
-6.0075092316 -45.2636413574 17.1685543060
-6.0020618439 -45.2341499329 16.9636383057
-5.9949793816 -45.1922683716 16.7556362152
-5.9861044884 -45.1368064880 16.5442314148
-5.9749450684 -45.0640411377 16.3284816742
-5.9612808228 -44.9722976685 16.1079425812
-5.9457759857 -44.8666114807 15.8838243484
-5.9300317764 -44.7591247559 15.6591205597
-5.9160046577 -44.6646537781 15.4375171661
-5.9052209854 -44.5947647095 15.2219238281
-5.8983545303 -44.5545616150 15.0136642456
-5.8953633308 -44.5437202454 14.8127117157
-5.8958525658 -44.5592460632 14.6183671951
-5.8991956711 -44.5963973999 14.4294834137
-5.9044709206 -44.6481781006 14.2443323135
-5.9106030464 -44.7064476013 14.0608797073
-5.9166984558 -44.7644348145 13.8774166107
-5.9221324921 -44.8174133301 13.6927394867
-5.9263420105 -44.8611106873 13.5057497025
-5.9287042618 -44.8908119202 13.3152236938
-5.9286227226 -44.9020042419 13.1199789047
-5.9255623817 -44.8906364441 12.9189395905
-5.9189815521 -44.8526115417 12.7110080719
-5.9084343910 -44.7845497131 12.4952630997
-5.8939638138 -44.6867866516 12.2717370987
-5.8764953613 -44.5663261414 12.0421915054
-5.8578152657 -44.4367065430 11.8101043701
-5.8400845528 -44.3142814636 11.5797252655
-5.8252425194 -44.2137374878 11.3549041748
-5.8146719933 -44.1455459595 11.1384220123
-5.8091320992 -44.1154403687 10.9318475723
-5.8087315559 -44.1242485046 10.7354660034
-5.8128819466 -44.1675109863 10.5481729507
-5.8203735352 -44.2360610962 10.3676099777
-5.8297152519 -44.3186149597 10.1908311844
-5.8396148682 -44.4053802490 10.0152635574
-5.8492341042 -44.4900245667 9.8392276764
-5.8580145836 -44.5683097839 9.6615886688
-5.8652968407 -44.6352539063 9.4810037613
-5.8702292442 -44.6844062805 9.2957210541
-5.8721442223 -44.7107238770 9.1043529510
-5.8710622787 -44.7143554688 8.9068984985
-5.8677272797 -44.7009353638 8.7048368454
-5.8630361557 -44.6772575378 8.4999723434
-5.8573255539 -44.6458663940 8.2929782867
-5.8501334190 -44.6032676697 8.0828895569
-5.8406052589 -44.5429992676 7.8679256439
-5.8281779289 -44.4607963562 7.6468896866
-5.8129897118 -44.3577156067 7.4200301170
-5.7957725525 -44.2392921448 7.1888265610
-5.7774715424 -44.1126785278 6.9552164078
-5.7590641975 -43.9852676392 6.7212219238
-5.7416749001 -43.8655662537 6.4891881943
-5.7266154289 -43.7635040283 6.2618780136
-5.7150077820 -43.6875572205 6.0416746140
-5.7071800232 -43.6402091980 5.8293151855
-5.7024068832 -43.6159667969 5.6233243942
-5.6992373466 -43.6038551331 5.4206795692
-5.6961421967 -43.5923156738 5.2181687355
-5.6920981407 -43.5735893250 5.0136203766
-5.6868185997 -43.5455284119 4.8064160347
-5.6806197166 -43.5105209351 4.5972099304
-5.6740760803 -43.4729003906 4.3872146606
-5.6676502228 -43.4361801147 4.1774163246
-5.6614317894 -43.4010276794 3.9680089951
-5.6551451683 -43.3653678894 3.7584028244
-5.6484723091 -43.3267898560 3.5479125977
-5.6414546967 -43.2856063843 3.3366215229
-5.6346325874 -43.2459030151 3.1256937981
-5.6287822723 -43.2135543823 2.9168136120
-5.6244788170 -43.1928977966 2.7112417221
-5.6218628883 -43.1850051880 2.5093066692
-5.6207528114 -43.1884956360 2.3106353283
-5.6208724976 -43.2012786865 2.1146442890
-5.6219162941 -43.2210540771 1.9206826687
-5.6234092712 -43.2442169189 1.7277197838
-5.6245932579 -43.2650451660 1.5340954065
-5.6245951653 -43.2769393921 1.3378841877
-5.6228122711 -43.2753410339 1.1377366781
-5.6192035675 -43.2599487305 0.9335393906
-5.6143360138 -43.2350425720 0.7265225649
-5.6091961861 -43.2080841064 0.5188614130
-5.6047949791 -43.1867065430 0.3128021061
-5.6016888618 -43.1751174927 0.1095953956
-22.4540710449 -5.0322270393 86.1438674927
-22.4450454712 -5.0313496590 85.9366302490
-22.4282150269 -5.0294065475 85.7290496826
-22.4131259918 -5.0277018547 85.5215072632
-22.4064979553 -5.0271520615 85.3143081665
-22.4076995850 -5.0276713371 85.1074218750
-25.6181945801 -5.4698286057 82.9911422729
-25.6110343933 -5.4692029953 82.7857589722
-25.6012344360 -5.4682168961 82.5802230835
-25.5983104706 -5.4681696892 82.3750228882
-25.6025676727 -5.4691028595 82.1701889038
-25.6054248810 -5.4698448181 81.9652786255
-25.5981655121 -5.4692058563 81.7598190308
-25.5784263611 -5.4668631554 81.5536575317
-25.5475425720 -5.4629993439 81.3468551636
-25.5036754608 -5.4573640823 81.1392822266
-25.4401512146 -5.4490451813 80.9305419922
-25.3514842987 -5.4372944832 80.7202758789
-25.2405338287 -5.4225029945 80.5086135864
-25.1196594238 -5.4063568115 80.2962188721
-25.0057601929 -5.3911633492 80.0840835571
-24.9139213562 -5.3789811134 79.8731002808
-24.8531055450 -5.3710331917 79.6638565063
-24.8256034851 -5.3676323891 79.4565582275
-26.1193428040 -5.5480785370 77.2813110352
-26.1383724213 -5.5510268211 77.0776672363
-26.1633358002 -5.5547857285 76.8744583130
-26.1849899292 -5.5580921173 76.6710357666
-26.1986598969 -5.5603094101 76.4670715332
-30.1291904449 -6.1005353928 74.5153350830
-30.1523895264 -6.1040487289 74.3145980835
-30.1886997223 -6.1093511581 74.1149139404
-30.2288017273 -6.1151704788 73.9155578613
-30.2626190186 -6.1201324463 73.7157440186
-30.2832336426 -6.1232929230 73.5149078369
-30.2881145477 -6.1243066788 73.3128204346
-30.2778091431 -6.1232476234 73.1094894409
-30.2551631927 -6.1205053329 72.9051284790
-30.2257728577 -6.1168422699 72.7001724243
-30.1975173950 -6.1133341789 72.4952621460
-30.1789932251 -6.1111545563 72.2911224365
-30.1793594360 -6.1115517616 72.0885543823
-30.2103595734 -6.1161293983 71.8885955811
-30.2871742249 -6.1269578934 71.6925888062
-30.4245376587 -6.1460480690 71.5019149780
-30.6285648346 -6.1742329597 71.3172149658
-30.8886909485 -6.2100720406 71.1376876831
-31.1751422882 -6.2495021820 70.9608078003
-31.4458503723 -6.2867841721 70.7828750610
-31.6623077393 -6.3166632652 70.6004104614
-31.8059768677 -6.3366112709 70.4116439819
-31.8835468292 -6.3475408554 70.2170410156
-31.9175720215 -6.3525290489 70.0185394287
-31.9313430786 -6.3547534943 69.8181991577
-31.9394187927 -6.3562011719 69.6173477173
-31.9472541809 -6.3576164246 69.4164733887
-31.9553070068 -6.3590607643 69.2156219482
-31.9625854492 -6.3603997231 69.0147018433
-31.9682006836 -6.3615117073 68.8136215210
-31.9717407227 -6.3623409271 68.6123352051
-31.9733085632 -6.3629007339 68.4108657837
-31.9736557007 -6.3632936478 68.2092590332
-31.9747924805 -6.3637948036 68.0077285767
-31.9811840057 -6.3650126457 67.8067092896
-32.0008811951 -6.3680458069 67.6070098877
-32.0448913574 -6.3743963242 67.4097518921
-32.1236267090 -6.3854827881 67.2160186768
-32.2415122986 -6.4019103050 67.0263366699
-32.3933296204 -6.4229664803 66.8402404785
-32.5651969910 -6.4467577934 66.6563796997
-32.7405357361 -6.4710221291 66.4730911255
-32.9073257446 -6.4941196442 66.2891235352
-33.0606918335 -6.5153856277 66.1039581299
-33.1986160278 -6.5345454216 65.9173583984
-33.3167877197 -6.5510101318 65.7288513184
-33.4097404480 -6.5640344620 65.5378036499
-33.4766578674 -6.5735073090 65.3440933228
-33.5239830017 -6.5803074837 65.1483535767
-33.5614318848 -6.5857601166 64.9515991211
-33.5956306458 -6.5907697678 64.7545318604
-33.6271629333 -6.5954151154 64.5572052002
-33.6527938843 -6.5992560387 64.3592605591
-33.6701927185 -6.6019735336 64.1604385376
-33.6808357239 -6.6037697792 63.9608764648
-33.6901245117 -6.6053810120 63.7611656189
-33.7067337036 -6.6079912186 63.5622825623
-33.7430419922 -6.6132879257 63.3656387329
-33.8150444031 -6.6234531403 63.1730880737
-33.9385299683 -6.6406402588 62.9864997864
-34.1206741333 -6.6658277512 62.8067970276
-34.3523826599 -6.6977753639 62.6330413818
-34.6095466614 -6.7331943512 62.4625282288
-34.8644485474 -6.7683043480 62.2920646667
-35.0982818604 -6.8005404472 62.1194419861
-35.3048095703 -6.8290514946 61.9438858032
-35.4845314026 -6.8539061546 61.7653961182
-35.6366996765 -6.8750023842 61.5838432312
-35.7563323975 -6.8916611671 61.3985710144
-35.8379020691 -6.9031286240 61.2088546753
-35.8814506531 -6.9094099998 61.0146217346
-35.8950386047 -6.9116058350 60.8167915344
-35.8917045593 -6.9114933014 60.6168937683
-35.8837852478 -6.9107556343 60.4164199829
-35.8786849976 -6.9104022980 60.2162780762
-35.8783912659 -6.9107046127 60.0167198181
-35.8822898865 -6.9115786552 59.8176765442
-35.8904037476 -6.9130272865 59.6191596985
-35.9043807983 -6.9152755737 59.4213829041
-35.9264335632 -6.9186258316 59.2246398926
-35.9586486816 -6.9233613014 59.0292167664
-36.0047225952 -6.9299869537 58.8355979919
-36.0721778870 -6.9395284653 58.6447830200
-36.1707839966 -6.9533171654 58.4580764771
-36.3061256409 -6.9721159935 58.2762603760
-36.4732818604 -6.9952521324 58.0987663269
-36.6564292908 -7.0205693245 57.9235763550
-36.8357048035 -7.0453577042 57.7480926514
-36.9966926575 -7.0676522255 57.5704078674
-37.1357345581 -7.0869536400 57.3899955750
-37.2575073242 -7.1039004326 57.2074394226
-37.3680038452 -7.1193089485 57.0235137939
-37.4692039490 -7.1334490776 56.8384628296
-37.5586090088 -7.1459817886 56.6519317627
-37.6318969727 -7.1563158035 56.4633064270
-37.6857414246 -7.1639981270 56.2721023560
-37.7195587158 -7.1689500809 56.0782051086
-37.7356948853 -7.1714911461 55.8818969727
-37.7381629944 -7.1721682549 55.6837043762
-37.7309799194 -7.1715292931 55.4841575623
-37.7174263000 -7.1700220108 55.2837028503
-37.7009963989 -7.1681227684 55.0828170776
-37.6877670288 -7.1666593552 54.8823547363
-37.6881294250 -7.1670498848 54.6837997437
-37.7154693604 -7.1711182594 54.4890861511
-37.7811393738 -7.1804127693 54.2998886108
-37.8886260986 -7.1954088211 54.1167869568
-38.0307350159 -7.2151250839 53.9388160706
-38.1919860840 -7.2374510765 53.7637939453
-38.3551254272 -7.2600336075 53.5892448425
-38.5077285767 -7.2811799049 53.4133529663
-38.6450691223 -7.3002448082 53.2354011536
-38.7680511475 -7.3173518181 53.0554885864
-38.8791084290 -7.3328328133 52.8739585876
-38.9805526733 -7.3470029831 52.6911277771
-39.0754432678 -7.3602790833 52.5074386597
-39.1667366028 -7.3730649948 52.3233184814
-39.2537574768 -7.3852682114 52.1386642456
-39.3307456970 -7.3961033821 51.9525909424
-39.3904228210 -7.4045782089 51.7639694214
-39.4289817810 -7.4101743698 51.5721931458
-39.4478263855 -7.4130825996 51.3774299622
-39.4519577026 -7.4139847755 51.1804199219
-39.4477996826 -7.4137573242 50.9821243286
-39.4420509338 -7.4133129120 50.7835655212
-39.4413299561 -7.4135537148 50.5857772827
-39.4523124695 -7.4153895378 50.3898124695
-39.4822692871 -7.4198126793 50.1968345642
-39.5395851135 -7.4279656410 50.0082054138
-39.6323318481 -7.4409475327 49.8252563477
-39.7635498047 -7.4591741562 49.6485366821
-39.9262008667 -7.4816851616 49.4769973755
-40.1035919189 -7.5062055588 49.3080177307
-40.2767486572 -7.5301475525 49.1385726929
-40.4328842163 -7.5517692566 48.9665908813
-40.5688972473 -7.5706486702 48.7915306091
-40.6887207031 -7.5873198509 48.6139984131
-40.7974052429 -7.6024727821 48.4347877502
-40.8963928223 -7.6163034439 48.2541122437
-40.9827194214 -7.6284084320 48.0714721680
-41.0512924194 -7.6380929947 47.8859901428
-41.0975761414 -7.6447396278 47.6968917847
-41.1194610596 -7.6480603218 47.5037727356
-41.1181907654 -7.6482248306 47.3068008423
-41.0986824036 -7.6459031105 47.1067543030
-41.0688972473 -7.6421813965 46.9049453735
-41.0376968384 -7.6382660866 46.7028503418
-41.0119552612 -7.6350951195 46.5016326904
-40.9952125549 -7.6331510544 46.3019104004
-40.9888648987 -7.6326236725 46.1039390564
-40.9945373535 -7.6337347031 45.9080123901
-41.0159568787 -7.6369919777 45.7148017883
-41.0594367981 -7.6432561874 45.5254287720
-41.1323394775 -7.6535301208 45.3412094116
-41.2393112183 -7.6684470177 45.1630134583
-41.3786048889 -7.6877694130 44.9906005859
-41.5416603088 -7.7103300095 44.8225250244
-41.7160720825 -7.7344374657 44.6566505432
-41.8893356323 -7.7583880424 44.4907875061
-42.0514869690 -7.7808241844 44.3231620789
-42.1965065002 -7.8009257317 44.1526832581
-42.3223304749 -7.8184099197 43.9789505005
-42.4292716980 -7.8333210945 43.8019790649
-42.5179824829 -7.8457469940 43.6218566895
-42.5884971619 -7.8556933403 43.4385528564
-42.6408271790 -7.8631610870 43.2520294189
-42.6759681702 -7.8682866096 43.0624427795
-42.6960372925 -7.8713574409 42.8701400757
-42.7033538818 -7.8726911545 42.6755180359
-42.6995468140 -7.8725085258 42.4788513184
-42.6854934692 -7.8709292412 42.2802848816
-42.6626129150 -7.8681478500 42.0800552368
-42.6349220276 -7.8647108078 41.8788986206
-42.6099929810 -7.8616499901 41.6782150269
-42.5973777771 -7.8602671623 41.4797897339
-42.6059837341 -7.8617763519 41.2853240967
-42.6430702209 -7.8671665192 41.0962219238
-42.7138710022 -7.8771505356 40.9135246277
-42.8186416626 -7.8917641640 40.7373504639
-42.9486236572 -7.9098119736 40.5660934448
-43.0875091553 -7.9290733337 40.3966903687
-43.2200660706 -7.9474720955 40.2262420654
-43.3391876221 -7.9640393257 40.0533790588
-43.4437637329 -7.9786252975 39.8778533936
-43.5316925049 -7.9909415245 39.6992340088
-43.5978622437 -8.0002937317 39.5164985657
-43.6390342712 -8.0062389374 39.3289756775
-43.6584739685 -8.0092229843 39.1372566223
-43.6645889282 -8.0103921890 38.9429397583
-43.6651802063 -8.0108079910 38.7475395203
-43.6634902954 -8.0109128952 38.5516815186
-43.6596717834 -8.0107288361 38.3553962708
-43.6545104980 -8.0103607178 38.1588287354
-43.6503372192 -8.0101270676 37.9624443054
-43.6491966248 -8.0103082657 37.7666511536
-43.6513290405 -8.0109338760 37.5715026855
-43.6553153992 -8.0118122101 37.3767242432
-43.6594734192 -8.0127143860 37.1819763184
-43.6633529663 -8.0135793686 36.9871711731
-43.6681671143 -8.0145702362 36.7925491333
-43.6762504578 -8.0160074234 36.5985908508
-43.6907615662 -8.0183200836 36.4059486389
-43.7158546448 -8.0220746994 36.2154808044
-43.7561759949 -8.0279035568 36.0281677246
-43.8151893616 -8.0362787247 35.8447456360
-43.8930053711 -8.0472154617 35.6652755737
-43.9854698181 -8.0601482391 35.4889335632
-44.0856323242 -8.0741291046 35.3143005371
-44.1858024597 -8.0881109238 35.1397895813
-44.2782974243 -8.1010465622 34.9637908936
-44.3562736511 -8.1120052338 34.7848587036
-44.4159164429 -8.1204652786 34.6021537781
-44.4578208923 -8.1265087128 34.4157791138
-44.4857292175 -8.1306457520 34.2264823914
-44.5040130615 -8.1334705353 34.0351676941
-44.5161247253 -8.1354560852 33.8425559998
-44.5242500305 -8.1368980408 33.6491012573
-44.5295600891 -8.1379556656 33.4550437927
-44.5327339172 -8.1387233734 33.2605285645
-44.5346298218 -8.1393165588 33.0657310486
-44.5366783142 -8.1399307251 32.8709602356
-44.5408096313 -8.1408281326 32.6766395569
-44.5490722656 -8.1422882080 32.4832115173
-44.5634384155 -8.1445808411 32.2911186218
-44.5863609314 -8.1480379105 32.1009063721
-44.6216888428 -8.1531848907 31.9134349823
-44.6745223999 -8.1607170105 31.7298526764
-44.7487678528 -8.1711645126 31.5510520935
-44.8435859680 -8.1844148636 31.3768901825
-44.9521903992 -8.1995429993 31.2058982849
-45.0649871826 -8.2152414322 31.0359706879
-45.1751861572 -8.2305860519 30.8655967712
-45.2816238403 -8.2454185486 30.6945152283
-45.3859024048 -8.2599563599 30.5230770111
-45.4872932434 -8.2741003036 30.3511123657
-45.5813064575 -8.2872390747 30.1776027679
-45.6621208191 -8.2985801697 30.0012168884
-45.7250061035 -8.3074789047 29.8208580017
-45.7673683167 -8.3135833740 29.6359004974
-45.7895126343 -8.3169336319 29.4463748932
-45.7944221497 -8.3179359436 29.2529239655
-45.7854995728 -8.3170537949 29.0562973022
-45.7636680603 -8.3144140244 28.8566799164
-45.7265586853 -8.3096942902 28.6535015106
-45.6712036133 -8.3024892807 28.4460449219
-45.5986328125 -8.2929401398 28.2345180511
-45.5163154602 -8.2820625305 28.0206203461
-45.4356498718 -8.2714109421 27.8069953918
-45.3665657043 -8.2623367310 27.5959701538
-45.3138198853 -8.2554883957 27.3886833191
-45.2772789001 -8.2508459091 27.1851310730
-45.2545661926 -8.2480878830 26.9847869873
-45.2433929443 -8.2469005585 26.7871341705
-45.2423667908 -8.2470951080 26.5918655396
-45.2506713867 -8.2485609055 26.3988056183
-45.2673873901 -8.2511720657 26.2077541351
-45.2910346985 -8.2547273636 26.0183734894
-45.3193817139 -8.2589225769 25.8301410675
-45.3495635986 -8.2633666992 25.6423759460
-45.3784637451 -8.2676372528 25.4543342590
-45.4032936096 -8.2713527679 25.2653369904
-45.4221725464 -8.2742586136 25.0749225616
-45.4344902039 -8.2762699127 24.8829307556
-45.4406547546 -8.2774438858 24.6894474030
-45.4412040710 -8.2778539658 24.4945945740
-45.4354896545 -8.2774095535 24.2982006073
-45.4208183289 -8.2757463455 24.0995922089
-45.3931961060 -8.2723197937 23.8977718353
-45.3500022888 -8.2667732239 23.6920681000
-45.2928161621 -8.2593212128 23.4828414917
-45.2272033691 -8.2507219315 23.2714424133
-45.1586647034 -8.2417240143 23.0592250824
-45.0886840820 -8.2325296402 22.8465538025
-45.0157546997 -8.2229347229 22.6330490112
-44.9410133362 -8.2130928040 22.4189891815
-44.8722572327 -8.2040662766 22.2063274384
-44.8210411072 -8.1974287033 21.9979877472
-44.7958717346 -8.1943368912 21.7961502075
-44.7992019653 -8.1951255798 21.6014823914
-44.8300514221 -8.1996612549 21.4137916565
-44.8867187500 -8.2077121735 21.2326984406
-44.9655990601 -8.2187871933 21.0573329926
-45.0591583252 -8.2318611145 20.8858108521
-45.1570625305 -8.2455263138 20.7155132294
-45.2487258911 -8.2583417892 20.5437297821
-45.3243331909 -8.2689704895 20.3679199219
-45.3761634827 -8.2763624191 20.1860618591
-45.4019203186 -8.2802038193 19.9975147247
-45.4063911438 -8.2811470032 19.8034687042
-45.3980903625 -8.2803525925 19.6061000824
-45.3838653564 -8.2787504196 19.4071693420
-45.3662719727 -8.2766904831 19.2073326111
-45.3447265625 -8.2740917206 19.0064296722
-45.3181800842 -8.2708129883 18.8041782379
-45.2869987488 -8.2669029236 18.6006641388
-45.2527770996 -8.2625799179 18.3963012695
-45.2170715332 -8.2580537796 18.1914939880
-45.1818847656 -8.2535991669 17.9867706299
-45.1525001526 -8.2499341965 17.7835350037
-45.1388893127 -8.2484169006 17.5844593048
-45.1519126892 -8.2505245209 17.3924674988
-45.1968688965 -8.2569799423 17.2090339661
-45.2706069946 -8.2673540115 17.0333728790
-45.3639183044 -8.2803916931 16.8630619049
-45.4658470154 -8.2946023941 16.6951847076
-45.5672607422 -8.3087425232 16.5272903442
-45.6628990173 -8.3220958710 16.3579540253
-45.7510108948 -8.3344259262 16.1866874695
-45.8311996460 -8.3456764221 16.0133686066
-45.9028854370 -8.3557691574 15.8378248215
-45.9652862549 -8.3645973206 15.6598243713
-46.0174369812 -8.3720312119 15.4790878296
-46.0575981140 -8.3778324127 15.2951164246
-46.0830268860 -8.3816280365 15.1071300507
-46.0907096863 -8.3830080032 14.9142723083
-46.0782699585 -8.3816499710 14.7158498764
-46.0446777344 -8.3774118423 14.5115394592
-45.9911727905 -8.3704633713 14.3016433716
-45.9222030640 -8.3614110947 14.0873661041
-45.8457069397 -8.3513336182 13.8708896637
-45.7717170715 -8.3415975571 13.6550102234
-45.7093391418 -8.3334417343 13.4422826767
-45.6638221741 -8.3275823593 13.2342090607
-45.6363067627 -8.3241720200 13.0311403275
-45.6258430481 -8.3230829239 12.8328418732
-45.6312904358 -8.3241596222 12.6390247345
-45.6518859863 -8.3272981644 12.4495048523
-45.6871604919 -8.3324346542 12.2641744614
-45.7368392944 -8.3395309448 12.0829839706
-45.8001632690 -8.3484849930 11.9057474136
-45.8743743896 -8.3589200974 11.7316970825
-45.9538764954 -8.3700752258 11.5592527390
-46.0318183899 -8.3810176849 11.3864526749
-46.1024932861 -8.3909711838 11.2116498947
-46.1620712280 -8.3994140625 11.0337257385
-46.2079658508 -8.4059953690 10.8519096375
-46.2386970520 -8.4105119705 10.6657476425
-46.2540206909 -8.4129323959 10.4751377106
-46.2544746399 -8.4133281708 10.2802085876
-46.2411956787 -8.4118566513 10.0812635422
-46.2169036865 -8.4088850021 9.8790702820
-46.1865463257 -8.4050884247 9.6750602722
-46.1558570862 -8.4012470245 9.4709062576
-46.1288032532 -8.3979005814 9.2677755356
-46.1068344116 -8.3952455521 9.0661029816
-46.0904960632 -8.3933572769 8.8660602570
-46.0812263489 -8.3924303055 8.6680822372
-46.0816612244 -8.3928251266 8.4729671478
-46.0950546265 -8.3949823380 8.2817020416
-46.1250457764 -8.3993988037 8.0953979492
-46.1757659912 -8.4066362381 7.9153208733
-46.2508735657 -8.4171905518 7.7426052094
-46.3506584167 -8.4311046600 7.5773878098
-46.4691352844 -8.4475603104 7.4179120064
-46.5944252014 -8.4649438858 7.2606344223
-46.7132530212 -8.4814481735 7.1015567780
-46.8161582947 -8.4957857132 6.9378018379
-46.8995246887 -8.5074634552 6.7682409286
-46.9639129639 -8.5165586472 6.5930085182
-47.0115776062 -8.5233783722 6.4127550125
-47.0453681946 -8.5283107758 6.2283191681
-47.0684471130 -8.5317850113 6.0406398773
-47.0835494995 -8.5341739655 5.8505368233
-47.0921173096 -8.5356740952 5.6584377289
-47.0935668945 -8.5362052917 5.4641499519
-47.0843734741 -8.5352888107 5.2665719986
-47.0578269958 -8.5320100784 5.0636086464
-47.0066413879 -8.5253801346 4.8529710770
-46.9282722473 -8.5150518417 4.6338210106
-46.8282852173 -8.5017824173 4.4078388214
-46.7179222107 -8.4871015549 4.1784844398
-46.6082687378 -8.4725170135 3.9492046833
-46.5072021484 -8.4591007233 3.7224628925
-46.4203529358 -8.4476194382 3.5000433922
-46.3516654968 -8.4386100769 3.2832136154
-46.3011894226 -8.4320783615 3.0720224380
-46.2638168335 -8.4273281097 2.8648934364
-46.2320823669 -8.4233465195 2.6594913006
-46.2005348206 -8.4193897247 2.4540996552
-46.1672821045 -8.4152011871 2.2481186390
-46.1316032410 -8.4106817245 2.0413138866
-46.0911674500 -8.4055166245 1.8329414129
-46.0430374146 -8.3993043900 1.6220506430
-45.9874343872 -8.3920755386 1.4086978436
-45.9291152954 -8.3844766617 1.1943960190
-45.8737449646 -8.3772802353 0.9809599519
-45.8229675293 -8.3707084656 0.7689227462
-45.7731475830 -8.3642673492 0.5571210384
-45.7185096741 -8.3571701050 0.3436908126
-45.6556968689 -8.3489608765 0.1275345683
-20.6770935059 -49.8743934631 87.3464126587
-20.6826400757 -49.8922195435 87.1576232910
-20.6968746185 -49.9317436218 86.9694976807
-20.7194309235 -49.9920539856 86.7820587158
-20.7488441467 -50.0694885254 86.5952224731
-20.7827072144 -50.1580352783 86.4088363647
-20.8180675507 -50.2503204346 86.2226715088
-20.8521270752 -50.3393516541 86.0365142822
-20.8834438324 -50.4215316772 85.8502197266
-20.9126720428 -50.4984970093 85.6638488770
-20.9412994385 -50.5739555359 85.4775085449
-20.9693355560 -50.6479377747 85.2912063599
-20.9949989319 -50.7159957886 85.1047744751
-21.0170269012 -50.7749633789 84.9180755615
-21.0361862183 -50.8267784119 84.7311782837
-21.0533504486 -50.8736038208 84.5441436768
-21.0667705536 -50.9110755920 84.3567886353
-21.0721836090 -50.9285583496 84.1686782837
-21.0646343231 -50.9136695862 83.9792785645
-21.0393600464 -50.8545227051 83.7880249023
-20.9926223755 -50.7417869568 83.5944442749
-20.9241790771 -50.5748519897 83.3984146118
-20.8397445679 -50.3679962158 83.2004394531
-20.7499294281 -50.1477088928 83.0016021729
-20.6653022766 -49.9403800964 82.8030471802
-20.5924472809 -49.7624549866 82.6055374146
-20.5352840424 -49.6237106323 82.4095687866
-20.4985866547 -49.5360717773 82.2157821655
-20.4870910645 -49.5113525391 82.0248260498
-20.5002822876 -49.5482711792 81.8367538452
-20.5301246643 -49.6267585754 81.6507263184
-20.5659980774 -49.7203063965 81.4655303955
-20.6020698547 -49.8143463135 81.2804641724
-20.6389675140 -49.9104461670 81.0956115723
-20.6784915924 -50.0130958557 80.9112091064
-20.7182044983 -50.1162147522 80.7269515991
-20.7520904541 -50.2047882080 80.5420608521
-20.7755050659 -50.2672157288 80.3558959961
-20.7879924774 -50.3023643494 80.1683425903
-20.7915725708 -50.3152770996 79.9796295166
-20.7873916626 -50.3088188171 79.7898635864
-20.7741813660 -50.2798156738 79.5988311768
-20.7497291565 -50.2227554321 79.4061813354
-20.7142982483 -50.1382865906 79.2118988037
-20.6727237701 -50.0384902954 79.0166168213
-20.6323451996 -49.9416770935 78.8213729858
-20.5981559753 -49.8603210449 78.6268997192
-20.5698490143 -49.7936439514 78.4331741333
-20.5429687500 -49.7305335999 78.2395706177
-20.5129241943 -49.6595268250 78.0454025269
-20.4799213409 -49.5811386108 77.8506774902
-20.4519844055 -49.5153961182 77.6566162109
-20.4415721893 -49.4933967590 77.4651947021
-20.4555587769 -49.5322914124 77.2775802612
-20.4874706268 -49.6159286499 77.0928421021
-20.5212974548 -49.7043418884 76.9085235596
-20.5436897278 -49.7642097473 76.7224426270
-20.5525588989 -49.7903327942 76.5342254639
-20.5559787750 -49.8028564453 76.3451232910
-20.5651550293 -49.8297386169 76.1569900513
-20.5876770020 -49.8899307251 75.9711303711
-20.6240921021 -49.9847946167 75.7877044678
-20.6677474976 -50.0977210999 75.6056365967
-20.7069282532 -50.1994819641 75.4229278564
-20.7289085388 -50.2583122253 75.2373352051
-20.7252674103 -50.2532043457 75.0472717285
-20.6963119507 -50.1849288940 74.8526840210
-20.6513080597 -50.0766067505 74.6551132202
-20.6032562256 -49.9606857300 74.4568405151
-20.5616321564 -49.8608016968 74.2595825195
-20.5285797119 -49.7823143005 74.0637741089
-20.5000801086 -49.7151870728 73.8686981201
-20.4692745209 -49.6423072815 73.6730880737
-20.4299774170 -49.5482406616 73.4757690430
-20.3800964355 -49.4277687073 73.2762985229
-20.3232460022 -49.2899131775 73.0753173828
-20.2665615082 -49.1524772644 72.8741760254
-20.2166538239 -49.0319519043 72.6741790771
-20.1776924133 -48.9387397766 72.4761810303
-20.1520061493 -48.8786506653 72.2807006836
-20.1406593323 -48.8543434143 72.0880050659
-20.1431770325 -48.8646240234 71.8980789185
-20.1573810577 -48.9040641785 71.7105407715
-20.1803798676 -48.9654464722 71.5248489380
-20.2104301453 -49.0444145203 71.3406906128
-20.2473964691 -49.1406402588 71.1580657959
-20.2898998260 -49.2506713867 70.9767227173
-20.3319225311 -49.3595008850 70.7954101563
-20.3639183044 -49.4433212280 70.6120834351
-20.3779659271 -49.4823570251 70.4249954224
-20.3717098236 -49.4707412720 70.2335433960
-20.3484687805 -49.4167633057 70.0383529663
-20.3146781921 -49.3364639282 69.8407592773
-20.2760524750 -49.2441101074 69.6419754028
-20.2346916199 -49.1449356079 69.4424591064
-20.1900711060 -49.0376281738 69.2420654297
-20.1431083679 -48.9244842529 69.0410003662
-20.0981826782 -48.8164253235 68.8402404785
-20.0604553223 -48.7263259888 68.6409835815
-20.0319519043 -48.6592330933 68.4437332153
-20.0105609894 -48.6098861694 68.2480468750
-19.9918441772 -48.5672111511 68.0529174805
-19.9712314606 -48.5198059082 67.8572692871
-19.9460849762 -48.4610939026 67.6604766846
-19.9178600311 -48.3947105408 67.4628601074
-19.8924198151 -48.3352699280 67.2658157349
-19.8763103485 -48.2991027832 67.0709533691
-19.8716278076 -48.2914390564 66.8788223267
-19.8749313354 -48.3036918640 66.6886367798
-19.8808956146 -48.3225784302 66.4991149902
-19.8860168457 -48.3393630981 66.3093948364
-19.8891372681 -48.3511581421 66.1191940308
-19.8900699615 -48.3574943542 65.9284362793
-19.8884258270 -48.3574104309 65.7370300293
-19.8831520081 -48.3482666016 65.5446777344
-19.8722114563 -48.3250007629 65.3508529663
-19.8526020050 -48.2801132202 65.1547470093
-19.8216686249 -48.2069892883 64.9556198120
-19.7798652649 -48.1067581177 64.7535400391
-19.7324314117 -47.9924964905 64.5498352051
-19.6871757507 -47.8836631775 64.3465499878
-19.6497974396 -47.7944831848 64.1452178955
-19.6214389801 -47.7277908325 63.9461822510
-19.6001186371 -47.6786460876 63.7489509583
-19.5833206177 -47.6407890320 63.5528755188
-19.5690040588 -47.6091117859 63.3574180603
-19.5550403595 -47.5783233643 63.1620101929
-19.5389423370 -47.5422096252 62.9659614563
-19.5194778442 -47.4977035522 62.7689170837
-19.4995517731 -47.4520492554 62.5716781616
-19.4863643646 -47.4232025146 62.3762626648
-19.4860935211 -47.4265518188 62.1844596863
-19.4975738525 -47.4592018127 61.9959945679
-19.5124301910 -47.5002746582 61.8085250854
-19.5213375092 -47.5265045166 61.6193885803
-19.5190048218 -47.5247154236 61.4270248413
-19.5044593811 -47.4924850464 61.2310905457
-19.4796237946 -47.4345970154 61.0320968628
-19.4485130310 -47.3610687256 60.8311691284
-19.4159126282 -47.2838249207 60.6296958923
-19.3849735260 -47.2107276917 60.4286041260
-19.3555011749 -47.1412887573 60.2278518677
-19.3242492676 -47.0674171448 60.0264625549
-19.2869739532 -46.9785270691 59.8231430054
-19.2414970398 -46.8692016602 59.6172103882
-19.1902370453 -46.7454605103 59.4093551636
-19.1398601532 -46.6239242554 59.2016029358
-19.0975875854 -46.5225982666 58.9961891174
-19.0672912598 -46.4511222839 58.7943496704
-19.0486621857 -46.4087333679 58.5960464478
-19.0391674042 -46.3891067505 58.4005432129
-19.0361251831 -46.3855705261 58.2070388794
-19.0374946594 -46.3930320740 58.0149192810
-19.0417881012 -46.4077758789 57.8237304688
-19.0479297638 -46.4271316528 57.6331405640
-19.0552883148 -46.4495162964 57.4429588318
-19.0636425018 -46.4743843079 57.2531204224
-19.0728683472 -46.5014228821 57.0635833740
-19.0823593140 -46.5291252136 56.8741607666
-19.0906791687 -46.5539054871 56.6843757629
-19.0958671570 -46.5708808899 56.4935836792
-19.0962638855 -46.5759124756 56.3012161255
-19.0912437439 -46.5674438477 56.1070365906
-19.0813274384 -46.5467796326 55.9112014771
-19.0672855377 -46.5158309937 55.7139434814
-19.0486049652 -46.4733200073 55.5150642395
-19.0229854584 -46.4135246277 55.3137664795
-18.9879570007 -46.3302841187 55.1091728210
-18.9429626465 -46.2222061157 54.9010467529
-18.8895606995 -46.0931816101 54.6898765564
-18.8303184509 -45.9496078491 54.4765052795
-18.7687511444 -45.8002433777 54.2621345520
-18.7102909088 -45.6586265564 54.0486412048
-18.6616630554 -45.5415153503 53.8384056091
-18.6278991699 -45.4614410400 53.6332435608
-18.6095714569 -45.4198379517 53.4334335327
-18.6028232574 -45.4070854187 53.2376785278
-18.6018218994 -45.4086532593 53.0439453125
-18.6014766693 -45.4118576050 52.8504447937
-18.5985813141 -45.4087028503 52.6560134888
-18.5915565491 -45.3952674866 52.4600791931
-18.5800304413 -45.3706092834 52.2624740601
-18.5646133423 -45.3362655640 52.0634117126
-18.5464401245 -45.2950515747 51.8632812500
-18.5264778137 -45.2493858337 51.6624259949
-18.5052223206 -45.2004928589 51.4610252380
-18.4826202393 -45.1482505798 51.2590484619
-18.4579620361 -45.0908851624 51.0562286377
-18.4301815033 -45.0257453918 50.8521499634
-18.3990764618 -44.9523239136 50.6467285156
-18.3665828705 -44.8754463196 50.4406738281
-18.3368091583 -44.8053474426 50.2355461121
-18.3146362305 -44.7541809082 50.0332145691
-18.3039226532 -44.7315711975 49.8351936340
-18.3062152863 -44.7413558960 49.6421394348
-18.3202438354 -44.7803764343 49.4536209106
-18.3423519135 -44.8395233154 49.2682762146
-18.3677406311 -44.9068412781 49.0842742920
-18.3920917511 -44.9715690613 48.8999481201
-18.4127101898 -45.0270042419 48.7142257690
-18.4284305573 -45.0702323914 48.5266342163
-18.4387359619 -45.0999717712 48.3369445801
-18.4433174133 -45.1154556274 48.1450119019
-18.4424018860 -45.1172447205 47.9508895874
-18.4370632172 -45.1080207825 47.7549896240
-18.4289054871 -45.0917701721 47.5579299927
-18.4193534851 -45.0720520020 47.3602790833
-18.4091033936 -45.0505943298 47.1623077393
-18.3980102539 -45.0270385742 46.9639549255
-18.3855953217 -45.0001907349 46.7650222778
-18.3719959259 -44.9703979492 46.5655593872
-18.3585968018 -44.9410972595 46.3661270142
-18.3475475311 -44.9176559448 46.1676216125
-18.3406181335 -44.9044723511 45.9707832336
-18.3385143280 -44.9033126831 45.7759323120
-18.3411445618 -44.9139328003 45.5830535889
-18.3480834961 -44.9352912903 45.3919868469
-18.3585700989 -44.9654846191 45.2024345398
-18.3711223602 -45.0008163452 45.0137825012
-18.3834838867 -45.0356750488 44.8250885010
-18.3933448792 -45.0643081665 44.6353645325
-18.3992729187 -45.0831413269 44.4439811707
-18.4009723663 -45.0914497375 44.2507934570
-18.3986415863 -45.0897178650 44.0558662415
-18.3920898438 -45.0774803162 43.8591003418
-18.3803691864 -45.0523681641 43.6600646973
-18.3622264862 -45.0112686157 43.4581794739
-18.3372364044 -44.9531211853 43.2532310486
-18.3068199158 -44.8814620972 43.0458145142
-18.2741909027 -44.8042984009 42.8373184204
-18.2431964874 -44.7312049866 42.6294364929
-18.2170524597 -44.6701927185 42.4236030579
-18.1977500916 -44.6262130737 42.2207336426
-18.1861438751 -44.6014022827 42.0212402344
-18.1823825836 -44.5961189270 41.8252296448
-18.1862812042 -44.6099090576 41.6326599121
-18.1972789764 -44.6413688660 41.4433059692
-18.2141437531 -44.6874427795 41.2566490173
-18.2349376678 -44.7432899475 41.0718307495
-18.2573280334 -44.8031158447 40.8878097534
-18.2789993286 -44.8611488342 40.7035217285
-18.2980327606 -44.9126129150 40.5180854797
-18.3132419586 -44.9545555115 40.3309402466
-18.3241310120 -44.9857406616 40.1418304443
-18.3303394318 -45.0052795410 39.9505767822
-18.3311614990 -45.0114021301 39.7568206787
-18.3256778717 -45.0018310547 39.5601081848
-18.3132972717 -44.9750938416 39.3601303101
-18.2940597534 -44.9312858582 39.1568679810
-18.2686519623 -44.8721237183 38.9506187439
-18.2384681702 -44.8010711670 38.7420120239
-18.2058334351 -44.7239189148 38.5321388245
-18.1740493774 -44.6488838196 38.3225555420
-18.1467494965 -44.5850181580 38.1150207520
-18.1267490387 -44.5393218994 37.9109077454
-18.1151638031 -44.5145759583 37.7107925415
-18.1113548279 -44.5091819763 37.5144081116
-18.1137313843 -44.5191841125 37.3210105896
-18.1209659576 -44.5412788391 37.1299896240
-18.1324825287 -44.5740318298 36.9410858154
-18.1476993561 -44.6159934998 36.7540283203
-18.1651248932 -44.6634445190 36.5681076050
-18.1827087402 -44.7112960815 36.3823165894
-18.1989269257 -44.7557449341 36.1958961487
-18.2130146027 -44.7948913574 36.0084648132
-18.2242031097 -44.8268203735 35.8196296692
-18.2312393188 -44.8484153748 35.6287422180
-18.2326869965 -44.8561019897 35.4350624084
-18.2273235321 -44.8468437195 35.2379531860
-18.2143154144 -44.8185539246 35.0369491577
-18.1935882568 -44.7710571289 34.8319816589
-18.1663398743 -44.7073364258 34.6236228943
-18.1348896027 -44.6331672668 34.4130249023
-18.1019191742 -44.5552101135 34.2015419006
-18.0702285767 -44.4804420471 33.9906044006
-18.0432147980 -44.4173088074 33.7819709778
-18.0246562958 -44.3752250671 33.5776176453
-18.0172424316 -44.3608665466 33.3789825439
-18.0210170746 -44.3743515015 33.1861419678
-18.0332279205 -44.4088325500 32.9977149963
-18.0497722626 -44.4540901184 32.8115882874
-18.0673866272 -44.5020065308 32.6260757446
-18.0850524902 -44.5500564575 32.4406394958
-18.1034183502 -44.5998382568 32.2556266785
-18.1227474213 -44.6520233154 32.0711822510
-18.1415138245 -44.7028045654 31.8864936829
-18.1570472717 -44.7455444336 31.7001361847
-18.1673698425 -44.7753143311 31.5110378265
-18.1721076965 -44.7911911011 31.3189697266
-18.1717987061 -44.7945098877 31.1241950989
-18.1667442322 -44.7860221863 30.9268531799
-18.1566219330 -44.7649307251 30.7267456055
-18.1409244537 -44.7299690247 30.5235729218
-18.1194076538 -44.6805343628 30.3171749115
-18.0921154022 -44.6167259216 30.1075458527
-18.0593662262 -44.5393486023 29.8948345184
-18.0222206116 -44.4510421753 29.6795959473
-17.9830608368 -44.3577194214 29.4631214142
-17.9456520081 -44.2687606812 29.2474842072
-17.9146862030 -44.1958312988 29.0352916718
-17.8947486877 -44.1503372192 28.8291282654
-17.8885688782 -44.1390609741 28.6305656433
-17.8952922821 -44.1598815918 28.4391956329
-17.9104995728 -44.2018127441 28.2526035309
-17.9285449982 -44.2507972717 28.0676517487
-17.9454593658 -44.2969665527 27.8821144104
-17.9599952698 -44.3372192383 27.6952819824
-17.9724140167 -44.3722076416 27.5072917938
-17.9827804565 -44.4020843506 27.3181667328
-17.9904651642 -44.4252967834 27.1275405884
-17.9947452545 -44.4400444031 26.9349880219
-17.9953098297 -44.4455451965 26.7403106689
-17.9921092987 -44.4416809082 26.5434646606
-17.9849891663 -44.4280662537 26.3443393707
-17.9736614227 -44.4039955139 26.1427516937
-17.9580669403 -44.3693084717 25.9386482239
-17.9386425018 -44.3251037598 25.7322578430
-17.9161758423 -44.2733306885 25.5240249634
-17.8917198181 -44.2166099548 25.3145503998
-17.8671016693 -44.1594924927 25.1048965454
-17.8452129364 -44.1091575623 24.8967647552
-17.8288364410 -44.0725364685 24.6918087006
-17.8188610077 -44.0518379211 24.4905834198
-17.8140544891 -44.0439872742 24.2923870087
-17.8127174377 -44.0447692871 24.0962352753
-17.8143463135 -44.0529212952 23.9018440247
-17.8199024200 -44.0708465576 23.7098007202
-17.8309726715 -44.1024742126 23.5210800171
-17.8485069275 -44.1501808167 23.3362770081
-17.8716964722 -44.2119407654 23.1549358368
-17.8975200653 -44.2802581787 22.9752578735
-17.9214458466 -44.3438491821 22.7945079803
-17.9390525818 -44.3917274475 22.6099910736
-17.9474945068 -44.4168205261 22.4199371338
-17.9457931519 -44.4166908264 22.2237091064
-17.9343109131 -44.3922462463 22.0214767456
-17.9144802094 -44.3470420837 21.8140735626
-17.8886642456 -44.2869567871 21.6029129028
-17.8592472076 -44.2179260254 21.3894405365
-17.8273582458 -44.1427536011 21.1743373871
-17.7928619385 -44.0610961914 20.9575061798
-17.7558917999 -43.9732894897 20.7390193939
-17.7181186676 -43.8834915161 20.5199050903
-17.6822948456 -43.7985382080 20.3018836975
-17.6507968903 -43.7243499756 20.0864562988
-17.6250152588 -43.6643714905 19.8745174408
-17.6059570313 -43.6211051941 19.6667289734
-17.5948257446 -43.5975494385 19.4638862610
-17.5926208496 -43.5961799622 19.2666606903
-17.5992336273 -43.6167373657 19.0750255585
-17.6130657196 -43.6552314758 18.8880062103
-17.6314067841 -43.7049369812 18.7039070129
-17.6512145996 -43.7582893372 18.5208015442
-17.6697101593 -43.8083763123 18.3369140625
-17.6845455170 -43.8493614197 18.1507244110
-17.6937580109 -43.8763732910 17.9609527588
-17.6960945129 -43.8862953186 17.7667560577
-17.6915988922 -43.8792343140 17.5681343079
-17.6815757751 -43.8584365845 17.3658981323
-17.6673793793 -43.8272628784 17.1609058380
-17.6489734650 -43.7856254578 16.9531116486
-17.6246948242 -43.7293968201 16.7414054871
-17.5924625397 -43.6534042358 16.5243968964
-17.5514698029 -43.5556373596 16.3015098572
-17.5034160614 -43.4403305054 16.0738296509
-17.4527492523 -43.3185272217 15.8442573547
-17.4055137634 -43.2052574158 15.6167926788
-17.3671379089 -43.1140098572 15.3950586319
-17.3404293060 -43.0517539978 15.1809673309
-17.3251781464 -43.0179824829 14.9744386673
-17.3195037842 -43.0080032349 14.7742662430
-17.3215656281 -43.0172538757 14.5792617798
-17.3302059174 -43.0428504944 14.3886871338
-17.3441982269 -43.0817489624 14.2017440796
-17.3611774445 -43.1280670166 14.0168600082
-17.3776931763 -43.1732330322 13.8317136765
-17.3906269073 -43.2094993591 13.6441822052
-17.3985595703 -43.2333374023 13.4532823563
-17.4018211365 -43.2455635071 13.2592153549
-17.4014358521 -43.2487297058 13.0626592636
-17.3980197906 -43.2443656921 12.8640184402
-17.3912429810 -43.2316513062 12.6630516052
-17.3799057007 -43.2076110840 12.4589176178
