25.5074462891 26.8267917633 62.4888725281
25.5320529938 26.8474292755 62.2938232422
25.5537204742 26.8652324677 62.0983161926
25.5716514587 26.8794326782 61.9022178650
25.5856742859 26.8898658752 61.7054824829
25.5966796875 26.8973865509 61.5082511902
25.6067409515 26.9039993286 61.3108673096
25.6180057526 26.9117717743 61.1136856079
25.6318550110 26.9220352173 60.9169464111
25.6496925354 26.9361476898 60.7208938599
25.6735000610 26.9560165405 60.5258789063
25.7039432526 26.9822883606 60.3320274353
25.7377376556 27.0117912292 60.1387977600
25.7681655884 27.0380458832 59.9450225830
25.7891826630 27.0552272797 59.7496414185
25.7991027832 27.0617027283 59.5523300171
25.8006973267 27.0601501465 59.3535537720
25.7986755371 27.0551090240 59.1541213989
25.7970981598 27.0504951477 58.9547500610
25.7983131409 27.0485744476 58.7558555603
25.8033199310 27.0503120422 58.5576324463
25.8122100830 27.0557956696 58.3601036072
25.8238544464 27.0639343262 58.1630744934
25.8356380463 27.0722103119 57.9660720825
25.8445472717 27.0777111053 57.7685508728
25.8490161896 27.0789299011 57.5702095032
25.8496837616 27.0764808655 57.3711547852
25.8485069275 27.0722522736 57.1717376709
25.8473873138 27.0680770874 56.9723167419
25.8474559784 27.0650501251 56.7731018066
25.8489856720 27.0634326935 56.5741462708
25.8514060974 27.0626735687 56.3753433228
25.8531627655 27.0612716675 56.1764030457
25.8518180847 27.0568809509 55.9768562317
25.8450946808 27.0472984314 55.7762565613
25.8326072693 27.0321559906 55.5745162964
25.8166465759 27.0136604309 55.3720626831
25.8008041382 26.9952774048 55.1695861816
25.7878284454 26.9796619415 54.9676322937
25.7787361145 26.9677925110 54.7663993835
25.7732257843 26.9593772888 54.5658378601
25.7703742981 26.9535293579 54.3657836914
25.7691802979 26.9492778778 54.1660346985
25.7689151764 26.9459228516 53.9664535522
25.7692260742 26.9431247711 53.7669715881
25.7700691223 26.9408397675 53.5675849915
25.7717552185 26.9393672943 53.3683509827
25.7752323151 26.9396228790 53.1694679260
25.7823181152 26.9433612823 52.9713134766
25.7952194214 26.9527091980 52.7743453979
25.8148841858 26.9685878754 52.5787849426
25.8393001556 26.9890499115 52.3842239380
25.8636722565 27.0094699860 52.1896781921
25.8829326630 27.0249576569 51.9940948486
25.8942737579 27.0328006744 51.7968635559
25.8977813721 27.0330867767 51.5979881287
25.8956947327 27.0279731750 51.3979187012
25.8914375305 27.0207653046 51.1973686218
25.8884468079 27.0147781372 50.9970664978
25.8889827728 27.0121936798 50.7974967957
25.8939647675 27.0139007568 50.5988655090
25.9040088654 27.0204925537 50.4013214111
25.9202270508 27.0330448151 50.2051162720
25.9437007904 27.0525989532 50.0105018616
25.9742355347 27.0789699554 49.8174552917
26.0097675323 27.1101646423 49.6255455017
26.0468349457 27.1428432465 49.4340171814
26.0814590454 27.1731605530 49.2420005798
26.1099681854 27.1975784302 49.0486679077
26.1300907135 27.2139034271 48.8535003662
26.1422672272 27.2225551605 48.6565704346
26.1499290466 27.2268505096 48.4586334229
26.1575603485 27.2311172485 48.2606849670
26.1676235199 27.2377300262 48.0632858276
26.1788215637 27.2454395294 47.8661460876
26.1870727539 27.2503032684 47.6683349609
26.1883964539 27.2484798431 47.4689369202
26.1815547943 27.2387714386 47.2676429749
26.1686573029 27.2232208252 47.0649261475
26.1533966064 27.2053852081 46.8616218567
26.1384887695 27.1878910065 46.6583557129
26.1248569489 27.1716251373 46.4553451538
26.1132812500 27.1573467255 46.2527770996
26.1066741943 27.1478652954 46.0513420105
26.1102352142 27.1481990814 45.8522758484
26.1284828186 27.1627101898 45.6566848755
26.1610603333 27.1910591125 45.4645156860
26.2012958527 27.2268028259 45.2742195129
26.2398586273 27.2609329224 45.0835723877
26.2706298828 27.2875404358 44.8911056519
26.2931900024 27.3062191010 44.6966934204
26.3105106354 27.3198394775 44.5010337830
26.3254356384 27.3311462402 44.3048095703
26.3391304016 27.3412666321 44.1082916260
26.3514480591 27.3500556946 43.9114418030
26.3618068695 27.3569545746 43.7141189575
26.3698482513 27.3616161346 43.5162277222
26.3757076263 27.3641719818 43.3177909851
26.3799648285 27.3651771545 43.1189498901
26.3834285736 27.3654174805 42.9199028015
26.3868732452 27.3656387329 42.7208404541
26.3907928467 27.3663215637 42.5218849182
26.3952693939 27.3675384521 42.3230628967
26.4000034332 27.3690052032 42.1242980957
26.4045543671 27.3702945709 41.9254760742
26.4086723328 27.3711643219 41.7265357971
26.4126510620 27.3719005585 41.5275535583
26.4176807404 27.3736534119 41.3288269043
26.4259700775 27.3785533905 41.1309356689
26.4400653839 27.3890609741 40.9345397949
26.4609584808 27.4061317444 40.7399139404
26.4859485626 27.4271621704 40.5463714600
26.5085754395 27.4459095001 40.3522415161
26.5216560364 27.4554386139 40.1556358337
26.5211505890 27.4518432617 39.9554710388
26.5076370239 27.4356842041 39.7518577576
26.4851856232 27.4108905792 39.5458450317
26.4597396851 27.3832054138 39.3389816284
26.4377403259 27.3588466644 39.1329727173
26.4240684509 27.3425312042 38.9291305542
26.4203262329 27.3358078003 38.7279129028
26.4255619049 27.3377552032 38.5290794373
26.4385967255 27.3472366333 38.3323440552
26.4589729309 27.3638095856 38.1376037598
26.4856758118 27.3864955902 37.9445953369
26.5158653259 27.4125499725 37.7525711060
26.5456504822 27.4382152557 37.5604705811
26.5724983215 27.4610424042 37.3676033020
26.5970649719 27.4816665649 37.1741371155
26.6229209900 27.5035362244 36.9810562134
26.6544570923 27.5308933258 36.7895736694
26.6946163177 27.5665817261 36.6005249023
26.7437896729 27.6109828949 36.4140434265
26.7996540070 27.6618461609 36.2294998169
26.8571643829 27.7143020630 36.0454978943
26.9094352722 27.7616977692 35.8601112366
26.9505977631 27.7983608246 35.6716651917
26.9789257050 27.8226261139 35.4796447754
26.9970569611 27.8370380402 35.2847671509
27.0091247559 27.8455924988 35.0881767273
27.0177898407 27.8508586884 34.8906173706
27.0233154297 27.8530902863 34.6921615601
27.0243206024 27.8509559631 34.4923973083
27.0191726685 27.8428726196 34.2908439636
27.0075244904 27.8285102844 34.0873870850
26.9916534424 27.8100662231 33.8826713562
26.9765319824 27.7923469543 33.6781272888
26.9678478241 27.7808456421 33.4754142761
26.9688110352 27.7786674500 33.2754974365
26.9778766632 27.7843189240 33.0779418945
26.9891815186 27.7921352386 32.8810462952
26.9959068298 27.7955245972 32.6828002930
26.9943428040 27.7909049988 32.4820938110
26.9854164124 27.7791671753 32.2791824341
26.9729614258 27.7640190125 32.0751876831
26.9613380432 27.7496757507 31.8714027405
26.9540958405 27.7395648956 31.6688938141
26.9531002045 27.7354907990 31.4682331085
26.9581069946 27.7372188568 31.2693634033
26.9672679901 27.7429618835 31.0717430115
26.9782485962 27.7504615784 30.8746738434
26.9892768860 27.7580089569 30.6776218414
26.9996681213 27.7649402618 30.4803771973
27.0095539093 27.7713832855 30.2829818726
27.0191917419 27.7775859833 30.0855102539
27.0285243988 27.7834930420 29.8879451752
27.0372867584 27.7888507843 29.6902046204
27.0454387665 27.7936172485 29.4922733307
27.0535755157 27.7983703613 29.2943363190
27.0630130768 27.8043804169 29.0968017578
27.0751533508 27.8130016327 28.9001102448
27.0903224945 27.8245506287 28.7043724060
27.1071338654 27.8376884460 28.5091609955
27.1234340668 27.8503322601 28.3138008118
27.1382484436 27.8615398407 28.1179828644
27.1527671814 27.8724632263 27.9220829010
27.1694145203 27.8854427338 27.7268676758
27.1899127960 27.9021453857 27.5328922272
27.2141342163 27.9224472046 27.3401222229
27.2407588959 27.9450740814 27.1481513977
27.2689552307 27.9692211151 26.9567127228
27.2990207672 27.9951744080 26.7659111023
27.3312053680 28.0231761932 26.5758285522
27.3644924164 28.0522460938 26.3861446381
27.3971748352 28.0807342529 26.1963062286
27.4282093048 28.1076259613 26.0059738159
27.4571552277 28.1325016022 25.8149986267
27.4829978943 28.1543769836 25.6230430603
27.5040550232 28.1716232300 25.4295444489
27.5193347931 28.1832866669 25.2341690063
27.5294952393 28.1899967194 25.0371131897
27.5362834930 28.1934490204 24.8389434814
27.5413703918 28.1952552795 24.6402053833
27.5457286835 28.1963577271 24.4412174225
27.5498981476 28.1972751617 24.2421569824
27.5546588898 28.1987667084 24.0432872772
27.5615596771 28.2023258209 23.8451251984
27.5728969574 28.2101783752 23.6484508514
27.5910511017 28.2246189117 23.4540748596
27.6171779633 28.2467708588 23.2624111176
27.6499366760 28.2753372192 23.0730209351
27.6853561401 28.3064785004 22.8845787048
27.7183456421 28.3352680206 22.6953544617
27.7447338104 28.3576755524 22.5039176941
27.7623462677 28.3715972900 22.3095092773
27.7705612183 28.3764286041 22.1118888855
27.7692451477 28.3720436096 21.9109859467
27.7583732605 28.3584156036 21.7067680359
27.7387790680 28.3363513947 21.4994983673
27.7132167816 28.3085136414 21.2901077271
27.6865596771 28.2796154022 21.0802726746
27.6646976471 28.2553558350 20.8720455170
27.6526603699 28.2405967712 20.6671962738
27.6527881622 28.2376041412 20.4665718079
27.6637802124 28.2451190948 20.2697448730
27.6812305450 28.2588825226 20.0751953125
27.6997032166 28.2736339569 19.8810214996
27.7151908875 28.2854976654 19.6858081818
27.7263145447 28.2931423187 19.4890575409
27.7339134216 28.2973766327 19.2910556793
27.7400836945 28.3002262115 19.0925407410
27.7476024628 28.3043842316 18.8945026398
27.7596645355 28.3129348755 18.6980895996
27.7792320251 28.3287467957 18.5043773651
27.8079319000 28.3533935547 18.3139724731
27.8452014923 28.3863296509 18.1266956329
27.8883495331 28.4249553680 17.9415950775
27.9329814911 28.4650173187 17.7570953369
27.9732551575 28.5008640289 17.5710716248
28.0030918121 28.5266132355 17.3812980652
28.0191001892 28.5389862061 17.1865081787
28.0228881836 28.5395355225 16.9872512817
28.0199260712 28.5335521698 16.7855072021
28.0160121918 28.5266494751 16.5833911896
28.0148983002 28.5224552155 16.3822841644
28.0186252594 28.5229434967 16.1829490662
28.0289325714 28.5298004150 15.9860448837
28.0476875305 28.5448303223 15.7922821045
28.0758018494 28.5689163208 15.6020231247
28.1117897034 28.6006202698 15.4147377014
28.1515483856 28.6359748840 15.2289123535
28.1898155212 28.6698856354 15.0425815582
28.2223148346 28.6982173920 14.8541326523
28.2471714020 28.7191543579 14.6628427505
28.2648181915 28.7331142426 14.4688568115
28.2768821716 28.7416725159 14.2727699280
28.2850799561 28.7464904785 14.0752201080
28.2907829285 28.7488918304 13.8767185211
28.2950630188 28.7499160767 13.6776676178
28.2988567352 28.7504711151 13.4784212112
28.3030910492 28.7514514923 13.2793350220
28.3088588715 28.7539176941 13.0808286667
28.3174686432 28.7591323853 12.8834095001
28.3300189972 28.7681617737 12.6875104904
28.3465290070 28.7810230255 12.4931497574
28.3654937744 28.7962589264 12.2997522354
28.3847713470 28.8118000031 12.1064949036
28.4030704498 28.8263931274 11.9128732681
28.4201126099 28.8397693634 11.7187776566
28.4351902008 28.8512458801 11.5239257813
28.4463424683 28.8589229584 11.3275461197
28.4519119263 28.8611946106 11.1289739609
28.4528999329 28.8590335846 10.9285907745
28.4532260895 28.8562316895 10.7279310226
28.4575634003 28.8573112488 10.5288419724
28.4690341949 28.8652954102 10.3325748444
28.4882907867 28.8808174133 10.1394062042
28.5139331818 28.9025211334 9.9488010406
28.5439491272 28.9284572601 9.7599706650
28.5771713257 28.9574966431 9.5724611282
28.6132678986 28.9893226624 9.3861474991
28.6513156891 29.0230369568 9.2006664276
28.6888408661 29.0562458038 9.0150260925
28.7226638794 29.0858707428 8.8279399872
28.7508487701 29.1100387573 8.6386165619
28.7741546631 29.1294860840 8.4473485947
28.7960109711 29.1475276947 8.2555150986
28.8211688995 29.1687660217 8.0650501251
28.8537216187 29.1971645355 7.8776321411
28.8949356079 29.2339496613 7.6937999725
28.9419364929 29.2763366699 7.5123982430
28.9887523651 29.3185482025 7.3309884071
29.0293712616 29.3547611237 7.1470932961
29.0600490570 29.3813476563 6.9591503143
29.0792350769 29.3968086243 6.7664918900
29.0868663788 29.4010810852 6.5690598488
29.0847606659 29.3959274292 6.3675799370
29.0769233704 29.3852252960 6.1636939049
29.0680541992 29.3735218048 5.9593458176
29.0613231659 29.3638858795 5.7558588982
29.0577125549 29.3572731018 5.5536513329
29.0571804047 29.3536415100 5.3527131081
29.0599346161 29.3531913757 5.1531410217
29.0668029785 29.3567256927 4.9552917480
29.0788860321 29.3653087616 4.7596426010
29.0968189240 29.3795566559 4.5664753914
29.1197624207 29.3986568451 4.3754506111
29.1449184418 29.4199008942 4.1853909492
29.1685104370 29.4396305084 3.9946932793
29.1877002716 29.4550952911 3.8021407127
29.2016601563 29.4654979706 3.6073677540
29.2111282349 29.4715499878 3.4106769562
29.2173824310 29.4744892120 3.2126045227
29.2215747833 29.4754314423 3.0136384964
29.2245025635 29.4751491547 2.8141179085
29.2266731262 29.4741344452 2.6142580509
29.2286434174 29.4729232788 2.4142980576
29.2315006256 29.4725723267 2.2147111893
29.2370319366 29.4748096466 2.0162754059
29.2470417023 29.4813861847 1.8197864294
29.2620182037 29.4927730560 1.6254690886
29.2802124023 29.5072765350 1.4325708151
29.2982482910 29.5216274261 1.2396192551
29.3127593994 29.5325641632 1.0451333523
29.3215503693 29.5379581451 0.8481365442
29.3238220215 29.5370407104 0.6482611299
29.3202362061 29.5304470062 0.4457817078
29.3135223389 29.5208225250 0.2418924868
29.3094577789 29.5137653351 0.0391514637
32.3997802734 17.7834968567 80.5202789307
32.4053802490 17.7837600708 80.3229675293
32.4130401611 17.7850227356 80.1257858276
32.4176025391 17.7847824097 79.9283905029
32.4142684937 17.7807006836 79.7304382324
32.4005699158 17.7715816498 79.5317382813
32.3775901794 17.7579498291 79.3323440552
32.3502502441 17.7421989441 79.1325988770
32.3259849548 17.7279415131 78.9330215454
32.3111343384 17.7182617188 78.7340774536
32.3068695068 17.7137241364 78.5358734131
32.3080940247 17.7118587494 78.3380661011
32.3070373535 17.7088813782 78.1400680542
32.2989158630 17.7024726868 77.9415206909
32.2848815918 17.6931838989 77.7424926758
32.2699394226 17.6834583282 77.5433654785
32.2589797974 17.6756668091 77.3445129395
32.2549819946 17.6712589264 77.1461715698
32.2593154907 17.6709003448 76.9484710693
32.2714347839 17.6743316650 76.7513809204
32.2884407043 17.6801357269 76.5546875000
32.3065872192 17.6864967346 76.3581008911
32.3236160278 17.6923122406 76.1614303589
32.3391151428 17.6973838806 75.9646377563
32.3531990051 17.7017688751 75.7677383423
32.3654289246 17.7052516937 75.5706863403
32.3747520447 17.7073211670 75.3733901978
32.3798828125 17.7073516846 75.1757354736
32.3796768188 17.7047863007 74.9776077271
32.3735656738 17.6993503571 74.7789611816
32.3619575500 17.6912403107 74.5798034668
32.3463897705 17.6812019348 74.3802642822
32.3290557861 17.6703071594 74.1805419922
32.3120956421 17.6595916748 73.9808044434
32.2970924377 17.6498298645 73.7812042236
32.2849731445 17.6414680481 73.5818405151
32.2758712769 17.6345748901 73.3827133179
32.2691459656 17.6288356781 73.1837768555
32.2639656067 17.6238498688 72.9849624634
32.2600135803 17.6194591522 72.7862472534
32.2573966980 17.6157188416 72.5876312256
32.2560081482 17.6125755310 72.3891143799
32.2554626465 17.6098423004 72.1906585693
32.2556457520 17.6074619293 71.9922637939
32.2571258545 17.6057147980 71.7939758301
32.2610473633 17.6051521301 71.5959167480
32.2687034607 17.6064090729 71.3982162476
32.2811965942 17.6100177765 71.2009887695
32.2988319397 17.6161251068 71.0042800903
32.3202476501 17.6240768433 70.8079605103
32.3422317505 17.6323013306 70.6117172241
32.3611259460 17.6390266418 70.4151687622
32.3750419617 17.6433258057 70.2181243896
32.3845672607 17.6454906464 70.0206298828
32.3916587830 17.6464729309 69.8228759766
32.3980979919 17.6471366882 69.6250534058
32.4048805237 17.6479663849 69.4272613525
32.4125404358 17.6492252350 69.2295532227
32.4219474792 17.6513309479 69.0320281982
32.4351196289 17.6552715302 68.8349075317
32.4554328918 17.6626834869 68.6385650635
32.4858589172 17.6750202179 68.4433441162
32.5255889893 17.6918830872 68.2491683960
32.5679092407 17.7100067139 68.0553131104
32.6025390625 17.7243881226 67.8606567383
32.6213035583 17.7310504913 67.6642532349
32.6225166321 17.7291717529 67.4658813477
32.6110267639 17.7211093903 67.2660675049
32.5946388245 17.7106647491 67.0656585693
32.5798835754 17.7010116577 66.8653945923
32.5698623657 17.6936645508 66.6656494141
32.5649414063 17.6887989044 66.4664611816
32.5646286011 17.6861763000 66.2677917480
32.5688552856 17.6857624054 66.0696411133
32.5780105591 17.6877460480 65.8720626831
32.5916061401 17.6918926239 65.6750106812
32.6063461304 17.6965961456 65.4780960083
32.6154975891 17.6985778809 65.2805175781
32.6115798950 17.6941986084 65.0813522339
32.5912322998 17.6818218231 64.8801727295
32.5584449768 17.6633911133 64.6774291992
32.5230712891 17.6436996460 64.4743041992
32.4957580566 17.6279296875 64.2721099854
32.4833030701 17.6193943024 64.0717163086
32.4873161316 17.6188735962 63.8733444214
32.5054626465 17.6252326965 63.6767463684
32.5333976746 17.6363563538 63.4813995361
32.5666427612 17.6500682831 63.2867507935
32.6018943787 17.6647548676 63.0923881531
32.6367721558 17.6792621613 62.8980140686
32.6689414978 17.6924495697 62.7033233643
32.6966781616 17.7034797668 62.5080871582
32.7205734253 17.7126388550 62.3123703003
32.7435684204 17.7213592529 62.1165542603
32.7683601379 17.7309570313 61.9209938049
32.7950477600 17.7414779663 61.7257041931
32.8216438293 17.7519550323 61.5304260254
32.8467140198 17.7616882324 61.3349609375
32.8710212708 17.7710494995 61.1394157410
32.8965682983 17.7810153961 60.9440574646
32.9241142273 17.7919559479 60.7489929199
32.9516716003 17.8029022217 60.5539550781
32.9755363464 17.8120479584 60.3584327698
32.9927787781 17.8179702759 60.1620063782
33.0026588440 17.8203105927 59.9645690918
33.0060005188 17.8194637299 59.7662162781
33.0036659241 17.8158531189 59.5670547485
32.9957122803 17.8095054626 59.3670806885
32.9819602966 17.8003330231 59.1662559509
32.9635848999 17.7889118195 58.9647407532
32.9442062378 17.7769985199 58.7630386353
32.9286384583 17.7669410706 58.5618438721
32.9198379517 17.7601795197 58.3615913391
32.9168739319 17.7562599182 58.1621589661
32.9161643982 17.7534389496 57.9630393982
32.9147567749 17.7502765656 57.7638015747
32.9122848511 17.7465972900 57.5643882751
32.9101600647 17.7430858612 57.3650093079
32.9097595215 17.7404136658 57.1658668518
32.9120483398 17.7390518188 56.9671134949
32.9183502197 17.7396450043 56.7689514160
32.9305610657 17.7431144714 56.5716743469
32.9493904114 17.7498092651 56.3754043579
32.9711799622 17.7579479218 56.1795997620
32.9867362976 17.7630481720 55.9828529358
32.9858970642 17.7601623535 55.7835922241
32.9657058716 17.7478485107 55.5813217163
32.9336204529 17.7297382355 55.3771629333
32.9015998840 17.7116603851 55.1729545593
32.8775444031 17.6974620819 54.9699325562
32.8625793457 17.6876926422 54.7682914734
32.8544960022 17.6812744141 54.5677032471
32.8520278931 17.6775913239 54.3679809570
32.8565254211 17.6773033142 54.1693496704
32.8708839417 17.6818199158 53.9722938538
32.8967056274 17.6919212341 53.7770843506
32.9317474365 17.7065143585 53.5833854675
32.9704666138 17.7229003906 53.3903160095
33.0078201294 17.7386226654 53.1970672607
33.0426788330 17.7531261444 53.0034446716
33.0772171021 17.7674770355 52.8098030090
33.1132240295 17.7825450897 52.6164398193
33.1493263245 17.7976589203 52.4231262207
33.1816673279 17.8109397888 52.2292213440
33.2067947388 17.8207035065 52.0341415405
33.2236824036 17.8264541626 51.8376960754
33.2335853577 17.8288021088 51.6400833130
33.2387084961 17.8288192749 51.4416618347
33.2412033081 17.8275566101 51.2427825928
33.2430267334 17.8259639740 51.0437812805
33.2463111877 17.8250865936 50.8450164795
33.2536430359 17.8261795044 50.6469345093
33.2674636841 17.8304347992 50.4499740601
33.2885818481 17.8382472992 50.2542800903
33.3152046204 17.8487434387 50.0595626831
33.3439216614 17.8602600098 49.8652305603
33.3720703125 17.8715019226 49.6708297729
33.3989677429 17.8821315765 49.4762268066
33.4246025085 17.8921489716 49.2814292908
33.4474105835 17.9007854462 49.0861434937
33.4639472961 17.9063663483 48.8897590637
33.4714965820 17.9075679779 48.6917724609
33.4710197449 17.9048538208 48.4923400879
33.4668083191 17.9003219604 48.2922134399
33.4632720947 17.8961162567 48.0921897888
33.4624290466 17.8932247162 47.8926353455
33.4640769958 17.8915481567 47.6935234070
33.4672927856 17.8906345367 47.4946823120
33.4713134766 17.8901119232 47.2959823608
33.4757194519 17.8897800446 47.0973396301
33.4803848267 17.8895740509 46.8987388611
33.4854698181 17.8895702362 46.7002067566
33.4912223816 17.8898944855 46.5017929077
33.4973373413 17.8903923035 46.3034400940
33.5024223328 17.8903923035 46.1048851013
33.5049018860 17.8891181946 45.9058303833
33.5047454834 17.8865585327 45.7062644958
33.5036392212 17.8835372925 45.5065040588
33.5030593872 17.8807716370 45.3068237305
33.5032081604 17.8783607483 45.1072692871
33.5043869019 17.8764514923 44.9078979492
33.5082817078 17.8758697510 44.7090377808
33.5167160034 17.8774986267 44.5110511780
33.5291595459 17.8810825348 44.3138389587
33.5425300598 17.8851203918 44.1168098450
33.5536880493 17.8880767822 43.9193534851
33.5615577698 17.8894309998 43.7212486267
33.5670433044 17.8896217346 43.5226669312
33.5719795227 17.8895454407 43.3239707947
33.5785598755 17.8902702332 43.1255950928
33.5888175964 17.8927898407 42.9279479980
33.6033134460 17.8973770142 42.7311477661
33.6201057434 17.9030818939 42.5348129272
33.6357727051 17.9082374573 42.3382606506
33.6479187012 17.9116783142 42.1410026550
33.6565666199 17.9134120941 41.9430351257
33.6633720398 17.9142456055 41.7446899414
33.6700744629 17.9150295258 41.5463218689
33.6777267456 17.9162769318 41.3481369019
33.6866264343 17.9181346893 41.1502075195
33.6964836121 17.9204578400 40.9524765015
33.7067031860 17.9229583740 40.7548141479
33.7169456482 17.9254684448 40.5571594238
33.7278404236 17.9282989502 40.3596382141
33.7412605286 17.9323596954 40.1626472473
33.7595252991 17.9387836456 39.9666786194
33.7835235596 17.9480056763 39.7719268799
33.8111915588 17.9590187073 39.5779724121
33.8379898071 17.9696063995 39.3838577271
33.8590011597 17.9773731232 39.1885299683
33.8706359863 17.9805641174 38.9912185669
33.8711128235 17.9783096313 38.7915115356
33.8608589172 17.9708213806 38.5894851685
33.8434448242 17.9598388672 38.3858833313
33.8256759644 17.9486827850 38.1821632385
33.8152503967 17.9411087036 37.9799995422
33.8168373108 17.9393959045 37.7804222107
33.8299369812 17.9433002472 37.5833473206
33.8504905701 17.9508419037 37.3879165649
33.8744468689 17.9600448608 37.1932449341
33.8999710083 17.9700126648 36.9989356995
33.9273262024 17.9808750153 36.8050575256
33.9574050903 17.9930667877 36.6118049622
33.9901351929 18.0065498352 36.4191703796
34.0239486694 18.0205669403 36.2268104553
34.0569953918 18.0342063904 36.0343132019
34.0885314941 18.0471096039 35.8415031433
34.1185569763 18.0592765808 35.6483840942
34.1462936401 18.0703277588 35.4547767639
34.1700782776 18.0794487000 35.2602920532
34.1888961792 18.0861473083 35.0646934509
34.2033767700 18.0907287598 34.8681182861
34.2150955200 18.0939617157 34.6709175110
34.2253837585 18.0964965820 34.4733848572
34.2348327637 18.0986213684 34.2756576538
34.2435455322 18.1003875732 34.0777626038
34.2515907288 18.1018276215 33.8797035217
34.2593917847 18.1031475067 33.6815872192
34.2679977417 18.1048622131 33.4836578369
34.2789764404 18.1077346802 33.2862777710
34.2935028076 18.1123371124 33.0897331238
34.3109359741 18.1183586121 32.8938751221
34.3283805847 18.1243896484 32.6980323792
34.3426933289 18.1288871765 32.5014533997
34.3534736633 18.1316623688 32.3040428162
34.3636283875 18.1341304779 32.1064834595
34.3762359619 18.1377983093 31.9095096588
34.3915557861 18.1427898407 31.7131900787
34.4078025818 18.1482353210 31.5170974731
34.4241294861 18.1537170410 31.3210334778
34.4412269592 18.1595783234 31.1251640320
34.4589538574 18.1657447815 30.9294548035
34.4747810364 18.1709842682 30.7332954407
34.4850845337 18.1735267639 30.5357933044
34.4871635437 18.1720542908 30.3362789154
34.4802474976 18.1661872864 30.1345424652
34.4659461975 18.1567153931 29.9309616089
34.4482727051 18.1455955505 29.7265148163
34.4322166443 18.1352653503 29.5224285126
34.4214134216 18.1275005341 29.3196086884
34.4170837402 18.1228981018 29.1183700562
34.4189605713 18.1213226318 28.9186592102
34.4268608093 18.1226902008 28.7204456329
34.4415092468 18.1273536682 28.5239238739
34.4639282227 18.1358108521 28.3293628693
34.4939537048 18.1479854584 28.1367397308
34.5293502808 18.1627807617 27.9455051422
34.5667762756 18.1785697937 27.7548217773
34.6038932800 18.1942081451 27.5640964508
34.6402435303 18.2094726563 27.3732147217
34.6760482788 18.2244701385 27.1822280884
34.7107353210 18.2389221191 26.9909896851
34.7429275513 18.2521572113 26.7991428375
34.7712783813 18.2635135651 26.6063346863
34.7948036194 18.2725162506 26.4123020172
34.8130722046 18.2789516449 26.2169227600
34.8267135620 18.2831249237 26.0203495026
34.8376159668 18.2859592438 25.8230628967
34.8482437134 18.2886619568 25.6257076263
34.8608589172 18.2923336029 25.4288711548
34.8772583008 18.2978553772 25.2330360413
34.8987693787 18.3058738708 25.0385570526
34.9255180359 18.3164520264 24.8454799652
34.9550628662 18.3283958435 24.6531677246
34.9817581177 18.3389472961 24.4601230621
34.9985237122 18.3446502686 24.2644538879
35.0007133484 18.3432292938 24.0648937225
34.9892768860 18.3351516724 23.8616676331
34.9707984924 18.3236312866 23.6565151215
34.9544944763 18.3131752014 23.4519062042
34.9485702515 18.3077888489 23.2500667572
34.9579811096 18.3098964691 23.0523605347
34.9837455750 18.3199939728 22.8590965271
35.0230789185 18.3367233276 22.6695499420
35.0702552795 18.3572826385 22.4821853638
35.1181945801 18.3782157898 22.2950820923
35.1604156494 18.3963584900 22.1064624786
35.1925964355 18.4095935822 21.9151248932
35.2132453918 18.4171924591 21.7206325531
35.2236480713 18.4197864532 21.5233192444
35.2276229858 18.4192390442 21.3242244720
35.2308197021 18.4183082581 21.1249008179
35.2389373779 18.4197864532 20.9269409180
35.2554359436 18.4253578186 20.7313194275
35.2805976868 18.4351654053 20.5381336212
35.3124694824 18.4482498169 20.3468551636
35.3477478027 18.4630012512 20.1565647125
35.3819198608 18.4772129059 19.9659976959
35.4100379944 18.4884643555 19.7737503052
35.4286537170 18.4950733185 19.5788307190
35.4374046326 18.4968585968 19.3811149597
35.4389877319 18.4951419830 19.1813526154
35.4380073547 18.4921722412 18.9808444977
35.4394874573 18.4904041290 18.7810230255
35.4475708008 18.4918651581 18.5830879211
35.4645919800 18.4976921082 18.3877239227
35.4904327393 18.5078334808 18.1949157715
35.5221786499 18.5208606720 18.0038375854
35.5546569824 18.5342464447 17.8130035400
35.5826873779 18.5454578400 17.6209049225
35.6038780212 18.5533256531 17.4268379211
35.6196899414 18.5585632324 17.2312126160
35.6336212158 18.5628833771 17.0350437164
35.6481895447 18.5675144196 16.8390655518
35.6632080078 18.5723667145 16.6432266235
35.6767501831 18.5764961243 16.4469585419
35.6874923706 18.5792579651 16.2498645782
35.6959533691 18.5809020996 16.0520954132
35.7037963867 18.5822448730 15.8541364670
35.7125091553 18.5840129852 15.6564359665
35.7227973938 18.5865497589 15.4592008591
35.7346649170 18.5898628235 15.2624397278
35.7478446960 18.5938148499 15.0660734177
35.7621192932 18.5983028412 14.8700399399
35.7776451111 18.6034011841 14.6743888855
35.7952232361 18.6095066071 14.4793672562
35.8164901733 18.6174125671 14.2854709625
35.8434181213 18.6280899048 14.0933103561
35.8771095276 18.6420726776 13.9032316208
35.9165611267 18.6588745117 13.7149448395
35.9586143494 18.6769466400 13.5274934769
35.9992866516 18.6943473816 13.3396644592
36.0357780457 18.7097015381 13.1505918503
36.0677642822 18.7228546143 12.9601697922
36.0969085693 18.7346172333 12.7688999176
36.1247024536 18.7457180023 12.5772380829
36.1507339478 18.7559585571 12.3850545883
36.1732215881 18.7644653320 12.1917905807
36.1910400391 18.7706909180 11.9970903397
36.2049026489 18.7749786377 11.8011627197
36.2167205811 18.7782688141 11.6045999527
36.2283515930 18.7814674377 11.4079818726
36.2409019470 18.7851123810 11.2116518021
36.2547111511 18.7893772125 11.0157232285
36.2697257996 18.7942314148 10.8201799393
36.2859573364 18.7996788025 10.6250257492
36.3037338257 18.8058834076 10.4303722382
36.3234100342 18.8130149841 10.2363309860
36.3444252014 18.8208045959 10.0427303314
36.3649139404 18.8283367157 9.8489761353
36.3827056885 18.8345489502 9.6543731689
36.3970794678 18.8390903473 9.4586830139
36.4094200134 18.8426342010 9.2623434067
36.4223747253 18.8464813232 9.0662050247
36.4386520386 18.8519515991 8.8711423874
36.4601783752 18.8599910736 8.6777877808
36.4873466492 18.8707942963 8.4862804413
36.5183334351 18.8834629059 8.2960367203
36.5494804382 18.8962097168 8.1058740616
36.5773887634 18.9073734283 7.9146833420
36.6012306213 18.9165477753 7.7221860886
36.6227989197 18.9246101379 7.5289616585
36.6439743042 18.9324798584 7.3356242180
36.6641616821 18.9398670197 7.1419773102
36.6802215576 18.9452342987 6.9469795227
36.6885070801 18.9467964172 6.7494177818
36.6871185303 18.9436244965 6.5486440659
36.6771659851 18.9362621307 6.3450069427
36.6626815796 18.9266815186 6.1398324966
36.6488571167 18.9174232483 5.9348421097
36.6396064758 18.9104022980 5.7313451767
36.6365623474 18.9064197540 5.5299005508
36.6401405334 18.9056758881 5.3306608200
36.6509742737 18.9084854126 5.1338534355
36.6700096130 18.9153079987 4.9398121834
36.6972427368 18.9261436462 4.7485551834
36.7309570313 18.9401512146 4.5595154762
36.7688598633 18.9562091827 4.3719315529
36.8100471497 18.9738750458 4.1855039597
36.8552665710 18.9935169220 4.0004949570
36.9054107666 19.0155696869 3.8172178268
36.9599037170 19.0397491455 3.6354844570
37.0156288147 19.0645351410 3.4542372227
37.0665969849 19.0869922638 3.2714192867
37.1057510376 19.1036682129 3.0845904350
37.1291236877 19.1126155853 2.8923530579
37.1393013000 19.1151065826 2.6955702305
37.1453819275 19.1155910492 2.4973671436
37.1593170166 19.1199207306 2.3018853664
37.1906585693 19.1327743530 2.1124668121
37.2421951294 19.1555137634 1.9301216602
37.3085250854 19.1854953766 1.7530038357
37.3783721924 19.2172012329 1.5771985054
37.4395179749 19.2446479797 1.3984242678
37.4834022522 19.2636413574 1.2136512995
37.5069427490 19.2726783752 1.0217593908
37.5117530823 19.2725429535 0.8232725859
37.5028076172 19.2656726837 0.6199114323
37.4875869751 19.2557296753 0.4142969847
37.4746971130 19.2469253540 0.2094728798
37.4720535278 19.2431392670 0.0082632145
36.2645111084 6.8947768211 80.5175628662
36.2566452026 6.8914489746 80.3194122314
36.2437591553 6.8874216080 80.1209259033
36.2303886414 6.8833260536 79.9223785400
36.2216911316 6.8798813820 79.7240905762
36.2211380005 6.8775701523 79.5263061523
36.2290306091 6.8764338493 79.3290405273
36.2426414490 6.8760938644 79.1321487427
36.2574119568 6.8759155273 78.9353332520
36.2685050964 6.8752250671 78.7382812500
36.2725791931 6.8735575676 78.5407562256
36.2697181702 6.8709239960 78.3427581787
36.2640342712 6.8678975105 78.1445541382
36.2616806030 6.8653340340 77.9465484619
36.2676582336 6.8639311790 77.7491073608
36.2836074829 6.8639168739 77.5523605347
36.3071632385 6.8649616241 77.3561553955
36.3328018188 6.8662967682 77.1601181030
36.3543968201 6.8670697212 76.9637985229
36.3683166504 6.8667726517 76.7669448853
36.3743629456 6.8653793335 76.5695190430
36.3738555908 6.8630723953 76.3715972900
36.3670578003 6.8598895073 76.1731948853
36.3525924683 6.8556375504 75.9741973877
36.3291015625 6.8501281738 75.7744903564
36.2973403931 6.8434653282 75.5740966797
36.2606468201 6.8361144066 75.3732757568
36.2240486145 6.8287763596 75.1724014282
36.1932144165 6.8222413063 74.9719238281
36.1733856201 6.8172388077 74.7722549438
36.1679458618 6.8142414093 74.5736846924
36.1771011353 6.8132791519 74.3762664795
36.1975021362 6.8138833046 74.1797561646
36.2231636047 6.8152222633 73.9836883545
36.2478942871 6.8164305687 73.7875518799
36.2677726746 6.8169631958 73.5910415649
36.2816352844 6.8166565895 73.3940353394
36.2894477844 6.8155069351 73.1965332031
36.2915077209 6.8135547638 72.9985351563
36.2896728516 6.8110599518 72.8001937866
36.2884826660 6.8086543083 72.6018905640
36.2938575745 6.8071641922 72.4041442871
36.3103294373 6.8072214127 72.2073516846
36.3389854431 6.8089785576 72.0116348267
36.3774337769 6.8121018410 71.8168106079
36.4215507507 6.8160157204 71.6225204468
36.4674263000 6.8201761246 71.4284286499
36.5117530823 6.8241200447 71.2342453003
36.5510749817 6.8273673058 71.0396423340
36.5821037292 6.8294572830 70.8443222046
36.6032485962 6.8301687241 70.6481170654
36.6155052185 6.8296399117 70.4511032104
36.6215896606 6.8282494545 70.2535095215
36.6243438721 6.8263945580 70.0555953979
36.6257591248 6.8243527412 69.8575515747
36.6268043518 6.8222594261 69.6594543457
36.6277618408 6.8201532364 69.4613342285
36.6285743713 6.8180270195 69.2631912231
36.6290168762 6.8158483505 69.0650024414
36.6286468506 6.8135566711 68.8667144775
36.6267738342 6.8110551834 68.6682662964
36.6223869324 6.8082022667 68.4695510864
36.6141090393 6.8048057556 68.2704315186
36.6002616882 6.8006315231 68.0707321167
36.5796089172 6.7955069542 67.8703079224
36.5528564453 6.7895298004 67.6692276001
36.5235443115 6.7831950188 67.4678344727
36.4968719482 6.7772283554 67.2666625977
36.4772300720 6.7722430229 67.0661697388
36.4669685364 6.7685666084 66.8666152954
36.4669876099 6.7663264275 66.6681137085
36.4773368835 6.7655286789 66.4706878662
36.4963836670 6.7659459114 66.2741775513
36.5200309753 6.7670059204 66.0781707764
36.5428009033 6.7679438591 65.8820877075
36.5603294373 6.7681493759 65.6854553223
36.5708351135 6.7673735619 65.4880599976
36.5746383667 6.7656617165 65.2899398804
36.5730590820 6.7631978989 65.0912170410
36.5678634644 6.7602281570 64.8920822144
36.5611839294 6.7570505142 64.6927566528
36.5553436279 6.7539906502 64.4935073853
36.5524520874 6.7513422966 64.2945632935
36.5539131165 6.7493019104 64.0960922241
36.5602035522 6.7479367256 63.8981628418
36.5712432861 6.7472352982 63.7007675171
36.5870780945 6.7472033501 63.5039253235
36.6082420349 6.7479176521 63.3077049255
36.6351737976 6.7494373322 63.1121635437
36.6666984558 6.7516002655 62.9171829224
36.6991462708 6.7538924217 62.7223358154
36.7274856567 6.7556099892 62.5270271301
36.7477455139 6.7561984062 62.3307838440
36.7584609985 6.7554516792 62.1334152222
36.7600936890 6.7534356117 61.9349555969
36.7538833618 6.7503218651 61.7355346680
36.7414932251 6.7463445663 61.5353469849
36.7254905701 6.7418608665 61.3346862793
36.7093620300 6.7373595238 61.1339759827
36.6967201233 6.7333450317 60.9336624146
36.6901550293 6.7301807404 60.7340698242
36.6902160645 6.7279429436 60.5352821350
36.6952438354 6.7263998985 60.3370971680
36.7028465271 6.7252168655 60.1392326355
36.7117385864 6.7242140770 59.9415206909
36.7215995789 6.7233471870 59.7439346313
36.7321052551 6.7225708961 59.5464286804
36.7438774109 6.7219705582 59.3490791321
36.7599754333 6.7219767570 59.1522941589
36.7843627930 6.7231426239 58.9565849304
36.8179168701 6.7255916595 58.7620887756
36.8568420410 6.7287926674 58.5683250427
36.8947639465 6.7318539619 58.3744621277
36.9253921509 6.7338943481 58.1796684265
36.9436836243 6.7342081070 57.9832649231
36.9470558167 6.7324333191 57.7848815918
36.9368515015 6.7287583351 57.5846710205
36.9182128906 6.7239017487 57.3832969666
36.8974304199 6.7187442780 57.1815948486
36.8788108826 6.7138895988 56.9801483154
36.8634452820 6.7094902992 56.7791061401
36.8498535156 6.7053389549 56.5782737732
36.8348884583 6.7009944916 56.3772201538
36.8144264221 6.6958799362 56.1753730774
36.7852630615 6.6895461082 55.9722747803
36.7484130859 6.6821355820 55.7680549622
36.7107887268 6.6746153831 55.5636634827
36.6819572449 6.6683268547 55.3604507446
36.6684188843 6.6641793251 55.1593513489
36.6710739136 6.6623005867 54.9605255127
36.6873855591 6.6623349190 54.7636375427
36.7143287659 6.6638584137 54.5682830811
36.7497100830 6.6665649414 54.3741645813
36.7928390503 6.6703572273 54.1812019348
36.8447761536 6.6753845215 53.9895553589
36.9067115784 6.6818132401 53.7994270325
36.9770278931 6.6894173622 53.6105880737
37.0505142212 6.6974663734 53.4222946167
37.1207618713 6.7050628662 53.2336006165
37.1826553345 6.7114887238 53.0437393188
37.2324485779 6.7162199020 52.8521385193
37.2670745850 6.7188248634 52.6583137512
37.2845840454 6.7190308571 52.4619445801
37.2849693298 6.7168354988 52.2629928589
37.2703819275 6.7125415802 52.0617561340
37.2452201843 6.7067646980 51.8588752747
37.2159385681 6.7004098892 51.6553153992
37.1896057129 6.6944675446 51.4521598816
37.1718101501 6.6897215843 51.2502746582
37.1657943726 6.6866273880 51.0501747131
37.1729507446 6.6853809357 50.8521080017
37.1931457520 6.6859622002 50.6560707092
37.2248420715 6.6881570816 50.4618492126
37.2662734985 6.6917181015 50.2691879272
37.3164634705 6.6965074539 50.0779495239
37.3736305237 6.7022767067 49.8878707886
37.4320068359 6.7082161903 49.6980400085
37.4815406799 6.7129154205 49.5068588257
37.5124130249 6.7149972916 49.3127250671
37.5204925537 6.7138810158 49.1149406433
37.5093193054 6.7100639343 48.9140319824
37.4878616333 6.7048029900 48.7114257813
37.4659347534 6.6994757652 48.5086975098
37.4499397278 6.6949806213 48.3069000244
37.4412727356 6.6915130615 48.1062774658
37.4378433228 6.6887807846 47.9064903259
37.4367065430 6.6863703728 47.7070693970
37.4357109070 6.6839785576 47.5076522827
37.4337692261 6.6814546585 47.3080635071
37.4304542542 6.6787371635 47.1082267761
37.4253959656 6.6757755280 46.9080810547
37.4177551270 6.6724505424 46.7074737549
37.4060745239 6.6685581207 46.5061607361
37.3890724182 6.6639184952 46.3039131165
37.3671913147 6.6585931778 46.1007919312
37.3434295654 6.6530032158 45.8973121643
37.3220939636 6.6477537155 45.6941986084
37.3064308167 6.6432995796 45.4920272827
37.2975425720 6.6397976875 45.2910003662
37.2953681946 6.6372380257 45.0911140442
37.3000717163 6.6356439590 44.8924102783
37.3121795654 6.6350898743 44.6949996948
37.3312835693 6.6355195045 44.4988250732
37.3549308777 6.6365866661 44.3034591675
37.3793716431 6.6377654076 44.1082496643
37.4016876221 6.6386461258 43.9126815796
37.4210319519 6.6391091347 43.7165946960
37.4381332397 6.6392579079 43.5201187134
37.4544677734 6.6392979622 43.3235130310
37.4723510742 6.6395564079 43.1271934509
37.4952888489 6.6405248642 42.9317970276
37.5266036987 6.6426711082 42.7379379272
37.5662193298 6.6459841728 42.5456199646
37.6087074280 6.6497015953 42.3538627625
37.6459083557 6.6526765823 42.1611785889
37.6723022461 6.6541318893 41.9665298462
37.6877708435 6.6540517807 41.7698860168
37.6958160400 6.6529283524 41.5718650818
37.7002449036 6.6512970924 41.3731689453
37.7034530640 6.6494936943 41.1742362976
37.7064590454 6.6476612091 40.9752540588
37.7096176147 6.6458501816 40.7762908936
37.7132225037 6.6441025734 40.5774040222
37.7177772522 6.6424880028 40.3786849976
37.7238121033 6.6410813332 40.1802406311
37.7314720154 6.6399035454 39.9821014404
37.7401542664 6.6388688087 39.7841491699
37.7486534119 6.6378087997 39.5861625671
37.7559394836 6.6365776062 39.3879394531
37.7621040344 6.6351890564 39.1894912720
37.7689514160 6.6338963509 38.9911689758
37.7797660828 6.6331620216 38.7936172485
37.7981681824 6.6334953308 38.5975456238
37.8259811401 6.6351523399 38.4033241272
37.8608131409 6.6377973557 38.2105026245
37.8954277039 6.6404118538 38.0176734924
37.9210052490 6.6417551041 37.8230819702
37.9327278137 6.6411490440 37.6257629395
37.9323348999 6.6388382912 37.4260330200
37.9252662659 6.6355867386 37.2249565125
37.9167518616 6.6321325302 37.0235633850
37.9115676880 6.6291460991 36.8228187561
37.9149818420 6.6273694038 36.6237831116
37.9309196472 6.6273560524 36.4272727966
37.9590187073 6.6290550232 36.2332344055
37.9951477051 6.6318850517 36.0408554077
38.0353698730 6.6352910995 35.8493423462
38.0784683228 6.6391024590 35.6584548950
38.1239967346 6.6432566643 35.4681091309
38.1687507629 6.6473026276 35.2776489258
38.2070999146 6.6504468918 35.0859069824
38.2351303101 6.6521382332 34.8920593262
38.2533988953 6.6524548531 34.6962051392
38.2654266357 6.6518931389 34.4990577698
38.2742462158 6.6508793831 34.3012351990
38.2800483704 6.6494402885 34.1027793884
38.2797088623 6.6471362114 33.9030265808
38.2680091858 6.6432318687 33.7008552551
38.2403755188 6.6370816231 33.4952812195
38.1964645386 6.6286382675 33.2861976624
38.1424980164 6.6187772751 33.0748977661
38.0899810791 6.6091194153 32.8638267517
38.0509757996 6.6013641357 32.6555709839
38.0334434509 6.5966343880 32.4518699646
38.0397300720 6.5952615738 32.2532730103
38.0677680969 6.5969533920 32.0593719482
38.1128540039 6.6010479927 31.8691940308
38.1691627502 6.6067252159 31.6815032959
38.2308006287 6.6131544113 31.4950332642
38.2923851013 6.6195764542 31.3086166382
38.3500785828 6.6254510880 31.1214103699
38.4030303955 6.6306576729 30.9332199097
38.4530754089 6.6354546547 30.7444400787
38.5019454956 6.6400876045 30.5554523468
38.5486869812 6.6444201469 30.3660392761
38.5899696350 6.6479840279 30.1754550934
38.6228523254 6.6503634453 29.9830341339
38.6472129822 6.6515417099 29.7887325287
38.6660118103 6.6519351006 29.5931968689
38.6833648682 6.6521258354 29.3973445892
38.7018203735 6.6524710655 29.2017517090
38.7208061218 6.6528916359 29.0062866211
38.7375793457 6.6530008316 28.8103294373
38.7497177124 6.6524553299 28.6133232117
38.7567253113 6.6511864662 28.4151458740
38.7598075867 6.6493639946 28.2160644531
38.7608261108 6.6472501755 28.0164966583
38.7617111206 6.6451172829 27.8168869019
38.7644233704 6.6432418823 27.6176853180
38.7708892822 6.6418962479 27.4193439484
38.7826957703 6.6413040161 27.2222385406
38.8009071350 6.6416153908 27.0266246796
38.8260993958 6.6429123878 26.8326530457
38.8582534790 6.6451921463 26.6403312683
38.8962898254 6.6483030319 26.4494190216
38.9380912781 6.6519451141 26.2594280243
38.9813194275 6.6557888985 26.0698146820
39.0239906311 6.6595549583 25.8801097870
39.0640945435 6.6629581451 25.6898365021
39.0994377136 6.6656904221 25.4984664917
39.1285934448 6.6675496101 25.3056488037
39.1516227722 6.6685438156 25.1113891602
39.1695137024 6.6688127518 24.9159088135
39.1831016541 6.6684741974 24.7194023132
39.1926155090 6.6675601006 24.5219154358
39.1980400085 6.6660685539 24.3234367371
39.1997528076 6.6640529633 24.1240501404
39.1990089417 6.6616902351 23.9240531921
39.1979827881 6.6592869759 23.7239723206
39.1994056702 6.6572299004 23.5244750977
39.2060585022 6.6559114456 23.3262481689
39.2200889587 6.6556348801 23.1298313141
39.2421493530 6.6564927101 22.9353981018
39.2704887390 6.6582384109 22.7425308228
39.3008956909 6.6602759361 22.5501976013
39.3282546997 6.6618838310 22.3571338654
39.3490333557 6.6625609398 22.1624488831
39.3625793457 6.6622171402 21.9659709930
39.3707389832 6.6611118317 21.7681484222
39.3768615723 6.6597185135 21.5698108673
39.3850936890 6.6586232185 21.3719959259
39.3995170593 6.6584029198 21.1757411957
39.4228019714 6.6594357491 20.9817333221
39.4552879333 6.6617689133 20.7900753021
39.4954071045 6.6651816368 20.6003856659
39.5405464172 6.6693038940 20.4120121002
39.5869216919 6.6736021042 20.2240009308
39.6295509338 6.6773710251 20.0350742340
39.6640625000 6.6799926758 19.8441028595
39.6891708374 6.6812844276 19.6507396698
39.7068710327 6.6815295219 19.4554843903
39.7203636169 6.6811795235 19.2591457367
39.7320594788 6.6805753708 19.0623455048
39.7430763245 6.6798753738 18.8653697968
39.7536964417 6.6791191101 18.6682910919
39.7639884949 6.6783165932 18.4711246490
39.7743186951 6.6775197983 18.2739677429
39.7855606079 6.6768517494 18.0770511627
39.7987747192 6.6764621735 17.8806514740
39.8140487671 6.6763644218 17.6847991943
39.8290824890 6.6762328148 17.4888896942
39.8393936157 6.6754331589 17.2917327881
39.8413124084 6.6734457016 17.0923423767
39.8354721069 6.6703605652 16.8908729553
39.8271751404 6.6669273376 16.6887245178
39.8235778809 6.6641592979 16.4878101349
39.8309860229 6.6629476547 16.2898311615
39.8534736633 6.6638708115 16.0959072113
39.8914871216 6.6669912338 15.9061870575
39.9403762817 6.6716518402 15.7194423676
39.9915084839 6.6766300201 15.5333547592
40.0366058350 6.6807546616 15.3456792831
40.0720977783 6.6835198402 15.1554307938
40.0998802185 6.6851944923 14.9631090164
40.1243591309 6.6864018440 14.7699060440
40.1485214233 6.6875634193 14.5766324997
40.1719741821 6.6886258125 14.3831815720
40.1921806335 6.6892280579 14.1888523102
40.2072448730 6.6891031265 13.9931144714
40.2176170349 6.6883125305 13.7960815430
40.2255859375 6.6871824265 13.5983810425
40.2338790894 6.6860980988 13.4007673264
40.2447242737 6.6853752136 13.2038621902
40.2597846985 6.6852488518 13.0081338882
40.2807273865 6.6859564781 12.8140592575
40.3099784851 6.6878409386 12.6223297119
40.3505554199 6.6913299561 12.4338111877
40.4041519165 6.6966643333 12.2490034103
40.4682388306 6.7034854889 12.0672168732
40.5351104736 6.7107019424 11.8862867355
40.5945968628 6.7168722153 11.7033319473
40.6385231018 6.7208390236 11.5160112381
40.6632995605 6.7220926285 11.3232698441
40.6694412231 6.7207050323 11.1252174377
40.6599617004 6.7171034813 10.9226818085
40.6393241882 6.7119207382 10.7169151306
40.6126213074 6.7058777809 10.5093612671
40.5850791931 6.6997146606 10.3015165329
40.5626029968 6.6942691803 10.0950860977
40.5521965027 6.6905345917 9.8921108246
40.5601730347 6.6894059181 9.6944475174
40.5893440247 6.6912817955 9.5029506683
40.6386451721 6.6960120201 9.3173513412
40.7051048279 6.7031764984 9.1368188858
40.7845115662 6.7121763229 8.9601507187
40.8697204590 6.7220010757 8.7852764130
40.9502601624 6.7311639786 8.6091232300
41.0159797668 6.7382264137 8.4286890030
41.0621681213 6.7425198555 8.2425508499
41.0908699036 6.7443332672 8.0512771606
41.1075439453 6.7444410324 7.8564548492
41.1169967651 6.7435245514 7.6594910622
41.1216316223 6.7419242859 7.4610872269
41.1218643188 6.7396998405 7.2613611221
41.1173439026 6.7368011475 7.0601968765
41.1085281372 6.7332921028 6.8577222824
41.0984649658 6.7296061516 6.6548476219
41.0932006836 6.7266011238 6.4533929825
41.0991020203 6.7251796722 6.2552895546
41.1183052063 6.7256460190 6.0612077713
41.1465148926 6.7273907661 5.8698687553
41.1756248474 6.7292628288 5.6788258553
41.1988983154 6.7303075790 5.4860281944
41.2142181396 6.7302236557 5.2908177376
41.2235755920 6.7292933464 5.0937891006
41.2306442261 6.7280378342 4.8960547447
41.2387924194 6.7269358635 4.6986484528
41.2505645752 6.7263479233 4.5023536682
41.2684440613 6.7266273499 4.3079457283
41.2959632874 6.7282752991 4.1165261269
41.3371810913 6.7318692207 3.9293754101
41.3938827515 6.7376613617 3.7470712662
41.4628524780 6.7451968193 3.5686440468
41.5368690491 6.7534494400 3.3918659687
41.6090621948 6.7614440918 3.2145991325
41.6764488220 6.7687573433 3.0359077454
41.7398605347 6.7755064964 2.8560419083
41.8016738892 6.7820291519 2.6757404804
41.8641853333 6.7886519432 2.4957261086
41.9286880493 6.7955589294 2.3164079189
41.9935379028 6.8025150299 2.1372671127
42.0525932312 6.8086495399 1.9563603401
42.0974845886 6.8127722740 1.7710171938
42.1227836609 6.8141117096 1.5794799328
42.1291503906 6.8127608299 1.3819224834
42.1222267151 6.8095216751 1.1801109314
42.1093864441 6.8054413795 0.9763810635
42.0967712402 6.8013925552 0.7726926804
42.0876884460 6.7978458405 0.5701103806
42.0830802917 6.7949347496 0.3689434826
42.0837402344 6.7927718163 0.1694566309
36.5887413025 -4.6434359550 80.5156478882
36.6018447876 -4.6480121613 80.3188018799
36.6278915405 -4.6548876762 80.1227722168
36.6625862122 -4.6633000374 79.9272994995
36.6995925903 -4.6721224785 79.7320022583
36.7341041565 -4.6805014610 79.5365829468
36.7643966675 -4.6881303787 79.3409194946
36.7899246216 -4.6949129105 79.1449661255
36.8092002869 -4.7005839348 78.9486236572
36.8201637268 -4.7047781944 78.7517395020
36.8221054077 -4.7073698044 78.5542526245
36.8164329529 -4.7086091042 78.3562393188
36.8051109314 -4.7088451385 78.1578140259
36.7888450623 -4.7082033157 77.9590225220
36.7677993774 -4.7067131996 77.7598571777
