3.8883030415 -35.2578620911 73.9430770874
3.8996353149 -35.3380165100 73.7479705811
3.9062421322 -35.3810195923 73.5505065918
3.9097774029 -35.3998756409 73.3514862061
3.9116454124 -35.4056243896 73.1516036987
3.9127812386 -35.4056167603 72.9513244629
3.9136061668 -35.4031600952 72.7508697510
3.9141879082 -35.3987922668 72.5502700806
3.9145340919 -35.3925743103 72.3495330811
3.9148285389 -35.3859443665 72.1487426758
3.9155771732 -35.3828887939 71.9481964111
3.9177684784 -35.3911781311 71.7484359741
3.9231004715 -35.4241638184 71.5504531860
3.9339866638 -35.5008354187 71.3556594849
3.9528069496 -35.6399078369 71.1655044556
3.9803328514 -35.8474578857 70.9805450439
4.0144615173 -36.1069488525 70.7996749878
4.0507040024 -36.3830833435 70.6203613281
4.0843153000 -36.6385307312 70.4398040771
4.1122770309 -36.8495597839 70.2561721802
4.1338152885 -37.0100708008 70.0689163208
4.1497569084 -37.1265602112 69.8784484863
4.1616325378 -37.2110786438 69.6856307983
4.1709098816 -37.2751579285 69.4912948608
4.1784682274 -37.3257141113 69.2959594727
4.1845417023 -37.3645935059 69.0997467041
4.1890826225 -37.3914146423 68.9026031494
4.1921458244 -37.4066123962 68.7045440674
4.1940050125 -37.4123382568 68.5057220459
4.1950654984 -37.4117851257 68.3063888550
4.1957912445 -37.4085884094 68.1068191528
4.1967415810 -37.4071617126 67.9073867798
4.1986961365 -37.4136390686 67.7086105347
4.2027225494 -37.4364166260 67.5111999512
4.2100672722 -37.4853096008 67.3160324097
4.2218437195 -37.5690765381 67.1239013672
4.2386226654 -37.6922149658 66.9352569580
4.2601556778 -37.8527717590 66.7500000000
4.2854571342 -38.0429954529 66.5675277710
4.3131237030 -38.2518424988 66.3869094849
4.3414330482 -38.4657592773 66.2069854736
4.3682527542 -38.6679611206 66.0262603760
4.3913950920 -38.8412284851 65.8431777954
4.4095244408 -38.9750518799 65.6567230225
4.4227681160 -39.0704269409 65.4669189453
4.4323778152 -39.1371994019 65.2745971680
4.4397940636 -39.1867103577 65.0807571411
4.4459028244 -39.2259292603 64.8860092163
4.4508724213 -39.2561874390 64.6904602051
4.4544634819 -39.2755889893 64.4939193726
4.4564571381 -39.2824172974 64.2961959839
4.4569506645 -39.2774391174 64.0973510742
4.4565081596 -39.2650871277 63.8977890015
4.4562478065 -39.2541694641 63.6983337402
4.4576725960 -39.2565193176 63.5001487732
4.4621195793 -39.2826614380 63.3042793274
4.4702153206 -39.3375358582 63.1112594604
4.4819188118 -39.4208221436 62.9211044312
4.4969797134 -39.5305442810 62.7336730957
4.5152120590 -39.6652488708 62.5488662720
4.5365076065 -39.8240776062 62.3666419983
4.5608472824 -40.0068893433 62.1870307922
4.5881905556 -40.2133636475 62.0100440979
4.6179585457 -40.4389419556 61.8352546692
4.6484541893 -40.6702613831 61.6613235474
4.6770377159 -40.8865356445 61.4860992432
4.7012968063 -41.0687637329 61.3075752258
4.7202801704 -41.2094497681 61.1249046326
4.7344827652 -41.3124885559 60.9384155273
4.7445096970 -41.3826408386 60.7485542297
4.7500586510 -41.4175262451 60.5550003052
4.7505826950 -41.4128341675 60.3572311401
4.7466921806 -41.3733673096 60.1556892395
4.7402954102 -41.3141479492 59.9519462585
4.7333660126 -41.2507362366 59.7476654053
4.7270498276 -41.1921501160 59.5438270569
4.7219939232 -41.1434936523 59.3410072327
4.7190418243 -41.1114044189 59.1399574280
4.7192239761 -41.1040039063 58.9416160583
4.7231321335 -41.1259574890 58.7465476990
4.7306084633 -41.1760253906 58.5546684265
4.7413163185 -41.2515602112 58.3657341003
4.7555508614 -41.3548812866 58.1800460815
4.7741136551 -41.4923171997 57.9983825684
4.7972326279 -41.6656570435 57.8210182190
4.8238143921 -41.8662948608 57.6470146179
4.8518643379 -42.0785102844 57.4745903015
4.8793387413 -42.2862014771 57.3018875122
4.9044384956 -42.4751930237 57.1272239685
4.9255661964 -42.6328887939 56.9490814209
4.9416689873 -42.7509956360 56.7664146423
4.9527516365 -42.8295402527 56.5791511536
4.9598121643 -42.8763885498 56.3881683350
4.9641952515 -42.9021377563 56.1946907043
4.9669928551 -42.9153900146 55.9997138977
4.9688658714 -42.9213562012 55.8038558960
4.9701972008 -42.9230499268 55.6074752808
4.9712948799 -42.9229087830 55.4108619690
4.9724583626 -42.9232826233 55.2143020630
4.9739117622 -42.9259376526 55.0180168152
4.9758028984 -42.9320487976 54.8221549988
4.9782924652 -42.9428749084 54.6268844604
4.9815649986 -42.9598693848 54.4323959351
4.9857931137 -42.9844055176 54.2388763428
4.9913024902 -43.0190391541 54.0466613770
4.9987998009 -43.0693473816 53.8564834595
5.0092620850 -43.1430358887 53.6693649292
5.0234131813 -43.2458114624 53.4860839844
5.0412135124 -43.3773689270 53.3066520691
5.0617890358 -43.5308113098 53.1302223206
5.0838017464 -43.6955986023 52.9554557800
5.1059160233 -43.8611907959 52.7809867859
5.1270575523 -44.0191230774 52.6056938171
5.1464500427 -44.1632728577 52.4287528992
5.1636099815 -44.2898178101 52.2496299744
5.1783370972 -44.3971900940 52.0680847168
5.1905641556 -44.4848480225 51.8840026855
5.2000670433 -44.5510253906 51.6971130371
5.2063722610 -44.5919876099 51.5068702698
5.2090063095 -44.6039962769 51.3127174377
5.2078561783 -44.5861587524 51.1144828796
5.2034392357 -44.5425491333 50.9126663208
5.1970210075 -44.4831504822 50.7086067200
5.1903181076 -44.4215087891 50.5041542053
5.1846437454 -44.3679733276 50.3007507324
5.1800580025 -44.3230209351 50.0984725952
5.1755166054 -44.2784194946 49.8961791992
5.1701097488 -44.2269859314 49.6928596497
5.1641855240 -44.1714630127 49.4888877869
5.1592483521 -44.1237258911 49.2859458923
5.1570382118 -44.0975074768 49.0860176086
5.1589169502 -44.1035385132 48.8906822205
5.1657223701 -44.1484451294 48.7009582520
5.1774034500 -44.2318229675 48.5168495178
5.1924242973 -44.3415565491 48.3366737366
5.2079329491 -44.4551429749 48.1571807861
5.2210693359 -44.5500183105 47.9750709534
5.2303299904 -44.6143112183 47.7885627747
5.2357439995 -44.6482582092 47.5976295471
5.2379860878 -44.6571731567 47.4030151367
5.2373838425 -44.6436386108 47.2050514221
5.2335042953 -44.6042442322 47.0031890869
5.2255015373 -44.5323028564 46.7963752747
5.2131690979 -44.4261894226 46.5843048096
5.1980047226 -44.2977142334 46.3687057495
5.1832695007 -44.1726264954 46.1534614563
5.1730632782 -44.0832710266 45.9435119629
5.1719493866 -44.0656814575 45.7444572449
5.1855683327 -44.1643791199 45.5632781982
5.2195281982 -44.4236450195 45.4070396423
5.2745647430 -44.8492965698 45.2769317627
5.3422307968 -45.3746757507 45.1628723145
5.4079337120 -45.8845787048 45.0470199585
5.4599556923 -46.2865066528 44.9148178101
5.4953517914 -46.5572013855 44.7624092102
5.5181574821 -46.7285118103 44.5945892334
5.5341167450 -46.8457794189 44.4183807373
5.5471701622 -46.9401092529 44.2386512756
5.5587964058 -47.0231742859 44.0572204590
5.5690040588 -47.0950431824 43.8740844727
5.5776028633 -47.1542167664 43.6889801025
5.5847625732 -47.2020225525 43.5020942688
5.5907807350 -47.2408218384 43.3137969971
5.5958957672 -47.2724876404 43.1243705750
5.6004557610 -47.2997741699 42.9342613220
5.6048779488 -47.3259735107 42.7439918518
5.6091771126 -47.3512001038 42.5535888672
5.6128306389 -47.3713302612 42.3623619080
5.6153483391 -47.3824920654 42.1696586609
5.6168632507 -47.3857307434 41.9756431580
5.6181559563 -47.3872184753 41.7813224792
5.6203970909 -47.3961944580 41.5882568359
5.6249933243 -47.4237709045 41.3983268738
5.6333527565 -47.4810791016 41.2134552002
5.6462368965 -47.5741233826 41.0347061157
5.6630597115 -47.6982879639 40.8613662720
5.6820282936 -47.8394050598 40.6910705566
5.7012286186 -47.9823646545 40.5212478638
5.7196049690 -48.1188201904 40.3504714966
5.7370166779 -48.2476615906 40.1785392761
5.7537631989 -48.3712577820 40.0058403015
5.7701582909 -48.4920806885 39.8328018188
5.7861561775 -48.6097717285 39.6593513489
5.8010988235 -48.7191314697 39.4845771790
5.8139071465 -48.8116378784 39.3069610596
5.8236870766 -48.8802146912 39.1252250671
5.8302235603 -48.9231719971 38.9390296936
5.8339447975 -48.9438781738 38.7489204407
5.8354444504 -48.9470367432 38.5556983948
5.8350100517 -48.9349098206 38.3597373962
5.8324785233 -48.9062118530 38.1607780457
5.8275566101 -48.8586158752 37.9583702087
5.8205332756 -48.7944183350 37.7528953552
5.8129677773 -48.7259254456 37.5465507507
5.8075966835 -48.6747703552 37.3432731628
5.8071069717 -48.6621932983 37.1469650269
5.8125872612 -48.6968040466 36.9592742920
5.8231558800 -48.7716293335 36.7790069580
5.8371839523 -48.8738059998 36.6038665771
5.8537268639 -48.9958648682 36.4325180054
5.8726782799 -49.1369667053 36.2648429871
5.8938550949 -49.2956695557 36.1006088257
5.9162826538 -49.4642601013 35.9384040833
5.9384670258 -49.6309471130 35.7760391235
5.9593453407 -49.7873115540 35.6119308472
5.9788637161 -49.9329338074 35.4459724426
5.9976086617 -50.0724525452 35.2790260315
6.0160207748 -50.2093391418 35.1117439270
6.0340075493 -50.3428764343 34.9439811707
6.0510835648 -50.4692192078 34.7749977112
6.0667052269 -50.5840721130 34.6039543152
6.0805039406 -50.6845130920 34.4302711487
6.0922164917 -50.7684631348 34.2535171509
6.1013975143 -50.8324012756 34.0729866028
6.1073222160 -50.8705940247 33.8875274658
6.1092448235 -50.8771362305 33.6959419250
6.1067075729 -50.8484115601 33.4974670410
6.0997123718 -50.7844314575 33.2920379639
6.0888938904 -50.6902160645 33.0805816650
6.0757622719 -50.5776977539 32.8653907776
6.0627636909 -50.4662208557 32.6502609253
6.0526661873 -50.3776893616 32.4395370483
6.0472493172 -50.3261680603 32.2360610962
6.0463218689 -50.3101539612 32.0396003723
6.0482859612 -50.3170089722 31.8476905823
6.0518493652 -50.3365173340 31.6583213806
6.0570616722 -50.3690643311 31.4715919495
6.0645895004 -50.4199333191 31.2885932922
6.0742487907 -50.4876670837 31.1090660095
6.0846881866 -50.5615730286 30.9308662415
6.0945858955 -50.6311988831 30.7518768311
6.1038160324 -50.6955451965 30.5718822479
6.1133656502 -50.7624206543 30.3924751282
6.1243538857 -50.8406829834 30.2154827118
6.1370511055 -50.9324722290 30.0413665771
6.1504697800 -51.0299720764 29.8685359955
6.1627917290 -51.1187973022 29.6940135956
6.1724038124 -51.1861877441 29.5151290894
6.1787204742 -51.2275047302 29.3308773041
6.1820874214 -51.2454833984 29.1417789459
6.1830291748 -51.2442741394 28.9486656189
6.1815600395 -51.2239799500 28.7515239716
6.1770701408 -51.1797828674 28.5492992401
6.1689171791 -51.1065979004 28.3408737183
6.1574463844 -51.0071411133 28.1267700195
6.1445264816 -50.8962211609 27.9100933075
6.1327819824 -50.7945899963 27.6952571869
6.1241159439 -50.7173194885 27.4855060577
6.1191058159 -50.6689796448 27.2818679810
6.1177697182 -50.6497192383 27.0844249725
6.1205449104 -50.6630020142 26.8939800262
6.1281695366 -50.7146682739 26.7118587494
6.1404843330 -50.8034591675 26.5378570557
6.1555957794 -50.9143981934 26.3687801361
6.1707334518 -51.0255508423 26.1998767853
6.1842122078 -51.1235733032 26.0282211304
6.1965456009 -51.2125320435 25.8546867371
6.2097377777 -51.3082962036 25.6827487946
6.2255401611 -51.4247322083 25.5154876709
6.2439947128 -51.5621719360 25.3530101776
6.2632021904 -51.7055778503 25.1920185089
6.2804760933 -51.8336830139 25.0277843475
6.2940001488 -51.9321022034 24.8570652008
6.3036150932 -51.9995765686 24.6795272827
6.3101978302 -52.0430412292 24.4966697693
6.3144869804 -52.0683441162 24.3097667694
6.3166041374 -52.0764503479 24.1190013885
6.3164753914 -52.0667724609 23.9242115021
6.3142185211 -52.0402412415 23.7255725861
6.3098583221 -51.9970512390 23.5231018066
6.3029613495 -51.9337654114 23.3159828186
6.2929420471 -51.8457489014 23.1031169891
6.2797856331 -51.7328796387 22.8844318390
6.2643918991 -51.6022834778 22.6615219116
6.2483482361 -51.4665336609 22.4372539520
6.2335238457 -51.3404312134 22.2150421143
6.2216806412 -51.2379341125 21.9981422424
6.2140817642 -51.1690597534 21.7889251709
6.2112898827 -51.1382484436 21.5884895325
6.2133898735 -51.1461906433 21.3970642090
6.2202997208 -51.1922378540 21.2145690918
6.2315120697 -51.2723693848 21.0401287079
6.2454638481 -51.3742103577 20.8708934784
6.2596054077 -51.4775581360 20.7021274567
6.2715449333 -51.5634689331 20.5293502808
6.2802143097 -51.6234664917 20.3505153656
6.2859244347 -51.6600265503 20.1661682129
6.2895441055 -51.6800231934 19.9779033661
6.2917475700 -51.6888008118 19.7869701385
6.2927865982 -51.6883468628 19.5938243866
6.2925677299 -51.6779289246 19.3982734680
6.2907590866 -51.6549110413 19.1996631622
6.2869215012 -51.6158142090 18.9971294403
6.2808089256 -51.5586853027 18.7901706696
6.2728304863 -51.4867668152 18.5795383453
6.2642288208 -51.4099044800 18.3676071167
6.2565178871 -51.3400955200 18.1572933197
6.2505044937 -51.2837409973 17.9501781464
6.2458791733 -51.2383804321 17.7456836700
6.2419004440 -51.1981430054 17.5423831940
6.2386288643 -51.1635055542 17.3404064178
6.2376027107 -51.1466636658 17.1427745819
6.2411780357 -51.1662979126 16.9541530609
6.2508859634 -51.2345428467 16.7776203156
6.2661881447 -51.3471412659 16.6122055054
6.2847404480 -51.4855079651 16.4533519745
6.3038082123 -51.6279678345 16.2956829071
6.3215456009 -51.7598876953 16.1355361938
6.3372859955 -51.8759841919 15.9715604782
6.3509931564 -51.9759635925 15.8036565781
6.3625659943 -52.0590248108 15.6315908432
6.3716912270 -52.1226882935 15.4547042847
6.3782820702 -52.1662597656 15.2727842331
6.3828682899 -52.1939353943 15.0868635178
6.3864045143 -52.2132911682 14.8988447189
6.3895292282 -52.2293815613 14.7100048065
6.3916492462 -52.2375068665 14.5191345215
6.3906145096 -52.2206153870 14.3218364716
6.3838467598 -52.1582565308 14.1127967834
6.3706274033 -52.0447311401 13.8904628754
6.3534860611 -51.9000968933 13.6599302292
6.3369598389 -51.7603340149 13.4304742813
6.3248672485 -51.6557235718 13.2099781036
6.3187770844 -51.5987129211 13.0017518997
6.3184480667 -51.5873947144 12.8053817749
6.3227777481 -51.6130256653 12.6186647415
6.3303236961 -51.6641731262 12.4386663437
6.3397397995 -51.7301483154 12.2626228333
6.3502073288 -51.8044738770 12.0888519287
6.3613314629 -51.8840103149 11.9165410995
6.3726282120 -51.9649200439 11.7446813583
6.3834137917 -52.0417785645 11.5718355179
6.3931851387 -52.1105957031 11.3969354630
6.4018573761 -52.1706962585 11.2197847366
6.4097371101 -52.2245101929 11.0410175323
6.4176006317 -52.2781982422 10.8622741699
6.4266576767 -52.3413581848 10.6861314774
6.4378709793 -52.4216308594 10.5146617889
6.4509644508 -52.5168266296 10.3473100662
6.4641528130 -52.6127777100 10.1802682877
6.4749321938 -52.6896209717 10.0081558228
6.4812107086 -52.7307510376 9.8264274597
6.4819488525 -52.7279205322 9.6327724457
6.4772310257 -52.6817893982 9.4272890091
6.4680638313 -52.6003494263 9.2120838165
6.4561185837 -52.4968528748 8.9907245636
6.4435396194 -52.3883285522 8.7678480148
6.4328117371 -52.2944831848 8.5488700867
6.4263577461 -52.2345542908 8.3391275406
6.4257102013 -52.2207069397 8.1420450211
6.4308843613 -52.2530632019 7.9577426910
6.4407143593 -52.3223838806 7.7837371826
6.4537820816 -52.4174003601 7.6169610023
6.4688777924 -52.5285186768 7.4547858238
6.4848780632 -52.6468276978 7.2947459221
6.5007052422 -52.7637672424 7.1344590187
6.5155482292 -52.8728981018 6.9721136093
6.5288982391 -52.9701881409 6.8065595627
6.5402936935 -53.0519599915 6.6367392540
6.5492534637 -53.1143989563 6.4615454674
6.5555830002 -53.1559600830 6.2805042267
6.5595788956 -53.1789932251 6.0942454338
6.5618162155 -53.1880683899 5.9040336609
6.5627846718 -53.1870689392 5.7109518051
6.5627398491 -53.1780204773 5.5155601501
6.5617713928 -53.1616363525 5.3180470467
6.5598692894 -53.1378402710 5.1183781624
6.5568404198 -53.1050949097 4.9160966873
6.5521569252 -53.0592079163 4.7099790573
6.5450868607 -52.9943618774 4.4983215332
6.5353727341 -52.9085159302 4.2804975510
6.5240812302 -52.8101425171 4.0589246750
6.5137052536 -52.7190284729 3.8393328190
6.5072097778 -52.6587257385 3.6285939217
6.5068168640 -52.6468963623 3.4319190979
6.5132627487 -52.6893806458 3.2511050701
6.5254502296 -52.7774696350 3.0837020874
6.5406498909 -52.8894882202 2.9234254360
6.5557856560 -53.0010070801 2.7631294727
6.5692334175 -53.0991249084 2.5990092754
6.5814251900 -53.1872711182 2.4320523739
6.5936794281 -53.2759132385 2.2653427124
6.6066012383 -53.3698654175 2.1003069878
6.6195092201 -53.4637107849 1.9353469610
6.6310410500 -53.5466308594 1.7672363520
6.6401405334 -53.6102294922 1.5934497118
6.6466040611 -53.6528892517 1.4134657383
6.6507964134 -53.6775054932 1.2281149626
6.6528444290 -53.6850852966 1.0376667976
6.6522188187 -53.6714172363 0.8408218622
6.6483368874 -53.6318778992 0.6361457109
6.6416387558 -53.5699539185 0.4246461093
6.6338076591 -53.4990272522 0.2103335261
-38.1161155701 -6.5445313454 93.6120834351
-38.1320114136 -6.5467610359 93.4160842896
-38.1587066650 -6.5504856110 93.2203292847
-38.1953315735 -6.5555849075 93.0248031616
-38.2396049500 -6.5617427826 92.8294830322
-38.2884254456 -6.5685300827 92.6343078613
-38.3386917114 -6.5755176544 92.4392166138
-38.3873481750 -6.5822825432 92.2441482544
-38.4313545227 -6.5884032249 92.0490188599
-38.4684829712 -6.5935721397 91.8537673950
-38.4978752136 -6.5976705551 91.6583480835
-38.5194320679 -6.6006836891 91.4627609253
-38.5329055786 -6.6025776863 91.2669677734
-38.5378990173 -6.6032977104 91.0709533691
-38.5345344543 -6.6028614044 90.8747024536
-38.5239410400 -6.6014237404 90.6782302856
-38.5082206726 -6.5992765427 90.4815902710
-38.4901847839 -6.5968089104 90.2848510742
-38.4729995728 -6.5944585800 90.0881042480
-38.4598045349 -6.5926609039 89.8914489746
-38.4534378052 -6.5918083191 89.6949920654
-38.4564056396 -6.5922489166 89.4988174438
-38.4712867737 -6.5943374634 89.3030395508
-38.5012283325 -6.5985116959 89.1077728271
-38.5498390198 -6.6052699089 88.9131774902
-38.6190452576 -6.6148796082 88.7193527222
-38.7053718567 -6.6268587112 88.5262222290
-38.7983703613 -6.6397619247 88.3334274292
-38.8849678040 -6.6517782211 88.1405105591
-38.9568901062 -6.6617636681 87.9471359253
-39.0142135620 -6.6697278023 87.7532958984
-39.0626945496 -6.6764683723 87.5591735840
-39.1093215942 -6.6829519272 87.3650283813
-39.1602058411 -6.6900248528 87.1711044312
-39.2207527161 -6.6984357834 86.9776306152
-39.2952804565 -6.7087812424 86.7847976685
-39.3835678101 -6.7210316658 86.5926284790
-39.4750595093 -6.7337265015 86.4006958008
-39.5473899841 -6.7437677383 86.2080459595
-39.5770454407 -6.7479019165 86.0136108398
-39.5578689575 -6.7452759743 85.8170318604
-39.5093460083 -6.7385883331 85.6191024780
-39.4636230469 -6.7322878838 85.4212341309
-39.4437637329 -6.7295675278 85.2244949341
-39.4549484253 -6.7311449051 85.0291748047
-39.4930839539 -6.7364525795 84.8351440430
-39.5559272766 -6.7451810837 84.6423416138
-39.6434402466 -6.7573246956 84.4508132935
-39.7502288818 -6.7721362114 84.2603454590
-39.8629875183 -6.7877740860 84.0702972412
-39.9683647156 -6.8023910522 83.8800125122
-40.0626754761 -6.8154745102 83.6892776489
-40.1525764465 -6.8279485703 83.4984283447
-40.2468490601 -6.8410277367 83.3079147339
-40.3481674194 -6.8550820351 83.1178817749
-40.4515724182 -6.8694252968 82.9280853271
-40.5484733582 -6.8828682899 82.7380523682
-40.6315078735 -6.8943910599 82.5473709106
-40.6975326538 -6.9035601616 82.3558349609
-40.7479820251 -6.9105720520 82.1634979248
-40.7867088318 -6.9159622192 81.9705505371
-40.8170661926 -6.9201931953 81.7771530151
-40.8403396606 -6.9234437943 81.5833816528
-40.8562316895 -6.9256725311 81.3891906738
-40.8641510010 -6.9267973900 81.1945343018
-40.8639869690 -6.9268035889 80.9993972778
-40.8558692932 -6.9257087708 80.8037719727
-40.8398170471 -6.9235157967 80.6076354980
-40.8165969849 -6.9203300476 80.4110260010
-40.7895889282 -6.9166207314 80.2141418457
-40.7657508850 -6.9133496284 80.0174179077
-40.7546806335 -6.9118461609 79.8214721680
-40.7665214539 -6.9135141373 79.6269760132
-40.8088874817 -6.9194073677 79.4344863892
-40.8840484619 -6.9298405647 79.2441940308
-40.9888114929 -6.9443717003 79.0559539795
-41.1159019470 -6.9619932175 78.8693313599
-41.2534179688 -6.9810576439 78.6835708618
-41.3850135803 -6.9993028641 78.4975738525
-41.4953689575 -7.0146083832 78.3102645874
-41.5769729614 -7.0259332657 78.1210861206
-41.6310005188 -7.0334410667 77.9300613403
-41.6633605957 -7.0379490852 77.7375717163
-41.6825141907 -7.0406289101 77.5441589355
-41.7008514404 -7.0431962013 77.3507080078
-41.7345771790 -7.0478940010 77.1583938599
-41.7976379395 -7.0566520691 76.9682617188
-41.8916473389 -7.0696940422 76.7804946899
-42.0003929138 -7.0847759247 76.5939331055
-42.0961532593 -7.0980606079 76.4065246582
-42.1534805298 -7.1060247421 76.2163162231
-42.1588172913 -7.1067919731 76.0221862793
-42.1128158569 -7.1004533768 75.8240966797
-42.0307350159 -7.0891199112 75.6231384277
-41.9405899048 -7.0766706467 75.4214248657
-41.8732109070 -7.0673723221 75.2213973999
-41.8484573364 -7.0639748573 75.0246734619
-41.8703918457 -7.0670394897 74.8316574097
-41.9337615967 -7.0758399963 74.6420135498
-42.0308494568 -7.0893087387 74.4551849365
-42.1523208618 -7.1061515808 74.2704849243
-42.2869720459 -7.1248197556 74.0870132446
-42.4242897034 -7.1438565254 73.9039306641
-42.5563201904 -7.1621618271 73.7205657959
-42.6774177551 -7.1789531708 73.5364303589
-42.7849617004 -7.1938686371 73.3512878418
-42.8803863525 -7.2071070671 73.1652297974
-42.9666175842 -7.2190713882 72.9784851074
-43.0435104370 -7.2297444344 72.7910232544
-43.1074905396 -7.2386293411 72.6025161743
-43.1557426453 -7.2453374863 72.4126968384
-43.1890335083 -7.2499742508 72.2215881348
-43.2100296021 -7.2529091835 72.0294113159
-43.2198295593 -7.2542948723 71.8362426758
-43.2164459229 -7.2538552284 71.6418762207
-43.1963691711 -7.2511043549 71.4459686279
-43.1582946777 -7.2458629608 71.2483673096
-43.1064376831 -7.2387132645 71.0494308472
-43.0503578186 -7.2309794426 70.8500213623
-43.0008583069 -7.2241559029 70.6511535645
-42.9647903442 -7.2191920280 70.4534835815
-42.9428825378 -7.2161879539 70.2571182251
-42.9324111938 -7.2147679329 70.0618133545
-42.9325828552 -7.2148203850 69.8675079346
-42.9477691650 -7.2169513702 69.6746673584
-42.9858131409 -7.2222456932 69.4840698242
-43.0533218384 -7.2316193581 69.2964172363
-43.1516304016 -7.2452564240 69.1119003296
-43.2753906250 -7.2624158859 68.9300384521
-43.4143791199 -7.2816839218 68.7498626709
-43.5571479797 -7.3014745712 68.5702285767
-43.6937332153 -7.3204097748 68.3901367188
-43.8161582947 -7.3373851776 68.2087631226
-43.9182357788 -7.3515434265 68.0254364014
-43.9965133667 -7.3624076843 67.8397598267
-44.0516166687 -7.3700637817 67.6517639160
-44.0878219604 -7.3751039505 67.4618453979
-44.1107788086 -7.3783102036 67.2705612183
-44.1252174377 -7.3803372383 67.0783996582
-44.1339225769 -7.3815712929 66.8856277466
-44.1379547119 -7.3821573257 66.6923599243
-44.1372718811 -7.3820919991 66.4985809326
-44.1313667297 -7.3813028336 66.3042221069
-44.1194038391 -7.3796758652 66.1091918945
-44.0997772217 -7.3769879341 65.9132919312
-44.0696487427 -7.3728461266 65.7161941528
-44.0261955261 -7.3668594360 65.5175704956
-43.9702987671 -7.3591513634 65.3174896240
-43.9095306396 -7.3507680893 65.1167831421
-43.8562850952 -7.3434267044 64.9168395996
-43.8224143982 -7.3387670517 64.7190322876
-43.8160171509 -7.3379101753 64.5243072510
-43.8423767090 -7.3415875435 64.3333358765
-43.9047584534 -7.3502511978 64.1465606689
-44.0020217896 -7.3637433052 63.9639053345
-44.1258049011 -7.3809056282 63.7844657898
-44.2624435425 -7.3998479843 63.6066856384
-44.3993225098 -7.4188232422 63.4291000366
-44.5296401978 -7.4368901253 63.2509002686
-44.6517295837 -7.4538187981 63.0718727112
-44.7657661438 -7.4696321487 62.8920211792
-44.8715820313 -7.4843077660 62.7113189697
-44.9674263000 -7.4976029396 62.5295295715
-45.0491142273 -7.5089383125 62.3461227417
-45.1113510132 -7.5175819397 62.1604309082
-45.1509819031 -7.5230965614 61.9720230103
-45.1683654785 -7.5255308151 61.7808990479
-45.1655502319 -7.5251698494 61.5872726440
-45.1446838379 -7.5223097801 61.3913764954
-45.1092071533 -7.5174279213 61.1936111450
-45.0654487610 -7.5113997459 60.9947433472
-45.0208435059 -7.5052542686 60.7957038879
-44.9795761108 -7.4995703697 60.5970268250
-44.9398765564 -7.4941039085 60.3984909058
-44.8944206238 -7.4878406525 60.1991500854
-44.8324050903 -7.4792852402 59.9976005554
-44.7439231873 -7.4670662880 59.7925186157
-44.6275825500 -7.4509911537 59.5836715698
-44.4970130920 -7.4329471588 59.3727989197
-44.3784599304 -7.4165658951 59.1633415222
-44.2985267639 -7.4055304527 58.9588470459
-44.2710151672 -7.4017510414 58.7612380981
-44.2924613953 -7.4047479630 58.5701408386
-44.3480606079 -7.4124732018 58.3836631775
-44.4209480286 -7.4225902557 58.1995849609
-44.4976196289 -7.4332313538 58.0161056519
-44.5695686340 -7.4432196617 57.8320693970
-44.6338729858 -7.4521484375 57.6470680237
-44.6919479370 -7.4602155685 57.4612808228
-44.7457618713 -7.4676933289 57.2749671936
-44.7944602966 -7.4744625092 57.0880050659
-44.8345832825 -7.4800448418 56.8998947144
-44.8621330261 -7.4838871956 56.7100639343
-44.8731689453 -7.4854426384 56.5179328918
-44.8635673523 -7.4841427803 56.3228836060
-44.8307456970 -7.4796280861 56.1245155334
-44.7759780884 -7.4720759392 55.9229583740
-44.7041168213 -7.4621582031 55.7188720703
-44.6215705872 -7.4507608414 55.5131454468
-44.5352668762 -7.4388442039 55.3067626953
-44.4514579773 -7.4272718430 55.1006240845
-44.3731994629 -7.4164686203 54.8951835632
-44.3004531860 -7.4064283371 54.6904411316
-44.2349205017 -7.3973860741 54.4866638184
-44.1845664978 -7.3904452324 54.2850379944
-44.1613006592 -7.3872532845 54.0873641968
-44.1729240417 -7.3888912201 53.8948554993
-44.2168388367 -7.3949985504 53.7071952820
-44.2812385559 -7.4039406776 53.5226593018
-44.3531379700 -7.4139213562 53.3393325806
-44.4266204834 -7.4241209030 53.1563262939
-44.5037536621 -7.4348263741 52.9739646912
-44.5869445801 -7.4463701248 52.7926177979
-44.6701240540 -7.4579119682 52.6113624573
-44.7377166748 -7.4672966003 52.4278030396
-44.7723503113 -7.4721188545 52.2392158508
-44.7644119263 -7.4710483551 52.0440444946
-44.7168464661 -7.4644937515 51.8426628113
-44.6427230835 -7.4542622566 51.6370506287
-44.5568008423 -7.4423980713 51.4294776917
-44.4675788879 -7.4300775528 51.2212677002
-44.3768730164 -7.4175515175 51.0126991272
-44.2851257324 -7.4048810005 50.8038444519
-44.1940345764 -7.3923015594 50.5949668884
-44.1052360535 -7.3800392151 50.3863334656
-44.0209770203 -7.3684053421 50.1783103943
-43.9474029541 -7.3582506180 49.9719009399
-43.8944702148 -7.3509526253 49.7687454224
-43.8715171814 -7.3478045464 49.5704040527
-43.8837699890 -7.3495292664 49.3777923584
-43.9310035706 -7.3560957909 49.1909370422
-44.0057182312 -7.3664660454 49.0086669922
-44.0932235718 -7.3786067963 48.8286018372
-44.1783409119 -7.3904166222 48.6482467651
-44.2540473938 -7.4009237289 48.4664154053
-44.3218955994 -7.4103441238 48.2833557129
-44.3844490051 -7.4190306664 48.0994834900
-44.4395980835 -7.4266929626 47.9144325256
-44.4818801880 -7.4325742722 47.7272644043
-44.5066146851 -7.4360260963 47.5371513367
-44.5120582581 -7.4368085861 47.3437728882
-44.4992103577 -7.4350590706 47.1472549438
-44.4708137512 -7.4311571121 46.9480361938
-44.4298667908 -7.4255185127 46.7466125488
-44.3776283264 -7.4183168411 46.5431671143
-44.3129005432 -7.4093866348 46.3374748230
-44.2345848083 -7.3985753059 46.1293220520
-44.1457595825 -7.3863096237 45.9192161560
-44.0549201965 -7.3737654686 45.7086410522
-43.9724197388 -7.3623747826 45.4994087219
-43.9052162170 -7.3531022072 45.2927742004
-43.8550834656 -7.3461918831 45.0890769958
-43.8213005066 -7.3415451050 44.8882255554
-43.8041038513 -7.3391938210 44.6902923584
-43.8049011230 -7.3393325806 44.4955635071
-43.8236045837 -7.3419504166 44.3040504456
-43.8567047119 -7.3465604782 44.1151580811
-43.8981781006 -7.3523297310 43.9278182983
-43.9418678284 -7.3584060669 43.7409286499
-43.9830818176 -7.3641386032 43.5536308289
-44.0188751221 -7.3691215515 43.3653831482
-44.0478134155 -7.3731565475 43.1759147644
-44.0695991516 -7.3762001991 42.9851493835
-44.0846176147 -7.3783078194 42.7931480408
-44.0934219360 -7.3795552254 42.6000022888
-44.0960845947 -7.3799524307 42.4057159424
-44.0917320251 -7.3793787956 42.2101097107
-44.0783996582 -7.3775620461 42.0128021240
-44.0530166626 -7.3740777969 41.8131942749
-44.0115470886 -7.3683667183 41.6105079651
-43.9498825073 -7.3598608971 41.4039230347
-43.8657875061 -7.3482499123 41.1929817200
-43.7603530884 -7.3336858749 40.9778518677
-43.6384735107 -7.3168454170 40.7594223022
-43.5102691650 -7.2991299629 40.5396156311
-43.3925743103 -7.2828688622 40.3216629028
-43.3055305481 -7.2708501816 40.1094894409
-43.2643432617 -7.2651782036 39.9061012268
-43.2737884521 -7.2665143013 39.7125205994
-43.3292350769 -7.2742176056 39.5279350281
-43.4202766418 -7.2868471146 39.3503913879
-43.5336227417 -7.3025646210 39.1773452759
-43.6551933289 -7.3194193840 39.0060577393
-43.7716789246 -7.3355708122 38.8339118958
-43.8721084595 -7.3495001793 38.6587142944
-43.9500007629 -7.3603096008 38.4791412354
-44.0049591064 -7.3679451942 38.2950782776
-44.0411491394 -7.3729829788 38.1073074341
-44.0629310608 -7.3760266304 37.9166755676
-44.0709571838 -7.3771662712 37.7232856750
-44.0614128113 -7.3758740425 37.5263404846
-44.0288581848 -7.3713974953 37.3247032166
-43.9708480835 -7.3633966446 37.1178245544
-43.8907814026 -7.3523440361 36.9063568115
-43.7969398499 -7.3393845558 36.6919555664
-43.6996574402 -7.3259491920 36.4767189026
-43.6094474792 -7.3134922981 36.2628097534
-43.5351753235 -7.3032412529 36.0520706177
-43.4814186096 -7.2958297729 35.8454933167
-43.4475402832 -7.2911701202 35.6429748535
-43.4298439026 -7.2887496948 35.4437866211
-43.4242515564 -7.2880043983 35.2471008301
-43.4269638062 -7.2884087563 35.0521430969
-43.4334487915 -7.2893352509 34.8579788208
-43.4379425049 -7.2899861336 34.6633911133
-43.4353713989 -7.2896590233 34.4673004150
-43.4253540039 -7.2883014679 34.2696189880
-43.4142646790 -7.2867956161 34.0716857910
-43.4113655090 -7.2864232063 33.8754806519
-43.4214286804 -7.2878451347 33.6820449829
-43.4411239624 -7.2905998230 33.4906883240
-43.4623069763 -7.2935605049 33.2996673584
-43.4776344299 -7.2957110405 33.1073989868
-43.4831542969 -7.2965040207 32.9130134583
-43.4773635864 -7.2957315445 32.7161598206
-43.4598884583 -7.2933411598 32.5167388916
-43.4316978455 -7.2894687653 32.3149414063
-43.3958244324 -7.2845325470 32.1114120483
-43.3563499451 -7.2790985107 31.9070339203
-43.3157997131 -7.2735147476 31.7023601532
-43.2731895447 -7.2676463127 31.4971694946
-43.2246551514 -7.2609577179 31.2905998230
-43.1668052673 -7.2529802322 31.0818824768
-43.1011009216 -7.2439150810 30.8713283539
-43.0356636047 -7.2348875999 30.6607418060
-42.9816398621 -7.2274394035 30.4526309967
-42.9468040466 -7.2226471901 30.2487640381
-42.9327545166 -7.2207317352 30.0495452881
-42.9377403259 -7.2214508057 29.8546142578
-42.9605903625 -7.2246417999 29.6637401581
-43.0008239746 -7.2302393913 29.4768505096
-43.0549087524 -7.2377543449 29.2931709290
-43.1132965088 -7.2458639145 29.1105346680
-43.1624336243 -7.2526936531 28.9258403778
-43.1905059814 -7.2566084862 28.7363452911
-43.1919021606 -7.2568302155 28.5407104492
-43.1679687500 -7.2535467148 28.3391971588
-43.1246681213 -7.2475829124 28.1331462860
-43.0681877136 -7.2397947311 27.9239578247
-43.0014915466 -7.2305932045 27.7123031616
-42.9251823425 -7.2200608253 27.4983024597
-42.8407897949 -7.2084097862 27.2822952271
-42.7512664795 -7.1960482597 27.0649642944
-42.6587448120 -7.1832718849 26.8468017578
-42.5645294189 -7.1702613831 26.6281108856
-42.4719314575 -7.1574749947 26.4096775055
-42.3882751465 -7.1459259987 26.1932449341
-42.3246765137 -7.1371526718 25.9814872742
-42.2939376831 -7.1329274178 25.7775077820
-42.3051338196 -7.1345062256 25.5835456848
-42.3565444946 -7.1416501999 25.3992691040
-42.4338645935 -7.1523809433 25.2213039398
-42.5169830322 -7.1639137268 25.0448284149
-42.5899810791 -7.1740455627 24.8659973145
-42.6469650269 -7.1819615364 24.6833553314
-42.6909141541 -7.1880726814 24.4975986481
-42.7284889221 -7.1933021545 24.3103294373
-42.7657890320 -7.1984939575 24.1230335236
-42.8069343567 -7.2042174339 23.9367198944
-42.8534545898 -7.2106847763 23.7517757416
-42.9026374817 -7.2175211906 23.5675411224
-42.9466629028 -7.2236433029 23.3820838928
-42.9752807617 -7.2276325226 23.1928443909
-42.9808082581 -7.2284264565 22.9978866577
-42.9611549377 -7.2257356644 22.7966403961
-42.9190025330 -7.2199306488 22.5897293091
-42.8590507507 -7.2116627693 22.3782920837
-42.7857627869 -7.2015485764 22.1634140015
-42.7027359009 -7.1900868416 21.9459781647
-42.6139945984 -7.1778340340 21.7269840240
-42.5253105164 -7.1655888557 21.5078811646
-42.4428977966 -7.1542124748 21.2902507782
-42.3703994751 -7.1442079544 21.0750312805
-42.3081855774 -7.1356263161 20.8623371124
-42.2560119629 -7.1284346581 20.6521244049
-42.2156066895 -7.1228718758 20.4448585510
-42.1905708313 -7.1194362640 20.2414855957
-42.1836280823 -7.1185045242 20.0427398682
-42.1933364868 -7.1198773384 19.8482799530
-42.2134437561 -7.1226892471 19.6565208435
-42.2361145020 -7.1258559227 19.4654426575
-42.2558212280 -7.1286120415 19.2736148834
-42.2702484131 -7.1306385994 19.0804233551
-42.2786445618 -7.1318292618 18.8856639862
-42.2797775269 -7.1320152283 18.6890010834
-42.2708320618 -7.1308064461 18.4896793365
-42.2474288940 -7.1275963783 18.2865276337
-42.2051887512 -7.1217799187 18.0783576965
-42.1422882080 -7.1131033897 17.8646507263
-42.0610771179 -7.1018934250 17.6459922791
-41.9671516418 -7.0889229774 17.4238357544
-41.8666458130 -7.0750427246 17.1997966766
-41.7645912170 -7.0609474182 16.9752044678
-41.6650772095 -7.0472044945 16.7511577606
-41.5710678101 -7.0342230797 16.5284519196
-41.4837379456 -7.0221657753 16.3074169159
-41.4043159485 -7.0112032890 16.0883979797
-41.3375091553 -7.0019865036 15.8726825714
-41.2912101746 -6.9956083298 15.6624383926
-41.2720413208 -6.9929847717 15.4595050812
-41.2819023132 -6.9943785667 15.2644510269
-41.3177719116 -6.9993720055 15.0765085220
-41.3721237183 -7.0069236755 14.8936643600
-41.4332275391 -7.0154089928 14.7127342224
-41.4877357483 -7.0229825974 14.5300607681
-41.5250053406 -7.0281696320 14.3426923752
-41.5392341614 -7.0301675797 14.1489925385
-41.5287055969 -7.0287404060 13.9484453201
-41.4952392578 -7.0241374969 13.7415037155
-41.4446907043 -7.0171709061 13.5297565460
-41.3857994080 -7.0090498924 13.3156080246
-41.3259353638 -7.0007944107 13.1011047363
-41.2672958374 -6.9927082062 12.8868579865
-41.2079162598 -6.9845194817 12.6723203659
-41.1469802856 -6.9761157036 12.4572610855
-41.0887374878 -6.9680843353 12.2428741455
-41.0405921936 -6.9614505768 12.0312595367
-41.0077667236 -6.9569368362 11.8239173889
-40.9906501770 -6.9545974731 11.6209888458
-40.9868507385 -6.9541006088 11.4218196869
-40.9942970276 -6.9551606178 11.2258472443
-41.0118217468 -6.9576153755 11.0327587128
-41.0372123718 -6.9611582756 10.8419389725
-41.0654296875 -6.9650926590 10.6519536972
-41.0893898010 -6.9684381485 10.4607725143
-41.1029281616 -6.9703407288 10.2666034698
-41.1036987305 -6.9704766273 10.0687513351
-41.0949287415 -6.9692926407 9.8681259155
-41.0857925415 -6.9680576324 9.6673746109
-41.0897293091 -6.9686317444 9.4704084396
-41.1201477051 -6.9728703499 9.2811651230
-41.1854591370 -6.9819388390 9.1021556854
-41.2872505188 -6.9960551262 8.9339122772
-41.4226341248 -7.0148205757 8.7756557465
-41.5868721008 -7.0375795364 8.6260566711
-41.7728500366 -7.0633468628 8.4830722809
-41.9701385498 -7.0906791687 8.3436613083
-42.1672973633 -7.1179938316 8.2044553757
-42.3553237915 -7.1440448761 8.0627813339
-42.5290946960 -7.1681227684 7.9170985222
-42.6873855591 -7.1900577545 7.7670125961
-42.8318939209 -7.2100863457 7.6130037308
-42.9641075134 -7.2284131050 7.4554886818
-43.0817108154 -7.2447171211 7.2937488556
-43.1788978577 -7.2581963539 7.1260118484
-43.2508659363 -7.2681851387 6.9507894516
-43.2978477478 -7.2747163773 6.7681050301
-43.3250274658 -7.2785067558 6.5794787407
-43.3393325806 -7.2805161476 6.3869738579
-43.3464012146 -7.2815232277 6.1922783852
-43.3492889404 -7.2819519043 5.9963111877
-43.3484954834 -7.2818713188 5.7992148399
-43.3421478271 -7.2810215950 5.6004095078
-43.3261718750 -7.2788400650 5.3986372948
-43.2952995300 -7.2745966911 5.1922597885
-43.2456550598 -7.2677555084 4.9800572395
-43.1783142090 -7.2584648132 4.7623233795
-43.1012344360 -7.2478270531 4.5414857864
-43.0274772644 -7.2376489639 4.3215699196
-42.9701080322 -7.2297387123 4.1066360474
-42.9374542236 -7.2252488136 3.8993062973
-42.9326019287 -7.2246065140 3.7005898952
-42.9564819336 -7.2279405594 3.5108306408
-43.0098953247 -7.2353615761 3.3303346634
-43.0916862488 -7.2467098236 3.1587958336
-43.1955299377 -7.2611098289 2.9942815304
-43.3095054626 -7.2769122124 2.8330824375
-43.4193077087 -7.2921366692 2.6707031727
-43.5126533508 -7.3050842285 2.5032548904
-43.5827369690 -7.3148121834 2.3285484314
-43.6293945313 -7.3212985992 2.1464886665
-43.6576271057 -7.3252348900 1.9586200714
-43.6742782593 -7.3275675774 1.7670872211
-43.6848793030 -7.3290638924 1.5736366510
-43.6922340393 -7.3301110268 1.3791520596
-43.6967239380 -7.3307614326 1.1837496758
-43.6973037720 -7.3308706284 0.9870882034
-43.6920547485 -7.3301734924 0.7885430455
-43.6782951355 -7.3282985687 0.5872372985
-43.6532249451 -7.3248577118 0.3822498024
-43.6157417297 -7.3197002411 0.1732036471
-17.4255065918 -42.2438316345 92.0399093628
-17.4296207428 -42.2572288513 91.8466720581
-17.4397850037 -42.2859535217 91.6536331177
-17.4542560577 -42.3255920410 91.4607620239
-17.4705276489 -42.3697929382 91.2679977417
-17.4862117767 -42.4125061035 91.0752563477
-17.5001525879 -42.4507980347 90.8824920654
-17.5129222870 -42.4861259460 90.6897201538
-17.5260124207 -42.5222625732 90.4969940186
-17.5399742126 -42.5606079102 90.3043518066
-17.5531444550 -42.5969467163 90.1117019653
-17.5623016357 -42.6231155396 89.9189147949
-17.5643997192 -42.6313972473 89.7258071899
-17.5572929382 -42.6163558960 89.5322494507
-17.5395088196 -42.5742530823 89.3381195068
-17.5108928680 -42.5047111511 89.1433639526
-17.4742469788 -42.4148216248 88.9480667114
-17.4353733063 -42.3192863464 88.7525253296
-17.4001865387 -42.2330970764 88.5570602417
-17.3712100983 -42.1626472473 88.3618392944
-17.3464736938 -42.1029434204 88.1667785645
-17.3213024139 -42.0421333313 87.9716033936
-17.2919750214 -41.9707984924 87.7760772705
-17.2596664429 -41.8919105530 87.5802536011
-17.2313747406 -41.8232040405 87.3845901489
-17.2153720856 -41.7856330872 87.1896743774
-17.2148952484 -41.7873992920 86.9957885742
-17.2272014618 -41.8215560913 86.8028182983
-17.2484855652 -41.8784561157 86.6105422974
-17.2777805328 -41.9556465149 86.4189300537
-17.3153076172 -42.0536956787 86.2280349731
-17.3584461212 -42.1659622192 86.0377044678
-17.4010982513 -42.2769889832 85.8474655151
-17.4375381470 -42.3722801208 85.6568527222
-17.4665336609 -42.4487075806 85.4657287598
-17.4914169312 -42.5147171021 85.2743453979
-17.5159492493 -42.5798339844 85.0830078125
-17.5394611359 -42.6423683167 84.8916473389
-17.5558452606 -42.6868400574 84.6997222900
-17.5581436157 -42.6956291199 84.5065612793
-17.5446395874 -42.6643867493 84.3119277954
-17.5200271606 -42.6050071716 84.1161880493
-17.4909152985 -42.5342254639 83.9199371338
-17.4609069824 -42.4611816406 83.7234878540
-17.4291839600 -42.3837928772 83.5267715454
-17.3922882080 -42.2933006287 83.3294219971
-17.3472480774 -42.1821784973 83.1311111450
-17.2941741943 -42.0507087708 82.9318084717
-17.2374591827 -41.9100227356 82.7319412231
-17.1858234406 -41.7821998596 82.5324249268
-17.1503944397 -41.6954345703 82.3345108032
-17.1389122009 -41.6693305969 82.1391296387
-17.1493148804 -41.6986579895 81.9461746216
-17.1705417633 -41.7554054260 81.7544784546
-17.1912555695 -41.8108482361 81.5627822876
-17.2080020905 -41.8562431335 81.3706893921
-17.2259292603 -41.9046287537 81.1787796021
-17.2527198792 -41.9754638672 80.9879913330
-17.2913875580 -42.0763816833 80.7987365723
-17.3378067017 -42.1969223022 80.6105651855
-17.3839759827 -42.3168373108 80.4225082397
-17.4228286743 -42.4182128906 80.2336578369
-17.4506950378 -42.4917640686 80.0435180664
-17.4672679901 -42.5367126465 79.8519897461
-17.4743537903 -42.5576286316 79.6592559814
-17.4743366241 -42.5605545044 79.4655914307
-17.4690475464 -42.5501365662 79.2712097168
-17.4592037201 -42.5281753540 79.0761718750
-17.4439582825 -42.4925384521 78.8803558350
-17.4207744598 -42.4367980957 78.6833724976
-17.3869876862 -42.3542022705 78.4848022461
-17.3438835144 -42.2480163574 78.2847824097
-17.3004493713 -42.1409988403 78.0845642090
-17.2714633942 -42.0705718994 77.8863220215
-17.2687721252 -42.0667304993 77.6918716431
-17.2926368713 -42.1301422119 77.5013961792
-17.3315582275 -42.2316856384 77.3132629395
-17.3709011078 -42.3342895508 77.1253204346
-17.4020385742 -42.4161186218 76.9362335205
-17.4248580933 -42.4768753052 76.7459335327
-17.4441108704 -42.5286064148 76.5551452637
-17.4645595551 -42.5833587646 76.3646011353
-17.4880084991 -42.6457099915 76.1746063232
-17.5130138397 -42.7120056152 75.9849243164
-17.5369243622 -42.7755203247 75.7951431274
-17.5584793091 -42.8330726624 75.6050491333
-17.5783691406 -42.8864097595 75.4147338867
-17.5972442627 -42.9371719360 75.2243041992
-17.6137485504 -42.9819374084 75.0335235596
-17.6248321533 -43.0129737854 74.8418579102
-17.6274986267 -43.0226898193 74.6487503052
-17.6196880341 -43.0058860779 74.4538116455
-17.6001453400 -42.9593734741 74.2567520142
-17.5690078735 -42.8835067749 74.0575485229
-17.5292778015 -42.7858848572 73.8566818237
-17.4869384766 -42.6816596985 73.6552047729
-17.4487781525 -42.5880165100 73.4543533325
-17.4199657440 -42.5180435181 73.2551116943
-17.4036235809 -42.4796447754 73.0580978394
-17.4019870758 -42.4784774780 72.8638076782
-17.4171810150 -42.5199203491 72.6727142334
-17.4503974915 -42.6069946289 72.4851226807
-17.5004119873 -42.7365951538 72.3008880615
-17.5630321503 -42.8981056213 72.1192779541
-17.6315765381 -43.0746116638 71.9390335083
-17.6977062225 -43.2449989319 71.7585220337
-17.7531375885 -43.3883018494 71.5760803223
-17.7923831940 -43.4906234741 71.3905410767
-17.8146457672 -43.5499534607 71.2016754150
-17.8232822418 -43.5747795105 71.0100708008
-17.8234272003 -43.5781173706 70.8167343140
-17.8195075989 -43.5711593628 70.6225433350
-17.8137187958 -43.5594749451 70.4279479980
-17.8060264587 -43.5429687500 70.2329177856
-17.7954559326 -43.5191764832 70.0372467041
-17.7816448212 -43.4871864319 69.8408432007
-17.7654590607 -43.4491806030 69.6438674927
-17.7479476929 -43.4078254700 69.4465484619
-17.7283935547 -43.3612937927 69.2487106323
-17.7039146423 -43.3023033142 69.0497207642
-17.6730136871 -43.2270545959 68.8492050171
-17.6406612396 -43.1481323242 68.6482620239
-17.6180706024 -43.0939254761 68.4494094849
-17.6147861481 -43.0885848999 68.2548904419
-17.6312103271 -43.1331291199 68.0648727417
-17.6602840424 -43.2096939087 67.8778228760
-17.6952762604 -43.3012390137 67.6922454834
-17.7339076996 -43.4019851685 67.5076293945
-17.7758140564 -43.5110282898 67.3239059448
-17.8188610077 -43.6229515076 67.1405792236
-17.8589229584 -43.7273216248 66.9566802979
-17.8924674988 -43.8151931763 66.7713241577
-17.9188423157 -43.8849105835 66.5843429565
-17.9402847290 -43.9421501160 66.3962326050
-17.9600124359 -43.9950408936 66.2077636719
-17.9801635742 -44.0490112305 66.0194549561
-18.0012054443 -44.1052322388 65.8314361572
-18.0223464966 -44.1617012024 65.6435012817
-18.0415344238 -44.2132263184 65.4551315308
-18.0550804138 -44.2504730225 65.2653884888
-18.0584964752 -44.2620811462 65.0730972290
-18.0485382080 -44.2398452759 64.8773651123
-18.0244979858 -44.1819686890 64.6779556274
-17.9879741669 -44.0925064087 64.4752044678
-17.9430599213 -43.9818077087 64.2701263428
-17.8979969025 -43.8707351685 64.0648651123
-17.8646392822 -43.7892875671 63.8625526428
-17.8517761230 -43.7597084045 63.6655998230
-17.8578052521 -43.7779312134 63.4736709595
-17.8733253479 -43.8201789856 63.2843246460
-17.8923301697 -43.8712387085 63.0959701538
-17.9180355072 -43.9392547607 62.9095039368
-17.9565105438 -44.0395851135 62.7266273499
-18.0069370270 -44.1701583862 62.5471801758
-18.0605182648 -44.3087043762 62.3687705994
-18.1088256836 -44.4339065552 62.1890487671
-18.1508808136 -44.5432891846 62.0077209473
-18.1902446747 -44.6458549500 61.8257598877
-18.2268161774 -44.7413558960 61.6431236267
-18.2548122406 -44.8151588440 61.4581489563
-18.2691516876 -44.8544006348 61.2693176270
-18.2713966370 -44.8630447388 61.0770263672
-18.2682018280 -44.8579216003 60.8831481934
-18.2643413544 -44.8511123657 60.6890602112
-18.2577648163 -44.8374328613 60.4941520691
-18.2416763306 -44.7996902466 60.2963981628
-18.2116050720 -44.7265701294 60.0944175720
-18.1706218719 -44.6258354187 59.8890686035
-18.1278839111 -44.5206680298 59.6830482483
-18.0923423767 -44.4337158203 59.4790611267
-18.0678825378 -44.3747978210 59.2783279419
-18.0536403656 -44.3417282104 59.0806350708
-18.0476551056 -44.3295516968 58.8854331970
-18.0498123169 -44.3379783630 58.6927261353
-18.0620365143 -44.3718719482 58.5031471252
-18.0863437653 -44.4363327026 58.3173828125
-18.1226501465 -44.5311546326 58.1354598999
-18.1681194305 -44.6491508484 57.9565467834
-18.2183513641 -44.7791938782 57.7792854309
-18.2693328857 -44.9111289978 57.6024246216
-18.3188571930 -45.0393753052 57.4252510071
-18.3663139343 -45.1623916626 57.2475700378
-18.4104881287 -45.2770996094 57.0689735413
-18.4470729828 -45.3726081848 56.8880462646
-18.4690303802 -45.4311141968 56.7024421692
-18.4702186584 -45.4370803833 56.5100708008
-18.4493408203 -45.3872184753 56.3104019165
-18.4113655090 -45.2941169739 56.1049842834
-18.3655815125 -45.1812629700 55.8968238831
-18.3209152222 -45.0712394714 55.6888885498
-18.2812519073 -44.9738693237 55.4824867249
-18.2442855835 -44.8833236694 55.2768592834
-18.2051410675 -44.7872772217 55.0703697205
-18.1621456146 -44.6814842224 54.8624267578
-18.1201286316 -44.5781745911 54.6546745300
-18.0883522034 -44.5007667542 54.4503135681
-18.0749454498 -44.4698219299 54.2522125244
-18.0829105377 -44.4929389954 54.0615158081
-18.1101036072 -44.5646858215 53.8775672913
-18.1513328552 -44.6719360352 53.6986389160
-18.2003059387 -44.7987709045 53.5225791931
-18.2513008118 -44.9307174683 53.3473892212
-18.3008499146 -45.0590057373 53.1718444824
-18.3480968475 -45.1814651489 52.9956283569
-18.3928279877 -45.2975578308 52.8186569214
-18.4330921173 -45.4023513794 52.6402091980
-18.4651222229 -45.4863281250 52.4588966370
-18.4858093262 -45.5416069031 52.2735443115
-18.4953155518 -45.5686035156 52.0841560364
-18.4971885681 -45.5763015747 51.8919830322
-18.4957656860 -45.5756645203 51.6985931396
-18.4935798645 -45.5730934143 51.5049095154
-18.4912338257 -45.5701217651 51.3111534119
-18.4888286591 -45.5670013428 51.1173591614
-18.4862518311 -45.5634422302 50.9234886169
-18.4818229675 -45.5552024841 50.7289009094
-18.4712924957 -45.5315361023 50.5319824219
-18.4488430023 -45.4777259827 50.3304748535
-18.4104175568 -45.3835144043 50.1227760315
-18.3581447601 -45.2542877197 49.9096221924
-18.3023567200 -45.1161766052 49.6949348450
-18.2575683594 -45.0058822632 49.4843254089
-18.2346000671 -44.9507713318 49.2820549011
-18.2356452942 -44.9563827515 49.0890960693
-18.2554130554 -45.0093307495 48.9034805298
-18.2853164673 -45.0879135132 48.7219200134
-18.3170986176 -45.1712455750 48.5411911011
-18.3449764252 -45.2447013855 48.3590126038
-18.3665370941 -45.3021888733 48.1743965149
-18.3822555542 -45.3448944092 47.9875030518
-18.3940162659 -45.3775978088 47.7990646362
-18.4037742615 -45.4052314758 47.6098480225
-18.4127750397 -45.4309577942 47.4203529358
-18.4212169647 -45.4552650452 47.2306518555
-18.4281635284 -45.4757957458 47.0403594971
-18.4319572449 -45.4883460999 46.8487892151
-18.4309597015 -45.4887886047 46.6552505493
-18.4242439270 -45.4747734070 46.4593391418
-18.4120254517 -45.4468460083 46.2611122131
-18.3957443237 -45.4086456299 46.0611457825
-18.3775978088 -45.3657302856 45.8603401184
-18.3597373962 -45.3235435486 45.6595878601
-18.3436927795 -45.2859420776 45.4595375061
-18.3303127289 -45.2550849915 45.2605590820
-18.3200321198 -45.2320556641 45.0628471375
-18.3131198883 -45.2175521851 44.8665313721
-18.3098297119 -45.2121963501 44.6717414856
-18.3105297089 -45.2169342041 44.4786529541
