-33.5490760803 -18.0617046356 58.0555496216
-33.5485191345 -18.0589618683 57.8568801880
-33.5481414795 -18.0563068390 57.6582183838
-33.5477218628 -18.0536308289 57.4595375061
-33.5473060608 -18.0509586334 57.2608413696
-33.5470352173 -18.0483551025 57.0621528625
-33.5470504761 -18.0458908081 56.8634910583
-33.5474739075 -18.0436248779 56.6648750305
-33.5484886169 -18.0416488647 56.4663352966
-33.5504531860 -18.0401325226 56.2679252625
-33.5540847778 -18.0394287109 56.0697593689
-33.5607261658 -18.0401935577 55.8720474243
-33.5722084045 -18.0433139801 55.6750755310
-33.5896339417 -18.0493316650 55.4790306091
-33.6110763550 -18.0573043823 55.2836189270
-33.6303176880 -18.0642051697 55.0878791809
-33.6395874023 -18.0662479401 54.8905830383
-33.6352920532 -18.0616836548 54.6911392212
-33.6209716797 -18.0522327423 54.4900817871
-33.6040725708 -18.0415267944 54.2885780334
-33.5903511047 -18.0323677063 54.0875434875
-33.5814399719 -18.0255508423 53.8872528076
-33.5762977600 -18.0205726624 53.6875419617
-33.5734443665 -18.0167064667 53.4881782532
-33.5719566345 -18.0135078430 53.2890205383
-33.5715827942 -18.0108509064 53.0900268555
-33.5726814270 -18.0089111328 52.8912582397
-33.5764007568 -18.0082473755 52.6929092407
-33.5850219727 -18.0099735260 52.4953651428
-33.6018867493 -18.0157165527 52.2991905212
-33.6298294067 -18.0268573761 52.1048774719
-33.6680831909 -18.0430240631 51.9123191833
-33.7104148865 -18.0611782074 51.7204856873
-33.7477035522 -18.0768756866 51.5278434753
-33.7737846375 -18.0871124268 51.3333358765
-33.7890396118 -18.0920734406 51.1369972229
-33.7983512878 -18.0941352844 50.9396514893
-33.8060493469 -18.0954113007 50.7420196533
-33.8130149841 -18.0963306427 50.5442619324
-33.8177528381 -18.0961666107 50.3461112976
-33.8189544678 -18.0942745209 50.1473350525
-33.8165168762 -18.0906124115 49.9479103088
-33.8112945557 -18.0855903625 49.7479743958
-33.8053359985 -18.0802097321 49.5478897095
-33.8023452759 -18.0762767792 49.3483085632
-33.8063430786 -18.0757484436 49.1499481201
-33.8187637329 -18.0793247223 48.9530792236
-33.8372535706 -18.0858631134 48.7573013306
-33.8580093384 -18.0935039520 48.5619430542
-33.8791542053 -18.1013336182 48.3666687012
-33.9014625549 -18.1097335815 48.1716232300
-33.9259834290 -18.1192092896 47.9769935608
-33.9516181946 -18.1292304993 47.7825851440
-33.9754371643 -18.1383666992 47.5878677368
-33.9948730469 -18.1453647614 47.3923606873
-34.0092277527 -18.1498870850 47.1959266663
-34.0193824768 -18.1523609161 46.9987182617
-34.0267181396 -18.1534595490 46.8009872437
-34.0324134827 -18.1537590027 46.6029396057
-34.0372543335 -18.1536426544 46.4047279358
-34.0415840149 -18.1532764435 46.2064132690
-34.0453338623 -18.1526279449 46.0079803467
-34.0482788086 -18.1515846252 45.8093795776
-34.0503768921 -18.1501312256 45.6106109619
-34.0522232056 -18.1485538483 45.4117813110
-34.0554237366 -18.1476364136 45.2131996155
-34.0626716614 -18.1486911774 45.0153846741
-34.0770339966 -18.1532173157 44.8189430237
-34.1005744934 -18.1622180939 44.6242828369
-34.1333465576 -18.1757221222 44.4314384460
-34.1736068726 -18.1928768158 44.2400894165
-34.2186279297 -18.2123546600 44.0497169495
-34.2654037476 -18.2326889038 43.8597335815
-34.3114509583 -18.2526683807 43.6696586609
-34.3553962708 -18.2716236115 43.4792213440
-34.3961753845 -18.2890338898 43.2881965637
-34.4314002991 -18.3037376404 43.0961074829
-34.4575424194 -18.3140106201 42.9022331238
-34.4724311829 -18.3187942505 42.7061195374
-34.4778518677 -18.3189620972 42.5080986023
-34.4795761108 -18.3173236847 42.3093261719
-34.4846038818 -18.3173007965 42.1112098694
-34.4977073669 -18.3212146759 41.9147338867
-34.5196380615 -18.3294334412 41.7200660706
-34.5476341248 -18.3406124115 41.5266571045
-34.5771675110 -18.3525409698 41.3335914612
-34.6042900085 -18.3632946014 41.1400527954
-34.6273689270 -18.3720760345 40.9456977844
-34.6467170715 -18.3790378571 40.7505874634
-34.6628303528 -18.3844203949 40.5548095703
-34.6757926941 -18.3882675171 40.3583831787
-34.6859931946 -18.3907661438 40.1613769531
-34.6943473816 -18.3923645020 39.9639816284
-34.7016563416 -18.3934516907 39.7663650513
-34.7080993652 -18.3941173553 39.5685539246
-34.7135467529 -18.3942966461 39.3705291748
-34.7183303833 -18.3941535950 39.1723556519
-34.7238616943 -18.3943729401 38.9743309021
-34.7324790955 -18.3960990906 38.7769660950
-34.7463493347 -18.4003868103 38.5807304382
-34.7659378052 -18.4074668884 38.3857345581
-34.7895507813 -18.4165096283 38.1916275024
-34.8149604797 -18.4264297485 37.9979324341
-34.8418426514 -18.4370708466 37.8045768738
-34.8721427917 -18.4493770599 37.6119956970
-34.9075889587 -18.4641933441 37.4205741882
-34.9468879700 -18.4808940887 37.2300376892
-34.9854583740 -18.4972381592 37.0393829346
-35.0178604126 -18.5105724335 36.8473930359
-35.0407562256 -18.5192680359 36.6533164978
-35.0542564392 -18.5233783722 36.4571571350
-35.0610733032 -18.5242271423 36.2595062256
-35.0645027161 -18.5234222412 36.0610809326
-35.0667915344 -18.5220623016 35.8623924255
-35.0687675476 -18.5205478668 35.6636199951
-35.0702476501 -18.5187911987 35.4647254944
-35.0705375671 -18.5164527893 35.2655410767
-35.0685272217 -18.5129947662 35.0658226013
-35.0626792908 -18.5076599121 34.8652038574
-35.0514526367 -18.4997005463 34.6633224487
-35.0343093872 -18.4888534546 34.4600486755
-35.0123596191 -18.4756603241 34.2556228638
-34.9880332947 -18.4613056183 34.0505981445
-34.9645004272 -18.4473361969 33.8457107544
-34.9454574585 -18.4355602264 33.6418228149
-34.9344367981 -18.4276981354 33.4397697449
-34.9333229065 -18.4246730804 33.2400131226
-34.9416313171 -18.4262466431 33.0424613953
-34.9575271606 -18.4315242767 32.8466987610
-34.9793281555 -18.4396858215 32.6523399353
-35.0058441162 -18.4501476288 32.4591217041
-35.0354804993 -18.4621353149 32.2666664124
-35.0657691956 -18.4744396210 32.0743980408
-35.0947151184 -18.4860897064 31.8818321228
-35.1228942871 -18.4973659515 31.6891098022
-35.1537284851 -18.5099372864 31.4970512390
-35.1911582947 -18.5257320404 31.3066177368
-35.2368850708 -18.5455780029 31.1182346344
-35.2894935608 -18.5687828064 30.9315776825
-35.3457641602 -18.5937767029 30.7458705902
-35.4025421143 -18.6190204620 30.5603561401
-35.4575691223 -18.6434097290 30.3744754791
-35.5089111328 -18.6659984589 30.1877498627
-35.5541648865 -18.6856155396 29.9995784760
-35.5907402039 -18.7009983063 29.8093090057
-35.6171569824 -18.7114181519 29.6165523529
-35.6340217590 -18.7171745300 29.4214382172
-35.6437225342 -18.7194309235 29.2245445251
-35.6490821838 -18.7195701599 29.0265636444
-35.6522636414 -18.7186431885 28.8280258179
-35.6545143127 -18.7172622681 28.6292438507
-35.6565208435 -18.7157630920 28.4303894043
-35.6589584351 -18.7144737244 28.2316303253
-35.6629409790 -18.7139377594 28.0332508087
-35.6702690125 -18.7150363922 27.8357162476
-35.6832618713 -18.7189006805 27.6396236420
-35.7043266296 -18.7267074585 27.4456005096
-35.7354011536 -18.7394065857 27.2541637421
-35.7767906189 -18.7571411133 27.0654125214
-35.8253631592 -18.7783851624 26.8785610199
-35.8742599487 -18.7997894287 26.6918449402
-35.9161071777 -18.8177509308 26.5033550262
-35.9477500916 -18.8307266235 26.3122501373
-35.9717826843 -18.8399868011 26.1191883087
-35.9939765930 -18.8483505249 25.9256668091
-36.0197982788 -18.8584842682 25.7331104279
-36.0525207520 -18.8719882965 25.5423927307
-36.0925750732 -18.8890762329 25.3536434174
-36.1373748779 -18.9084835052 25.1661911011
-36.1819572449 -18.9277839661 24.9787292480
-36.2208023071 -18.9442825317 24.7897872925
-36.2500457764 -18.9560909271 24.5983257294
-36.2686843872 -18.9627170563 24.4040527344
-36.2779235840 -18.9647541046 24.2072715759
-36.2792739868 -18.9629344940 24.0083675385
-36.2733345032 -18.9575519562 23.8074836731
-36.2607498169 -18.9489250183 23.6047801971
-36.2444343567 -18.9384727478 23.4010314941
-36.2300491333 -18.9289646149 23.1977710724
-36.2233161926 -18.9231929779 22.9965572357
-36.2270545959 -18.9225406647 22.7981815338
-36.2414093018 -18.9270725250 22.6027030945
-36.2659759521 -18.9365959167 22.4100322723
-36.3003616333 -18.9509201050 22.2200870514
-36.3426399231 -18.9690990448 22.0323524475
-36.3881263733 -18.9888458252 21.8455505371
-36.4301948547 -19.0069255829 21.6578502655
-36.4625549316 -19.0202579498 21.4674930573
-36.4816780090 -19.0271263123 21.2734775543
-36.4884376526 -19.0279483795 21.0760154724
-36.4884834290 -19.0254898071 20.8766689301
-36.4911918640 -19.0243339539 20.6780529022
-36.5065498352 -19.0293598175 20.4829902649
-36.5406494141 -19.0435447693 20.2932262421
-36.5925788879 -19.0664463043 20.1085453033
-36.6553001404 -19.0946216583 19.9269847870
-36.7196502686 -19.1235942841 19.7459602356
-36.7782478333 -19.1497573853 19.5633735657
-36.8273506165 -19.1712799072 19.3781394958
-36.8670654297 -19.1882133484 19.1902675629
-36.9004859924 -19.2020721436 19.0006294250
-36.9318847656 -19.2149410248 18.8104400635
-36.9644889832 -19.2284011841 18.6206302643
-36.9992332458 -19.2429065704 18.4314689636
-37.0353851318 -19.2581005096 18.2427520752
-37.0718994141 -19.2734718323 18.0541763306
-37.1077117920 -19.2885036469 17.8654346466
-37.1413574219 -19.3024730682 17.6760921478
-37.1716384888 -19.3148002625 17.4857978821
-37.1992301941 -19.3258113861 17.2947425842
-37.2265663147 -19.3366985321 17.1036338806
-37.2553215027 -19.3482799530 16.9129695892
-37.2841415405 -19.3598937988 16.7223491669
-37.3094787598 -19.3698024750 16.5307216644
-37.3289070129 -19.3768253326 16.3373603821
-37.3436203003 -19.3815422058 16.1426029205
-37.3576011658 -19.3859004974 15.9476346970
-37.3746757507 -19.3917732239 15.7535972595
-37.3966369629 -19.4000320435 15.5610351563
-37.4237785339 -19.4108257294 15.3700485229
-37.4559516907 -19.4240818024 15.1806039810
-37.4926109314 -19.4395313263 14.9925451279
-37.5326156616 -19.4566173553 14.8055372238
-37.5745315552 -19.4746379852 14.6191520691
-37.6170959473 -19.4929733276 14.4330081940
-37.6597251892 -19.5113449097 14.2469310760
-37.7027130127 -19.5298919678 14.0610094070
-37.7463912964 -19.5487766266 13.8753442764
-37.7900428772 -19.5676479340 13.6897192001
-37.8322906494 -19.5858345032 13.5037069321
-37.8722648621 -19.6029090881 13.3170404434
-37.9096260071 -19.6187057495 13.1296052933
-37.9435729980 -19.6328334808 12.9411497116
-37.9731101990 -19.6448059082 12.7513570786
-37.9986000061 -19.6547985077 12.5603303909
-38.0220146179 -19.6637763977 12.3686752319
-38.0446815491 -19.6723880768 12.1768054962
-38.0650291443 -19.6798667908 11.9842252731
-38.0794448853 -19.6844425201 11.7897930145
-38.0858268738 -19.6850872040 11.5928344727
-38.0860023499 -19.6826972961 11.3939094543
-38.0845680237 -19.6795215607 11.1944599152
-38.0859756470 -19.6777324677 10.9958944321
-38.0932197571 -19.6788024902 10.7991733551
-38.1087951660 -19.6839447021 10.6051015854
-38.1354827881 -19.6945247650 10.4145870209
-38.1750946045 -19.7114276886 10.2282333374
-38.2263374329 -19.7340221405 10.0456542969
-38.2846984863 -19.7600975037 9.8654212952
-38.3449249268 -19.7870883942 9.6858577728
-38.4034729004 -19.8132572174 9.5058221817
-38.4587707520 -19.8378391266 9.3248043060
-38.5102615356 -19.8605575562 9.1426153183
-38.5576286316 -19.8812599182 8.9591426849
-38.6004943848 -19.8997612000 8.7742567062
-38.6386337280 -19.9159488678 8.5878725052
-38.6724586487 -19.9300251007 8.4001150131
-38.7026939392 -19.9423465729 8.2112131119
-38.7293815613 -19.9529323578 8.0211744308
-38.7518348694 -19.9614467621 7.8297629356
-38.7699699402 -19.9678478241 7.6369428635
-38.7853775024 -19.9729137421 7.4432315826
-38.8010826111 -19.9781265259 7.2496247292
-38.8204994202 -19.9851551056 7.0572595596
-38.8460884094 -19.9952049255 6.8669619560
-38.8778076172 -20.0082530975 6.6787319183
-38.9123992920 -20.0227108002 6.4914927483
-38.9448280334 -20.0361080170 6.3035631180
-38.9711265564 -20.0465049744 6.1136050224
-38.9902534485 -20.0533943176 5.9212565422
-39.0038490295 -20.0575752258 5.7270531654
-39.0149078369 -20.0605144501 5.5319976807
-39.0268173218 -20.0638713837 5.3372306824
-39.0430030823 -20.0693187714 5.1439161301
-39.0669517517 -20.0785675049 4.9532508850
-39.1019096375 -20.0932064056 4.7663588524
-39.1495208740 -20.1140384674 4.5838236809
-39.2080383301 -20.1402091980 4.4050750732
-39.2720680237 -20.1690788269 4.2282848358
-39.3346672058 -20.1972503662 4.0510802269
-39.3903999329 -20.2220611572 3.8715851307
-39.4372215271 -20.2425098419 3.6890776157
-39.4762153625 -20.2591285706 3.5039157867
-39.5094490051 -20.2729263306 3.3167967796
-39.5376510620 -20.2842636108 3.1279635429
-39.5599517822 -20.2927093506 2.9371011257
-39.5753097534 -20.2977561951 2.7438335419
-39.5835075378 -20.2992992401 2.5480706692
-39.5851860046 -20.2976493835 2.3500223160
-39.5822296143 -20.2937297821 2.1503331661
-39.5784530640 -20.2894096375 1.9503376484
-39.5789604187 -20.2871875763 1.7518304586
-39.5877685547 -20.2890281677 1.5562397242
-39.6057853699 -20.2953758240 1.3639036417
-39.6310920715 -20.3052959442 1.1741631031
-39.6614990234 -20.3177127838 0.9862555861
-39.6970214844 -20.3326358795 0.8001967669
-39.7395515442 -20.3509902954 0.6166736484
-39.7898368835 -20.3731422424 0.4359671474
-39.8455238342 -20.3979396820 0.2572513223
-39.9035034180 -20.4238624573 0.0794243366
-36.5352096558 -6.9346818924 80.7314300537
-36.5218811035 -6.9305949211 80.5331344604
-36.5024223328 -6.9256553650 80.3344345093
-36.4845008850 -6.9209289551 80.1357955933
-36.4720382690 -6.9169616699 79.9374542236
-36.4656066895 -6.9138340950 79.7394638062
-36.4650382996 -6.9115223885 79.5418319702
-36.4708404541 -6.9100971222 79.3445892334
-36.4839439392 -6.9096879959 79.1478118896
-36.5045089722 -6.9103178978 78.9515304565
-36.5304374695 -6.9116950035 78.7556152344
-36.5567054749 -6.9131193161 78.5597381592
-36.5765953064 -6.9136562347 78.3634567261
-36.5840911865 -6.9124670029 78.1663360596
-36.5756187439 -6.9090538025 77.9681167603
-36.5508499146 -6.9033708572 77.7687454224
-36.5136871338 -6.8959612846 77.5684585571
-36.4729614258 -6.8880548477 77.3678588867
-36.4404296875 -6.8812885284 77.1677780151
-36.4253730774 -6.8769564629 76.9689025879
-36.4298515320 -6.8753452301 76.7714080811
-36.4489212036 -6.8757662773 76.5749664307
-36.4747352600 -6.8771271706 76.3790359497
-36.5000953674 -6.8784251213 76.1830978394
-36.5200042725 -6.8789639473 75.9867553711
-36.5324325562 -6.8784604073 75.7898712158
-36.5383453369 -6.8770484924 75.5924835205
-36.5401763916 -6.8750681877 75.3947753906
-36.5400810242 -6.8728194237 75.1969070435
-36.5397529602 -6.8705377579 74.9990081787
-36.5414962769 -6.8685445786 74.8012619019
-36.5489006042 -6.8673405647 74.6039505005
-36.5659103394 -6.8674755096 74.4074020386
-36.5946083069 -6.8692393303 74.2118072510
-36.6337280273 -6.8724570274 74.0170822144
-36.6798400879 -6.8766493797 73.8229598999
-36.7296180725 -6.8813533783 73.6291885376
-36.7800216675 -6.8861451149 73.4355163574
-36.8268775940 -6.8904423714 73.2416000366
-36.8654212952 -6.8935818672 73.0470275879
-36.8929634094 -6.8951873779 72.8515548706
-36.9103775024 -6.8953809738 72.6552276611
-36.9210052490 -6.8946275711 72.4583282471
-36.9285354614 -6.8934426308 72.2611541748
-36.9356002808 -6.8921923637 72.0639343262
-36.9431877136 -6.8910155296 71.8667602539
-36.9505233765 -6.8898024559 71.6695556641
-36.9553604126 -6.8882417679 71.4721298218
-36.9547271729 -6.8859176636 71.2741928101
-36.9457550049 -6.8824300766 71.0754928589
-36.9262275696 -6.8774695396 70.8757934570
-36.8951950073 -6.8709030151 70.6750030518
-36.8540573120 -6.8629260063 70.4732208252
-36.8075599670 -6.8541998863 70.2708663940
-36.7634429932 -6.8458056450 70.0686721802
-36.7307014465 -6.8389978409 69.8674774170
-36.7171401978 -6.8348665237 69.6680603027
-36.7268028259 -6.8339762688 69.4708328247
-36.7576179504 -6.8360381126 69.2756500244
-36.8011856079 -6.8398809433 69.0817260742
-36.8462486267 -6.8439316750 68.8879928589
-36.8839035034 -6.8469500542 68.6935729980
-36.9103507996 -6.8484039307 68.4980773926
-36.9257812500 -6.8483190536 68.3015060425
-36.9319534302 -6.8469424248 68.1040039063
-36.9308242798 -6.8445458412 67.9057617188
-36.9242820740 -6.8413934708 67.7069549561
-36.9142341614 -6.8377513885 67.5077743530
-36.9025726318 -6.8338837624 67.3083953857
-36.8909835815 -6.8300251961 67.1089935303
-36.8807792664 -6.8263607025 66.9097061157
-36.8728141785 -6.8230080605 66.7106323242
-36.8673820496 -6.8200092316 66.5117950439
-36.8642501831 -6.8173313141 66.3131790161
-36.8628921509 -6.8149008751 66.1147384644
-36.8627777100 -6.8126440048 65.9164199829
-36.8635978699 -6.8105173111 65.7181854248
-36.8652839661 -6.8085122108 65.5200271606
-36.8679161072 -6.8066382408 65.3219680786
-36.8714714050 -6.8048944473 65.1239929199
-36.8757324219 -6.8032479286 64.9260864258
-36.8802909851 -6.8016428947 64.7282104492
-36.8847427368 -6.8000235558 64.5303115845
-36.8888244629 -6.7983522415 64.3323593140
-36.8923912048 -6.7966089249 64.1343460083
-36.8952331543 -6.7947640419 63.9362335205
-36.8968620300 -6.7927494049 63.7379760742
-36.8966064453 -6.7904710770 63.5394897461
-36.8942794800 -6.7879033089 63.3407516479
-36.8908348083 -6.7851786613 63.1418647766
-36.8879432678 -6.7825312614 62.9430236816
-36.8867187500 -6.7801170349 62.7443618774
-36.8872375488 -6.7779464722 62.5458908081
-36.8891983032 -6.7759771347 62.3475761414
-36.8920822144 -6.7741370201 62.1493644714
-36.8946876526 -6.7722573280 61.9511032104
-36.8954505920 -6.7701201439 61.7526130676
-36.8934135437 -6.7675909996 61.5537681580
-36.8882255554 -6.7646217346 61.3545227051
-36.8794555664 -6.7611503601 61.1548194885
-36.8666114807 -6.7571091652 60.9545860291
-36.8504028320 -6.7525968552 60.7539062500
-36.8337211609 -6.7480182648 60.5531349182
-36.8208427429 -6.7439713478 60.3528060913
-36.8155288696 -6.7409820557 60.1533966064
-36.8201141357 -6.7393774986 59.9552154541
-36.8357925415 -6.7393255234 59.7584342957
-36.8624725342 -6.7408127785 59.5630607605
-36.8977622986 -6.7435050011 59.3688163757
-36.9366378784 -6.7466993332 59.1750602722
-36.9728660583 -6.7495236397 58.9809989929
-37.0015945435 -6.7512984276 58.7859954834
-37.0213737488 -6.7518215179 58.5898399353
-37.0343704224 -6.7513947487 58.3928070068
-37.0448875427 -6.7506213188 58.1954498291
-37.0577392578 -6.7501745224 57.9984016418
-37.0771560669 -6.7506465912 57.8022270203
-37.1058502197 -6.7524180412 57.6073112488
-37.1439247131 -6.7555027008 57.4136772156
-37.1886520386 -6.7595195770 57.2209777832
-37.2360954285 -6.7639169693 57.0286903381
-37.2831764221 -6.7682647705 56.8363990784
-37.3279380798 -6.7722873688 56.6438369751
-37.3681297302 -6.7756710052 56.4506874084
-37.4006462097 -6.7779803276 56.2565155029
-37.4225959778 -6.7788095474 56.0608978271
-37.4324569702 -6.7779459953 55.8636054993
-37.4301605225 -6.7753791809 55.6646080017
-37.4166183472 -6.7712368965 55.4640083313
-37.3938446045 -6.7658014297 55.2620697021
-37.3654403687 -6.7595767975 55.0592842102
-37.3357505798 -6.7531709671 54.8562698364
-37.3072471619 -6.7469305992 54.6533699036
-37.2791557312 -6.7407484055 54.4504814148
-37.2501373291 -6.7344350815 54.2474060059
-37.2221069336 -6.7282590866 54.0444259644
-37.2003822327 -6.7229671478 53.8423156738
-37.1903228760 -6.7193088531 53.6418762207
-37.1944236755 -6.7176351547 53.4434967041
-37.2115936279 -6.7177939415 53.2470397949
-37.2380294800 -6.7192502022 53.0519676208
-37.2691040039 -6.7213573456 52.8576087952
-37.3011627197 -6.7236027718 52.6634254456
-37.3312377930 -6.7255706787 52.4689674377
-37.3556594849 -6.7267460823 52.2736778259
-37.3706932068 -6.7266054153 52.0769805908
-37.3756828308 -6.7250571251 51.8787612915
-37.3750495911 -6.7227191925 51.6796684265
-37.3765487671 -6.7206811905 51.4808921814
-37.3873977661 -6.7199535370 51.2835464478
-37.4108543396 -6.7209944725 51.0881538391
-37.4441680908 -6.7234172821 50.8943099976
-37.4787521362 -6.7260189056 50.7006950378
-37.5044174194 -6.7273702621 50.5057067871
-37.5158843994 -6.7267298698 50.3085060120
-37.5160865784 -6.7245092392 50.1095199585
-37.5134811401 -6.7218947411 49.9100761414
-37.5166511536 -6.7200903893 49.7115364075
-37.5305976868 -6.7197980881 49.5147094727
-37.5557785034 -6.7210812569 49.3196945190
-37.5888175964 -6.7234683037 49.1259651184
-37.6240158081 -6.7261576653 48.9326095581
-37.6548118591 -6.7282299995 48.7385749817
-37.6752281189 -6.7288460732 48.5428657532
-37.6820831299 -6.7275590897 48.3449478149
-37.6769104004 -6.7245836258 48.1450462341
-37.6649398804 -6.7206540108 47.9440002441
-37.6514205933 -6.7165069580 47.7426681519
-37.6389770508 -6.7125105858 47.5414848328
-37.6279067993 -6.7087063789 47.3404998779
-37.6176986694 -6.7050232887 47.1396331787
-37.6078109741 -6.7013850212 46.9387931824
-37.5979080200 -6.6977434158 46.7379226685
-37.5885848999 -6.6941833496 46.5371246338
-37.5825500488 -6.6910843849 46.3368568420
-37.5844993591 -6.6891074181 46.1379356384
-37.5987243652 -6.6888532639 45.9411087036
-37.6261520386 -6.6904530525 45.7465591431
-37.6637725830 -6.6934847832 45.5537910461
-37.7063293457 -6.6972098351 45.3619117737
-37.7481575012 -6.7008337975 45.1699485779
-37.7845497131 -6.7036938667 44.9770736694
-37.8128204346 -6.7054142952 44.7828102112
-37.8325347900 -6.7059321404 44.5870590210
-37.8444862366 -6.7053604126 44.3899459839
-37.8494338989 -6.7038040161 44.1915969849
-37.8474502563 -6.7012739182 43.9920043945
-37.8381309509 -6.6977133751 43.7910842896
-37.8217849731 -6.6931648254 43.5888786316
-37.8013191223 -6.6880369186 43.3858985901
-37.7831726074 -6.6832346916 43.1832962036
-37.7754058838 -6.6798906326 42.9825363159
-37.7837791443 -6.6788148880 42.7846870422
-37.8093032837 -6.6801490784 42.5899620056
-37.8492126465 -6.6835055351 42.3978881836
-37.8994636536 -6.6883163452 42.2077560425
-37.9563484192 -6.6940598488 42.0188903809
-38.0168533325 -6.7003130913 41.8307571411
-38.0779762268 -6.7066540718 41.6427993774
-38.1353187561 -6.7124643326 41.4542045593
-38.1831207275 -6.7169337273 41.2638854980
-38.2169761658 -6.7194428444 41.0709953308
-38.2367477417 -6.7199711800 40.8754844666
-38.2463874817 -6.7190761566 40.6780738831
-38.2512130737 -6.7175030708 40.4797477722
-38.2553558350 -6.7158341408 40.2812843323
-38.2609291077 -6.7143669128 40.0830879211
-38.2683181763 -6.7131543159 39.8852272034
-38.2767715454 -6.7120919228 39.6875686646
-38.2849197388 -6.7109856606 39.4898490906
-38.2910690308 -6.7095985413 39.2917366028
-38.2935371399 -6.7076940536 39.0929069519
-38.2915000916 -6.7051553726 38.8931884766
-38.2863235474 -6.7021746635 38.6928405762
-38.2819862366 -6.6993117332 38.4926338196
-38.2828407288 -6.6971788406 38.2934303284
-38.2900428772 -6.6959395409 38.0954666138
-38.3006477356 -6.6951789856 37.8981666565
-38.3110809326 -6.6943941116 37.7008361816
-38.3209190369 -6.6935253143 37.5033836365
-38.3324203491 -6.6928911209 37.3062629700
-38.3473091125 -6.6927328110 37.1098213196
-38.3654861450 -6.6930379868 36.9140472412
-38.3857994080 -6.6936440468 36.7187080383
-38.4058494568 -6.6942133904 36.5233345032
-38.4217453003 -6.6941971779 36.3271255493
-38.4300460815 -6.6931123734 36.1293754578
-38.4300003052 -6.6908521652 35.9299201965
-38.4235267639 -6.6876873970 35.7291336060
-38.4144973755 -6.6841616631 35.5277976990
-38.4085388184 -6.6810684204 35.3270721436
-38.4117202759 -6.6792621613 35.1282119751
-38.4278259277 -6.6792755127 34.9320220947
-38.4568901062 -6.6811141968 34.7385368347
-38.4967689514 -6.6844763756 34.5473289490
-38.5456962585 -6.6891131401 34.3580551147
-38.6028823853 -6.6949143410 34.1705627441
-38.6667938232 -6.7016630173 33.9845428467
-38.7332077026 -6.7087655067 33.7991218567
-38.7947998047 -6.7151894569 33.6127510071
-38.8432464600 -6.7197618484 33.4236488342
-38.8738822937 -6.7218251228 33.2308006287
-38.8896446228 -6.7217936516 33.0347976685
-38.8993453979 -6.7209076881 32.8375015259
-38.9109611511 -6.7202916145 32.6406135559
-38.9271583557 -6.7203211784 32.4447135925
-38.9465560913 -6.7208018303 32.2495155334
-38.9666213989 -6.7213768959 32.0544700623
-38.9845161438 -6.7216458321 31.8589668274
-38.9973449707 -6.7212004662 31.6623649597
-39.0030937195 -6.7197575569 31.4642162323
-39.0017280579 -6.7173123360 31.2644977570
-38.9958496094 -6.7142300606 31.0637702942
-38.9899291992 -6.7111415863 30.8630104065
-38.9875869751 -6.7085571289 30.6630229950
-38.9893455505 -6.7065515518 30.4639301300
-38.9943237305 -6.7049989700 30.2655410767
-39.0037422180 -6.7040729523 30.0681362152
-39.0210609436 -6.7042608261 29.8725013733
-39.0486373901 -6.7058954239 29.6791782379
-39.0855941772 -6.7088532448 29.4879913330
-39.1287078857 -6.7126793861 29.2982273102
-39.1741485596 -6.7168345451 29.1090335846
-39.2189521790 -6.7209000587 28.9197368622
-39.2623786926 -6.7247724533 28.7301731110
-39.3061218262 -6.7286896706 28.5407218933
-39.3523368835 -6.7329554558 28.3518791199
-39.4009132385 -6.7375555038 28.1636238098
-39.4483833313 -6.7420001030 27.9751625061
-39.4894638062 -6.7455434799 27.7852725983
-39.5203666687 -6.7476511002 27.5930595398
-39.5418281555 -6.7484269142 27.3986797333
-39.5594863892 -6.7486662865 27.2034263611
-39.5806465149 -6.7493996620 27.0090007782
-39.6095085144 -6.7512202263 26.8163909912
-39.6445274353 -6.7539100647 26.6252517700
-39.6802330017 -6.7566976547 26.4343070984
-39.7117958069 -6.7589001656 26.2424144745
-39.7381362915 -6.7603659630 26.0493106842
-39.7615776062 -6.7614231110 25.8555374146
-39.7853546143 -6.7625269890 25.6618614197
-39.8111419678 -6.7639150620 25.4686794281
-39.8379859924 -6.7654533386 25.2757720947
-39.8633308411 -6.7667794228 25.0825252533
-39.8851509094 -6.7676086426 24.8884468079
-39.9032630920 -6.7679138184 24.6934871674
-39.9189796448 -6.7678804398 24.4979572296
-39.9344177246 -6.7678084373 24.3023662567
-39.9522476196 -6.7680745125 24.1073627472
-39.9752464294 -6.7690701485 23.9136295319
-40.0050010681 -6.7710208893 23.7215633392
-40.0408744812 -6.7738356590 23.5310230255
-40.0806236267 -6.7771983147 23.3414688110
-40.1219024658 -6.7807779312 23.1523265839
-40.1623458862 -6.7842392921 22.9630184174
-40.1984558105 -6.7870898247 22.7726745605
-40.2256851196 -6.7886848450 22.5801544189
-40.2402992249 -6.7884984016 22.3845138550
-40.2413101196 -6.7863898277 22.1854782104
-40.2311515808 -6.7827019691 21.9836349487
-40.2150650024 -6.7781763077 21.7802734375
-40.1991043091 -6.7736678123 21.5769100189
-40.1876831055 -6.7698006630 21.3746566772
-40.1826248169 -6.7668333054 21.1739845276
-40.1844787598 -6.7648420334 20.9750461578
-40.1946182251 -6.7640218735 20.7782020569
-40.2161903381 -6.7648181915 20.5842723846
-40.2526664734 -6.7677211761 20.3941650391
-40.3043708801 -6.7727780342 20.2079925537
-40.3658828735 -6.7792220116 20.0243930817
-40.4275093079 -6.7856831551 19.8408870697
-40.4802398682 -6.7908864021 19.6551494598
-40.5199851990 -6.7942547798 19.4661064148
-40.5481185913 -6.7959814072 19.2740859985
-40.5690956116 -6.7966957092 19.0802268982
-40.5876426697 -6.7970666885 18.8857479095
-40.6073570251 -6.7976026535 18.6915817261
-40.6305809021 -6.7986354828 18.4983482361
-40.6583671570 -6.8003139496 18.3063278198
-40.6898422241 -6.8025140762 18.1153030396
-40.7220573425 -6.8048195839 17.9244976044
-40.7517585754 -6.8067693710 17.7330551147
-40.7780761719 -6.8082413673 17.5407390594
-40.8037567139 -6.8096232414 17.3482742310
-40.8338203430 -6.8116250038 17.1569938660
-40.8729972839 -6.8149166107 16.9681758881
-40.9235801697 -6.8198232651 16.7824497223
-40.9845199585 -6.8261957169 16.5995540619
-41.0518608093 -6.8334755898 16.4184474945
-41.1199455261 -6.8408608437 16.2376117706
-41.1827125549 -6.8474946022 16.0554141998
-41.2350769043 -6.8526563644 15.8704624176
-41.2745590210 -6.8559951782 15.6820631027
-41.3023338318 -6.8576769829 15.4905118942
-41.3226394653 -6.8583021164 15.2969446182
-41.3408012390 -6.8586235046 15.1028013229
-41.3616600037 -6.8593268394 14.9094076157
-41.3894309998 -6.8610091209 14.7179279327
-41.4278259277 -6.8641963005 14.5293970108
-41.4790382385 -6.8691987991 14.3444433212
-41.5420341492 -6.8758702278 14.1628026962
-41.6121025085 -6.8835439682 13.9831933975
-41.6824989319 -6.8912653923 13.8037519455
-41.7470283508 -6.8981566429 13.6227512360
-41.8020172119 -6.9036974907 13.4391527176
-41.8471908569 -6.9078483582 13.2528619766
-41.8852424622 -6.9109907150 13.0646162033
-41.9202194214 -6.9136981964 12.8755407333
-41.9552154541 -6.9164085388 12.6865005493
-41.9903144836 -6.9191341400 12.4975214005
-42.0221214294 -6.9213933945 12.3076391220
-42.0458030701 -6.9225015640 12.1154775620
-42.0584869385 -6.9220514297 11.9202013016
-42.0612907410 -6.9202013016 11.7221088409
-42.0588989258 -6.9176149368 11.5225210190
-42.0577087402 -6.9151988029 11.3232603073
-42.0636482239 -6.9137926102 11.1260299683
-42.0801124573 -6.9138779640 10.9318246841
-42.1069374084 -6.9154324532 10.7406158447
-42.1408843994 -6.9179968834 10.5514869690
-42.1771354675 -6.9208879471 10.3630552292
-42.2110939026 -6.9234538078 10.1739902496
-42.2400817871 -6.9253163338 9.9835081100
-42.2644386292 -6.9265217781 9.7916984558
-42.2876968384 -6.9275727272 9.5995855331
-42.3158607483 -6.9293179512 9.4089241028
-42.3550682068 -6.9326305389 9.2215299606
-42.4079589844 -6.9378833771 9.0382003784
-42.4713325500 -6.9446239471 8.8580179214
-42.5377273560 -6.9517931938 8.6787948608
-42.5993080139 -6.9582810402 8.4982185364
-42.6505546570 -6.9633040428 8.3146390915
-42.6890144348 -6.9665136337 8.1273059845
-42.7154464722 -6.9680171013 7.9364223480
-42.7334480286 -6.9683246613 7.7430377007
-42.7481651306 -6.9681668282 7.5486803055
-42.7647247314 -6.9682703018 7.3548793793
-42.7867126465 -6.9691433907 7.1627182961
-42.8148307800 -6.9708871841 6.9724206924
-42.8464889526 -6.9731340408 6.7832155228
-42.8775405884 -6.9752945900 6.5938529968
-42.9054031372 -6.9770026207 6.4035482407
-42.9311943054 -6.9784169197 6.2126355171
-42.9594802856 -6.9801859856 6.0225033760
-42.9962577820 -6.9831604958 5.8349862099
-43.0464286804 -6.9880361557 5.6516013145
-43.1117286682 -6.9950599670 5.4729056358
-43.1897010803 -7.0038838387 5.2981762886
-43.2740745544 -7.0136175156 5.1255040169
-43.3564529419 -7.0230689049 4.9523124695
-43.4289093018 -7.0311121941 4.7761440277
-43.4862213135 -7.0370063782 4.5953626633
-43.5269241333 -7.0405426025 4.4094834328
-43.5530052185 -7.0420031548 4.2190923691
-43.5686645508 -7.0419845581 4.0254716873
-43.5788574219 -7.0411887169 3.8301482201
-43.5884895325 -7.0403137207 3.6346487999
-43.6021995544 -7.0400180817 3.4404273033
-43.6235275269 -7.0408039093 3.2486045361
-43.6531410217 -7.0427675247 3.0594062805
-43.6877784729 -7.0454444885 2.8718180656
-43.7216644287 -7.0480151176 2.6840226650
-43.7496337891 -7.0497455597 2.4943823814
-43.7694892883 -7.0503234863 2.3021850586
-43.7823791504 -7.0499119759 2.1077830791
-43.7920227051 -7.0490393639 1.9123488665
-43.8034439087 -7.0484189987 1.7174805403
-43.8212127686 -7.0487008095 1.5246449709
-43.8474655151 -7.0501885414 1.3345425129
-43.8811454773 -7.0527315140 1.1468468904
-43.9194412231 -7.0559315681 0.9606694579
-43.9600830078 -7.0594649315 0.7752842307
-44.0019798279 -7.0631771088 0.5903441310
-44.0447425842 -7.0670132637 0.4057250023
-44.0896110535 -7.0711493492 0.2218316495
-44.1417350769 -7.0763168335 0.0403429680
-36.6487312317 4.6540975571 80.5193023682
-36.6456794739 4.6558022499 80.3215026855
-36.6413688660 4.6572828293 80.1236038208
-36.6368789673 4.6587319374 79.9256820679
-36.6333236694 4.6603474617 79.7277984619
-36.6316337585 4.6622943878 79.5300216675
-36.6327133179 4.6647338867 79.3323974609
-36.6378479004 4.6678938866 79.1350326538
-36.6487464905 4.6720781326 78.9380493164
-36.6667327881 4.6775212288 78.7415237427
-36.6912460327 4.6841235161 78.5454559326
-36.7189292908 4.6912889481 78.3496246338
-36.7444572449 4.6980710030 78.1536560059
-36.7626647949 4.7035531998 77.9572143555
-36.7705917358 4.7072086334 77.7600555420
-36.7682304382 4.7090377808 77.5621719360
-36.7576980591 4.7094144821 77.3636932373
-36.7414512634 4.7087779045 77.1647796631
-36.7216339111 4.7075071335 76.9655761719
-36.7006759644 4.7060346603 76.7662429810
-36.6813507080 4.7048521042 76.5670013428
-36.6653747559 4.7042646408 76.3679580688
-36.6524581909 4.7042207718 76.1691207886
-36.6410102844 4.7044386864 75.9703598022
-36.6296272278 4.7046675682 75.7715759277
-36.6178970337 4.7048358917 75.5727462769
-36.6063919067 4.7050437927 75.3738937378
-36.5961570740 4.7054777145 75.1751174927
-36.5881652832 4.7063102722 74.9764938354
-36.5829010010 4.7076272964 74.7780609131
-36.5802459717 4.7094073296 74.5798187256
-36.5796318054 4.7115497589 74.3817291260
-36.5802993774 4.7139205933 74.1837234497
-36.5814476013 4.7163763046 73.9857406616
-36.5823135376 4.7187814713 73.7877273560
-36.5823440552 4.7210388184 73.5896377563
-36.5814857483 4.7231392860 73.3914566040
-36.5805397034 4.7252240181 73.1932525635
-36.5814666748 4.7276411057 72.9951934814
-36.5872879028 4.7309269905 72.7975387573
-36.6010780334 4.7356266975 72.6005706787
-36.6242218018 4.7419857979 72.4044189453
-36.6554336548 4.7497758865 72.2089920044
-36.6916961670 4.7584619522 72.0140380859
-36.7299346924 4.7674980164 71.8192825317
-36.7671852112 4.7763581276 71.6244812012
-36.8000106812 4.7844333649 71.4293212891
-36.8256912231 4.7912411690 71.2335357666
-36.8445014954 4.7968301773 71.0371398926
-36.8592987061 4.8017067909 70.8403854370
-36.8720893860 4.8062272072 70.6434555054
-36.8824272156 4.8103132248 70.4462966919
-36.8902435303 4.8139524460 70.2489089966
-36.8988876343 4.8177380562 70.0515899658
-36.9128646851 4.8224687576 69.8547744751
-36.9320564270 4.8281245232 69.6584625244
-36.9498786926 4.8335375786 69.4620361328
-36.9583473206 4.8372917175 69.2647094727
-36.9541816711 4.8388066292 69.0661468506
-36.9394378662 4.8384456635 68.8665161133
-36.9175491333 4.8368182182 68.6661605835
-36.8907432556 4.8343200684 68.4652633667
-36.8610954285 4.8313188553 68.2640380859
-36.8321418762 4.8284411430 68.0628280640
-36.8080139160 4.8264183998 67.8620605469
-36.7910957336 4.8256750107 67.6619873047
-36.7810020447 4.8261418343 67.4625854492
-36.7755279541 4.8274269104 67.2636260986
-36.7722358704 4.8290991783 67.0648803711
-36.7694549561 4.8308625221 66.8661727905
-36.7665252686 4.8325991631 66.6674270630
-36.7634849548 4.8343162537 66.4686508179
-36.7606544495 4.8360719681 66.2698822021
-36.7583541870 4.8379206657 66.0711593628
-36.7568588257 4.8399128914 65.8725051880
-36.7565727234 4.8421187401 65.6739654541
-36.7581291199 4.8446516991 65.4756088257
-36.7624473572 4.8476738930 65.2775497437
-36.7707328796 4.8513989449 65.0799255371
-36.7844505310 4.8560862541 64.8828964233
-36.8048019409 4.8619484901 64.6866149902
-36.8315620422 4.8689460754 64.4910659790
-36.8624877930 4.8766813278 64.2960052490
-36.8945960999 4.8846249580 64.1011047363
-36.9259681702 4.8924384117 63.9061546326
-36.9557151794 4.8999643326 63.7110404968
-36.9824523926 4.9069561958 63.5156059265
-37.0040702820 4.9130415916 63.3195953369
-37.0193176270 4.9179978371 63.1228561401
-37.0288162231 4.9219374657 62.9254493713
-37.0344276428 4.9251880646 62.7275772095
-37.0380516052 4.9280872345 62.5294685364
-37.0411529541 4.9308934212 62.3312873840
-37.0447692871 4.9337911606 62.1331558228
-37.0496292114 4.9369091988 61.9351692200
-37.0562705994 4.9403429031 61.7373924255
-37.0653228760 4.9442033768 61.5399017334
-37.0776672363 4.9486460686 61.3428153992
-37.0938835144 4.9537744522 61.1462059021
-37.1128883362 4.9593963623 60.9499549866
-37.1309509277 4.9648518562 60.7535934448
-37.1428337097 4.9692125320 60.5564689636
-37.1447448730 4.9718084335 60.3580932617
-37.1368751526 4.9726743698 60.1584701538
-37.1234626770 4.9725594521 59.9581184387
-37.1103706360 4.9725017548 59.7577781677
-37.1022338867 4.9733204842 59.5580444336
-37.1013679504 4.9754266739 59.3592262268
-37.1084594727 4.9789404869 59.1614227295
-37.1229629517 4.9837656021 58.9645843506
-37.1422119141 4.9894309044 58.7683677673
-37.1608352661 4.9949851036 58.5720825195
-37.1722259521 4.9992599487 58.3748512268
-37.1714324951 5.0013790131 58.1760063171
-37.1572647095 5.0011324883 57.9753608704
-37.1328659058 4.9990773201 57.7733116150
-37.1047439575 4.9963631630 57.5707130432
-37.0801353455 4.9942708015 57.3685455322
-37.0637130737 4.9936280251 57.1674461365
-37.0556983948 4.9944715500 56.9674606323
-37.0522956848 4.9961314201 56.7680854797
-37.0484008789 4.9977040291 56.5686225891
-37.0422058105 4.9988703728 56.3688278198
-37.0391998291 5.0006012917 56.1694526672
-37.0500717163 5.0047855377 55.9720001221
-37.0820465088 5.0127010345 55.7775154114
-37.1320419312 5.0238022804 55.5855979919
-37.1888122559 5.0361013412 55.3946952820
-37.2403755188 5.0474786758 55.2031097412
-37.2784652710 5.0564737320 55.0096511841
-37.2985000610 5.0622763634 54.8136291504
-37.2990531921 5.0646352768 54.6148109436
-37.2823982239 5.0639533997 54.4134864807
-37.2542419434 5.0612378120 54.2104530334
-37.2221069336 5.0578203201 54.0067901611
-37.1941146851 5.0551357269 53.8036766052
-37.1786346436 5.0546627045 53.6023635864
-37.1825866699 5.0576248169 53.4038963318
-37.2076721191 5.0643210411 53.2085647583
-37.2481536865 5.0737371445 53.0155525208
-37.2936592102 5.0840411186 52.8233337402
-37.3347396851 5.0935630798 52.6304931641
-37.3659973145 5.1013484001 52.4362068176
-37.3854675293 5.1070508957 52.2401542664
-37.3931007385 5.1106615067 52.0423049927
-37.3903961182 5.1124467850 51.8428688049
-37.3806419373 5.1129865646 51.6423301697
-37.3684616089 5.1130976677 51.4413948059
-37.3585815430 5.1136159897 51.2407836914
-37.3546562195 5.1151862144 51.0410766602
-37.3587684631 5.1181764603 50.8426055908
-37.3715019226 5.1226892471 50.6454849243
-37.3919029236 5.1285562515 50.4495773315
-37.4170646667 5.1352643967 50.2544364929
-37.4423255920 5.1419887543 50.0593299866
-37.4630317688 5.1479091644 49.8635139465
-37.4768981934 5.1526217461 49.6666145325
-37.4847602844 5.1562738419 49.4687538147
-37.4891433716 5.1593117714 49.2703285217
-37.4923095703 5.1621351242 49.0716972351
-37.4953727722 5.1649403572 48.8730430603
-37.4986915588 5.1677908897 48.6744194031
-37.5028381348 5.1707873344 48.4759216309
-37.5093040466 5.1741933823 48.2778015137
-37.5201225281 5.1783680916 48.0803909302
-37.5363464355 5.1834964752 47.8838844299
-37.5568542480 5.1893806458 47.6880950928
-37.5790214539 5.1955580711 47.4925994873
-37.6006507874 5.2016406059 47.2970314026
-37.6210174561 5.2074999809 47.1012611389
-37.6402435303 5.2131576538 46.9053115845
-37.6581115723 5.2185759544 46.7091407776
-37.6735649109 5.2235679626 46.5125694275
-37.6848602295 5.2278256416 46.3152961731
-37.6899642944 5.2309913635 46.1169548035
-37.6868400574 5.2327051163 45.9171905518
-37.6737861633 5.2326669693 45.7156867981
-37.6500434875 5.2307438850 45.5122985840
-37.6168670654 5.2271566391 45.3072204590
-37.5783195496 5.2226223946 45.1011428833
-37.5403594971 5.2181925774 44.8951110840
-37.5081291199 5.2147741318 44.6900253296
-37.4837455750 5.2127404213 44.4862747192
-37.4667739868 5.2120151520 44.2837944031
-37.4561004639 5.2124004364 44.0824012756
-37.4506187439 5.2137017250 43.8819122314
-37.4490356445 5.2156910896 43.6821022034
-37.4504890442 5.2182159424 43.4828262329
-37.4556159973 5.2213888168 43.2842025757
-37.4660606384 5.2254996300 43.0865364075
-37.4822540283 5.2306237221 42.8899154663
-37.5017547607 5.2363319397 42.6939086914
-37.5203132629 5.2418723106 42.4977416992
-37.5345344543 5.2466492653 42.3007888794
-37.5435371399 5.2505054474 42.1028747559
-37.5485153198 5.2536520958 41.9042129517
-37.5515594482 5.2564582825 41.7051849365
-37.5550460815 5.2593417168 41.5062294006
-37.5618896484 5.2628183365 41.3078918457
-37.5764923096 5.2676615715 41.1110115051
-37.6051864624 5.2749886513 40.9167938232
-37.6544570923 5.2859425545 40.7264900208
-37.7267379761 5.3009514809 40.5406074524
-37.8174743652 5.3192119598 40.3583221436
-37.9165191650 5.3389353752 40.1777267456
-38.0116500854 5.3579678535 39.9964942932
-38.0914001465 5.3742885590 39.8124122620
-38.1486473083 5.3866434097 39.6240730286
-38.1842308044 5.3951797485 39.4315986633
-38.2050857544 5.4011201859 39.2362937927
-38.2170639038 5.4054975510 39.0392723083
-38.2207069397 5.4084062576 38.8406219482
-38.2141265869 5.4095134735 38.6399574280
-38.1983261108 5.4089970589 38.4374542236
-38.1788368225 5.4078307152 38.2341880798
-38.1627426147 5.4072632790 38.0315589905
-38.1547622681 5.4081254005 37.8305053711
-38.1562042236 5.4106473923 37.6313095093
-38.1674499512 5.4148964882 37.4340667725
-38.1906661987 5.4212536812 37.2392272949
-38.2290878296 5.4302883148 37.0474700928
-38.2827224731 5.4420018196 36.8588180542
-38.3450431824 5.4552445412 36.6719894409
-38.4053230286 5.4681267738 36.4848060608
-38.4545555115 5.4790630341 36.2954368591
-38.4887733459 5.4873552322 36.1030464172
-38.5083351135 5.4930663109 35.9076766968
-38.5166397095 5.4967951775 35.7099990845
-38.5195808411 5.4995799065 35.5112113953
-38.5239372253 5.5026140213 35.3127059937
-38.5347366333 5.5067825317 35.1155357361
-38.5535278320 5.5123577118 34.9200325012
-38.5787963867 5.5190730095 34.7258911133
-38.6081542969 5.5265083313 34.5326309204
-38.6409530640 5.5345478058 34.3401184082
-38.6791076660 5.5435309410 34.1487655640
-38.7253227234 5.5539317131 33.9591522217
-38.7796325684 5.5657567978 33.7713088989
-38.8370933533 5.5781350136 33.5841903687
-38.8892097473 5.5895729065 33.3959922791
-38.9291419983 5.5988659859 33.2052383423
-38.9563827515 5.6059250832 33.0117912292
-38.9765090942 5.6117324829 32.8168373108
-38.9964981079 5.6175150871 32.6218605042
-39.0201988220 5.6239504814 32.4277038574
-39.0470275879 5.6309370995 32.2342453003
-39.0733489990 5.6378331184 32.0406951904
-39.0948791504 5.6438865662 31.8461208344
-39.1088562012 5.6486105919 31.6499023438
-39.1143798828 5.6518487930 31.4518260956
-39.1109580994 5.6535124779 31.2517700195
-39.0972595215 5.6533684731 31.0494213104
-39.0718727112 5.6511707306 30.8444461823
-39.0353660583 5.6470165253 30.6369476318
-38.9912376404 5.6415228844 30.4276866913
-38.9447135925 5.6356086731 30.2178192139
-38.9003143311 5.6300692558 30.0083560944
-38.8604049683 5.6253199577 29.7998332977
-38.8260993958 5.6215562820 29.5925121307
-38.7996330261 5.6191720963 29.3869113922
-38.7852821350 5.6189188957 29.1840133667
-38.7871208191 5.6215124130 28.9847736359
-38.8059043884 5.6270842552 28.7893943787
-38.8387794495 5.6351342201 28.5972576141
-38.8816795349 5.6449456215 28.4074516296
-38.9308586121 5.6558604240 28.2191352844
-38.9828605652 5.6672716141 28.0315208435
-39.0350456238 5.6787133217 27.8440036774
-39.0865287781 5.6900315285 27.6563758850
-39.1369590759 5.7011632919 27.4685573578
-39.1835098267 5.7116131783 27.2798843384
-39.2206535339 5.7204103470 27.0890541077
-39.2444877625 5.7268667221 26.8951301575
-39.2570610046 5.7313446999 26.6985721588
-39.2657623291 5.7351422310 26.5011005402
-39.2784461975 5.7396392822 26.3045711517
-39.2990951538 5.7455363274 26.1099376678
-39.3272438049 5.7527508736 25.9171047211
-39.3606910706 5.7608957291 25.7255573273
-39.3987541199 5.7698507309 25.5351467133
-39.4428443909 5.7798647881 25.3462200165
-39.4935684204 5.7910437584 25.1589355469
-39.5474243164 5.8027720451 24.9724578857
-39.5972366333 5.8137898445 24.7850570679
-39.6367988586 5.8230056763 24.5952205658
-39.6651954651 5.8302607536 24.4027042389
-39.6865806580 5.8362836838 24.2084999084
-39.7064056396 5.8420329094 24.0139293671
-39.7286300659 5.8482031822 23.8199596405
-39.7556228638 5.8552107811 23.6271781921
-39.7886238098 5.8632731438 23.4358997345
-39.8272056580 5.8723149300 23.2460308075
-39.8688964844 5.8819026947 23.0569705963
-39.9098243713 5.8913550377 22.8677577972
-39.9459762573 5.8999695778 22.6773986816
-39.9749794006 5.9073281288 22.4852848053
-39.9977493286 5.9135918617 22.2916336060
-40.0184020996 5.9194836617 22.0974674225
-40.0417709351 5.9258522987 21.9039993286
-40.0702590942 5.9331197739 21.7118396759
-40.1025390625 5.9410524368 21.5206623077
-40.1351585388 5.9490442276 21.3296012878
-40.1654472351 5.9566264153 21.1379756927
-40.1931533813 5.9637556076 20.9457168579
-40.2200698853 5.9707450867 20.7532787323
-40.2487792969 5.9780492783 20.5613231659
-40.2815666199 5.9860696793 20.3704395294
-40.3196220398 5.9950127602 20.1809406281
-40.3623924255 6.0047836304 19.9926948547
-40.4069252014 6.0148630142 19.8049488068
-40.4473953247 6.0242290497 19.6161918640
-40.4765739441 6.0316138268 19.4245376587
-40.4897193909 6.0361857414 19.2287254333
-40.4879226685 6.0381355286 19.0290088654
-40.4775810242 6.0385866165 18.8270378113
-40.4663810730 6.0388879776 18.6248149872
-40.4593467712 6.0399198532 18.4236602783
-40.4579086304 6.0419335365 18.2239627838
-40.4616355896 6.0448536873 18.0256156921
-40.4698715210 6.0485644341 17.8284568787
-40.4816665649 6.0528998375 17.6322441101
-40.4952507019 6.0575485229 17.4365081787
-40.5087776184 6.0621876717 17.2407627106
-40.5219650269 6.0667667389 17.0449295044
-40.5367584229 6.0716271400 16.8495330811
-40.5564689636 6.0773506165 16.6554660797
-40.5844345093 6.0845203400 16.4636383057
-40.6229286194 6.0935363770 16.2746829987
-40.6722793579 6.1044554710 16.0887088776
-40.7303390503 6.1168999672 15.9051504135
-40.7931213379 6.1301722527 15.7229433060
-40.8567199707 6.1435871124 15.5410270691
-40.9192771912 6.1568183899 15.3588953018
-40.9814186096 6.1699762344 15.1767168045
-41.0444450378 6.1832880974 14.9948492050
-41.1077919006 6.1966557503 14.8131380081
-41.1682739258 6.2095198631 14.6307039261
-41.2219581604 6.2211923599 14.4464521408
-41.2669105530 6.2313337326 14.2598323822
-41.3041687012 6.2401261330 14.0711154938
-41.3359375000 6.2479567528 13.8809022903
-41.3631248474 6.2549843788 13.6894369125
-41.3851928711 6.2611141205 13.4965572357
-41.4024467468 6.2663998604 13.3023405075
-41.4177742004 6.2713489532 13.1075925827
-41.4357910156 6.2767691612 12.9136085510
-41.4601669312 6.2833027840 12.7214336395
-41.4912643433 6.2910132408 12.5311832428
-41.5258102417 6.2993283272 12.3419399261
-41.5591735840 6.3074355125 12.1523904800
-41.5886077881 6.3148541451 11.9617500305
-41.6148071289 6.3217062950 11.7702102661
-41.6405067444 6.3284702301 11.5785465240
-41.6675682068 6.3354721069 11.3872938156
-41.6953048706 6.3425931931 11.1962594986
-41.7216491699 6.3494687080 11.0048437119
-41.7458038330 6.3559617996 10.8128166199
-41.7696113586 6.3623933792 10.6207065582
-41.7961807251 6.3693079948 10.4294166565
-41.8272590637 6.3770122528 10.2394618988
-41.8620071411 6.3853588104 10.0506067276
-41.8984680176 6.3940043449 9.8622827530
-41.9360809326 6.4028515816 9.6743316650
-41.9761772156 6.4121332169 9.4871463776
-42.0197067261 6.4220151901 9.3010110855
-42.0650939941 6.4322223663 9.1154670715
-42.1091575623 6.4421973228 8.9295787811
-42.1501617432 6.4516358376 8.7428255081
-42.1890487671 6.4607033730 8.5554838181
-42.2267265320 6.4695591927 8.3678197861
-42.2603225708 6.4776997566 8.1789722443
-42.2833290100 6.4839873314 7.9869885445
-42.2907104492 6.4875397682 7.7903366089
-42.2838020325 6.4885916710 7.5893883705
-42.2698936462 6.4884195328 7.3863110542
-42.2575378418 6.4885191917 7.1836705208
-42.2527885437 6.4899492264 6.9832997322
-42.2589950562 6.4932971001 6.7862300873
-42.2785835266 6.4989867210 6.5932197571
-42.3144264221 6.5075187683 6.4051666260
-42.3692703247 6.5193753242 6.2229428291
-42.4427947998 6.5344991684 6.0464863777
-42.5282363892 6.5517053604 5.8737607002
-42.6131782532 6.5688242912 5.7009811401
-42.6859359741 6.5838108063 5.5245513916
-42.7417526245 6.5958328247 5.3429799080
-42.7828063965 6.6052727699 5.1569094658
-42.8139724731 6.6129827499 4.9678182602
-42.8398818970 6.6197733879 4.7771239281
-42.8642654419 6.6262965202 4.5859746933
-42.8890228271 6.6328849792 4.3949613571
-42.9130287170 6.6393423080 4.2037329674
-42.9328498840 6.6450672150 4.0112133026
-42.9454345703 6.6495270729 3.8164377213
-42.9504699707 6.6526670456 3.6192948818
-42.9509391785 6.6550083160 3.4207077026
-42.9522171021 6.6574912071 3.2223627567
-42.9603538513 6.6611728668 3.0261731148
-42.9796905518 6.6668133736 2.8335294724
-43.0105552673 6.6744685173 2.6445550919
-43.0486373901 6.6833844185 2.4579024315
-43.0872497559 6.6923928261 2.2714555264
-43.1212501526 6.7005949020 2.0835726261
-43.1498870850 6.7078590393 1.8940050602
-43.1770820618 6.7148709297 1.7039990425
