29.5368614197 30.5280628204 63.0341720581
29.6233024597 30.6215419769 62.8496360779
29.7238330841 30.7298908234 62.6673164368
29.8365650177 30.8511180878 62.4869689941
29.9601211548 30.9837684631 62.3084220886
30.0889339447 31.1219615936 62.1308708191
30.2144031525 31.2566261292 61.9530334473
30.3300342560 31.3809032440 61.7739181519
30.4343414307 31.4932270050 61.5932731628
30.5284366608 31.5947685242 61.4112358093
30.6115646362 31.6847362518 61.2276687622
30.6799259186 31.7591152191 61.0419540405
30.7294788361 31.8136425018 60.8534164429
30.7591476440 31.8471851349 60.6618461609
30.7710227966 31.8619461060 60.4675140381
30.7676715851 31.8606357574 60.2707862854
30.7490386963 31.8432006836 60.0716094971
30.7117061615 31.8060321808 59.8693962097
30.6524047852 31.7456779480 59.6635742188
30.5750961304 31.6663188934 59.4547271729
30.4957542419 31.5848178864 59.2454032898
30.4387645721 31.5269088745 59.0395927429
30.4267387390 31.5164489746 58.8410720825
30.4708805084 31.5652637482 58.6518135071
30.5658073425 31.6676731110 58.4710731506
30.6909427643 31.8019580841 58.2955360413
30.8203430176 31.9407405853 58.1209297180
30.9354190826 32.0644035339 57.9441184998
31.0303611755 32.1668205261 57.7640876770
31.1095905304 32.2526550293 57.5815315247
31.1833419800 32.3327026367 57.3981666565
31.2619075775 32.4178352356 57.2157516479
31.3462562561 32.5090637207 57.0344696045
31.4218807220 32.5910873413 56.8518104553
31.4663562775 32.6402435303 56.6638221741
31.4675083160 32.6436805725 56.4682846069
31.4346523285 32.6112365723 56.2667312622
31.3918838501 32.5683326721 56.0633506775
31.3620071411 32.5390319824 55.8621902466
31.3557929993 32.5347023010 55.6652145386
31.3700103760 32.5519256592 55.4719009399
31.3898525238 32.5750846863 55.2796249390
31.3953037262 32.5830612183 55.0847587585
31.3719005585 32.5605964661 54.8846168518
31.3202018738 32.5082740784 54.6792259216
31.2565402985 32.4433326721 54.4715270996
31.2040958405 32.3902244568 54.2657890320
31.1816616058 32.3687820435 54.0655479431
31.1979846954 32.3882331848 53.8725204468
31.2521419525 32.4475975037 53.6866302490
31.3357448578 32.5380287170 53.5063934326
31.4359245300 32.6459465027 53.3294410706
31.5398941040 32.7578582764 53.1533813477
31.6391620636 32.8648109436 52.9765930176
31.7304401398 32.9633293152 52.7984352112
31.8131446838 33.0528068542 52.6187705994
31.8863983154 33.1323089600 52.4374084473
31.9482688904 33.1997985840 52.2539443970
31.9971599579 33.2535972595 52.0680389404
32.0328521729 33.2934722900 51.8796119690
32.0570144653 33.3211784363 51.6889572144
32.0734100342 33.3406944275 51.4967956543
32.0852928162 33.3554534912 51.3037567139
32.0902824402 33.3629341125 51.1093482971
32.0805473328 33.3548851013 50.9119796753
32.0517196655 33.3266944885 50.7107238770
32.0098686218 33.2847671509 50.5067672729
31.9671459198 33.2419242859 50.3025512695
31.9325675964 33.2076683044 50.0999183655
31.9089183807 33.1849441528 49.8994674683
31.8962669373 33.1738204956 49.7012405396
31.8959484100 33.1757049561 49.5055427551
31.9118804932 33.1947326660 49.3132171631
31.9492969513 33.2364234924 49.1254081726
32.0118370056 33.3046112061 48.9429359436
32.0984916687 33.3982353210 48.7656478882
32.2023773193 33.5100326538 48.5921554565
32.3122482300 33.6281394958 48.4201126099
32.4165458679 33.7403640747 48.2470626831
32.5077171326 33.8387451172 48.0713729858
32.5832252502 33.9206047058 47.8924636841
32.6426811218 33.9855270386 47.7102088928
32.6854782104 34.0328826904 47.5244369507
32.7116584778 34.0627098083 47.3351097107
32.7233581543 34.0772666931 47.1426506042
32.7240791321 34.0802421570 46.9477958679
32.7166404724 34.0746078491 46.7511329651
32.7018318176 34.0612106323 46.5528221130
32.6784591675 34.0387725830 46.3525695801
32.6450729370 34.0057792664 46.1500358582
32.6030654907 33.9636955261 45.9455032349
32.5584106445 33.9188156128 45.7402954102
32.5193519592 33.8798408508 45.5362663269
32.4918098450 33.8530120850 45.3347702026
32.4772682190 33.8398971558 45.1361770630
32.4749755859 33.8396949768 44.9403495789
32.4851074219 33.8526000977 44.7473564148
32.5090866089 33.8801078796 44.5575637817
32.5470123291 33.9223213196 44.3710289001
32.5960235596 33.9762191772 44.1871223450
32.6525421143 34.0380363464 44.0050468445
32.7159843445 34.1071586609 43.8246765137
32.7887573242 34.1861152649 43.6465988159
32.8724670410 34.2765998840 43.4712181091
32.9653091431 34.3767204285 43.2981338501
33.0630836487 34.4820327759 43.1263771057
33.1607933044 34.5872802734 42.9547653198
33.2516174316 34.6852645874 42.7816734314
33.3244247437 34.7642478943 42.6044158936
33.3656501770 34.8099288940 42.4196701050
33.3681983948 34.8148269653 42.2256507874
33.3398780823 34.7871742249 42.0241394043
33.2998161316 34.7471466064 41.8197174072
33.2642021179 34.7118072510 41.6163024902
33.2357368469 34.6840057373 41.4145698547
33.2051582336 34.6539726257 41.2122573853
33.1592521667 34.6077842712 41.0061035156
33.0892868042 34.5362319946 40.7938995361
32.9989547729 34.4432029724 40.5764999390
32.9076347351 34.3491363525 40.3586921692
32.8418922424 34.2820358276 40.1471176147
32.8191375732 34.2602653503 39.9462242126
32.8382186890 34.2825965881 39.7558250427
32.8839378357 34.3330154419 39.5721969604
32.9382476807 34.3924903870 39.3908195496
32.9885025024 34.4476928711 39.2084999084
33.0299987793 34.4936561584 39.0240173340
33.0643959045 34.5321388245 38.8377838135
33.0966567993 34.5683631897 38.6510505676
33.1324615479 34.6083259583 38.4652824402
33.1762313843 34.6566848755 38.2816314697
33.2285079956 34.7140083313 38.1002655029
33.2838172913 34.7745285034 37.9197731018
33.3320999146 34.8276443481 37.7375297546
33.3639640808 34.8634490967 37.5510559082
33.3749542236 34.8772506714 37.3591270447
33.3648872375 34.8688468933 37.1616401672
33.3346557617 34.8391914368 36.9587821960
33.2855796814 34.7896690369 36.7508430481
33.2218856812 34.7247428894 36.5389099121
33.1524314880 34.6537437439 36.3253135681
33.0886688232 34.5887451172 36.1131210327
33.0399894714 34.5396499634 35.9048728943
33.0103759766 34.5106468201 35.7016906738
32.9992294312 34.5011177063 35.5034599304
33.0056228638 34.5100708008 35.3099822998
33.0315170288 34.5395851135 35.1218338013
33.0800094604 34.5929145813 34.9399147034
33.1491661072 34.6680297852 34.7637596130
33.2283363342 34.7536926270 34.5904769897
33.3030242920 34.8346328735 34.4160881042
33.3647346497 34.9018898010 34.2382164001
33.4147453308 34.9568214417 34.0571937561
33.4572906494 35.0038757324 33.8741607666
33.4904022217 35.0409889221 33.6885528564
33.5059928894 35.0596351624 33.4980735779
33.4994430542 35.0549430847 33.3013687134
33.4761238098 35.0325813293 33.0999031067
33.4465866089 35.0036659241 32.8966217041
33.4174079895 34.9751243591 32.6933860779
33.3879356384 34.9462814331 32.4900054932
33.3527793884 34.9114418030 32.2849388123
33.3052444458 34.8635597229 32.0762481689
33.2416191101 34.7987174988 31.8628273010
33.1669158936 34.7222061157 31.6460876465
33.0964279175 34.6501388550 31.4304313660
33.0472106934 34.6004867554 31.2208290100
33.0261573792 34.5805168152 31.0193443298
33.0281944275 34.5848808289 30.8245716095
33.0464096069 34.6063003540 30.6345424652
33.0811996460 34.6451797485 30.4494132996
33.1383361816 34.7076148987 30.2709350586
33.2195320129 34.7953948975 30.0996704102
33.3169517517 34.9002761841 29.9333591461
33.4181671143 35.0091514587 29.7683429718
33.5142364502 35.1126022339 29.6019592285
33.5998306274 35.2050132751 29.4326000214
33.6679458618 35.2790069580 29.2581329346
33.7110366821 35.3266296387 29.0762367249
33.7287216187 35.3474769592 28.8867321014
33.7300109863 35.3510513306 28.6922817230
33.7262153625 35.3492622375 28.4962787628
33.7236404419 35.3487625122 28.3006362915
33.7230300903 35.3503341675 28.1055812836
33.7227134705 35.3522148132 27.9106082916
33.7201461792 35.3517227173 27.7149333954
33.7110290527 35.3443298340 27.5172290802
33.6891098022 35.3234481812 27.3155422211
33.6480903625 35.2824440002 27.1078853607
33.5839462280 35.2170715332 26.8929576874
33.4963455200 35.1269874573 26.6705932617
33.3901290894 35.0172920227 26.4422454834
33.2766914368 34.8999900818 26.2114391327
33.1736335754 34.7936248779 25.9836902618
33.1015968323 34.7199478149 25.7655353546
33.0766792297 34.6959190369 25.5621490479
33.1000404358 34.7227478027 25.3740234375
33.1542816162 34.7821159363 25.1957511902
33.2138481140 34.8470916748 25.0192661285
33.2606697083 34.8986434937 24.8388042450
33.2901306152 34.9319000244 24.6528472900
33.3051109314 34.9499015808 24.4622802734
33.3081169128 34.9552879333 24.2678699493
33.2991485596 34.9480590820 24.0695877075
33.2785720825 34.9286003113 23.8675174713
33.2498703003 34.9005851746 23.6627616882
33.2186050415 34.8698654175 23.4571132660
33.1887817383 34.8406677246 23.2518730164
33.1604347229 34.8130302429 23.0470581055
33.1297798157 34.7829589844 22.8414268494
33.0904998779 34.7438011169 22.6328907013
33.0359764099 34.6885871887 22.4192428589
32.9636878967 34.6146583557 22.1996078491
32.8798065186 34.5285186768 21.9759864807
32.7986030579 34.4452056885 21.7531013489
32.7351875305 34.3806304932 21.5360069275
32.6981201172 34.3438110352 21.3276119232
32.6882858276 34.3356781006 21.1282863617
32.7022666931 34.3526306152 20.9369487762
32.7346153259 34.3889350891 20.7518253326
32.7785797119 34.4374694824 20.5706825256
32.8283233643 34.4920883179 20.3915672302
32.8817100525 34.5505485535 20.2137718201
32.9396400452 34.6137924194 20.0376129150
33.0023269653 34.6820449829 19.8631744385
33.0670471191 34.7524375916 19.6895332336
33.1286125183 34.8195075989 19.5149173737
33.1806259155 34.8765144348 19.3371124268
33.2170600891 34.9171104431 19.1540088654
33.2343063354 34.9375000000 18.9643211365
33.2318077087 34.9370918274 18.7678031921
33.2104454041 34.9168128967 18.5647087097
33.1712913513 34.8777999878 18.3553619385
33.1166343689 34.8224563599 18.1405162811
33.0512542725 34.7558212280 17.9218063354
32.9816017151 34.6846923828 17.7014751434
32.9140129089 34.6157341003 17.4817371368
32.8539772034 34.5547294617 17.2645416260
32.8054084778 34.5058059692 17.0512943268
32.7695007324 34.4702186584 16.8424491882
32.7458381653 34.4475288391 16.6378917694
32.7360916138 34.4394912720 16.4382495880
32.7451934814 34.4513015747 16.2453231812
32.7768020630 34.4868202209 16.0604763031
32.8277893066 34.5427398682 15.8826436996
32.8887825012 34.6091995239 15.7084980011
32.9506225586 34.6765518188 15.5347585678
33.0100364685 34.7413444519 15.3602409363
33.0694656372 34.8061523438 15.1858272552
33.1319160461 34.8741416931 15.0126094818
33.1950111389 34.9428062439 14.8397293091
33.2488784790 35.0017585754 14.6635799408
33.2806205750 35.0374031067 14.4794082642
33.2819061279 35.0409812927 14.2840976715
33.2519912720 35.0117073059 14.0772914886
33.1940917969 34.9529609680 13.8600940704
33.1114006042 34.8681182861 13.6336154938
33.0077705383 34.7612228394 13.3992147446
32.8914909363 34.6410140991 13.1599225998
32.7774848938 34.5231971741 12.9212646484
32.6843490601 34.4273605347 12.6901941299
32.6276817322 34.3699264526 12.4726066589
32.6143226624 34.3580932617 12.2711658478
32.6403160095 34.3876914978 12.0844964981
32.6922149658 34.4445648193 11.9076347351
32.7518539429 34.5095901489 11.7337827682
32.8039741516 34.5666961670 11.5571794510
32.8420791626 34.6090469360 11.3753395081
32.8680419922 34.6386108398 11.1889381409
32.8871574402 34.6609649658 10.9999628067
32.9039421082 34.6808662415 10.8101215363
32.9211769104 34.7012405396 10.6204748154
32.9405555725 34.7238731384 10.4316749573
32.9625129700 34.7492179871 10.2438945770
32.9848861694 34.7750015259 10.0563068390
33.0030288696 34.7963294983 9.8671131134
33.0127906799 34.8088378906 9.6746959686
33.0135650635 34.8118782043 9.4787950516
33.0079460144 34.8081932068 9.2804002762
32.9996109009 34.8016471863 9.0809259415
32.9918174744 34.7956733704 8.8816432953
32.9860572815 34.7918395996 8.6831350327
32.9809265137 34.7886657715 8.4848566055
32.9739112854 34.7835083008 8.2858190536
32.9657249451 34.7771224976 8.0862998962
32.9631767273 34.7766685486 7.8889894485
32.9769859314 34.7934379578 7.6981525421
33.0152702332 34.8359642029 7.5170569420
33.0779876709 34.9042129517 7.3457536697
33.1570625305 34.9896812439 7.1810822487
33.2410850525 35.0803527832 7.0185222626
33.3205032349 35.1661796570 6.8542575836
33.3907661438 35.2423667908 6.6864461899
33.4523506165 35.3094139099 6.5152568817
33.5074386597 35.3696250916 6.3415479660
33.5561981201 35.4231758118 6.1653680801
33.5969276428 35.4682731628 5.9860138893
33.6294250488 35.5046997070 5.8033781052
33.6559219360 35.5348167419 5.6183509827
33.6774520874 35.5597000122 5.4313364029
33.6900482178 35.5751800537 5.2406988144
33.6863479614 35.5735130310 5.0434002876
33.6615600586 35.5496444702 4.8374261856
33.6173515320 35.5053405762 4.6234102249
33.5603904724 35.4476127625 4.4040489197
33.4987869263 35.3850059509 4.1826624870
33.4403343201 35.3257102966 3.9624626637
33.3915672302 35.2766075134 3.7461717129
33.3559951782 35.2414016724 3.5352773666
33.3331756592 35.2196121216 3.3296260834
33.3200416565 35.2080154419 3.1279726028
33.3129158020 35.2027473450 2.9288043976
33.3081054688 35.1999130249 2.7305872440
33.3015556335 35.1952514648 2.5316228867
33.2896995544 35.1850013733 2.3304035664
33.2720832825 35.1686859131 2.1267230511
33.2532157898 35.1510620117 1.9224761724
33.2404479980 35.1398582458 1.7207744122
33.2382850647 35.1398124695 1.5235470533
33.2438163757 35.1478614807 1.3295818567
33.2478103638 35.1542930603 1.1349648237
33.2415580750 35.1499443054 0.9359671474
33.2236175537 35.1332969666 0.7319449782
33.2001037598 35.1107826233 0.5254911780
33.1789054871 35.0907058716 0.3199827969
33.1641120911 35.0773696899 0.1171913072
28.9658927917 -13.3424053192 89.5154571533
29.0014438629 -13.3610992432 89.3154907227
29.0589427948 -13.3915739059 89.1163482666
29.1225166321 -13.4253091812 88.9174957275
29.1758823395 -13.4535665512 88.7183456421
29.2097873688 -13.4713773727 88.5185241699
29.2243423462 -13.4788017273 88.3180007935
29.2248001099 -13.4786596298 88.1169357300
29.2151432037 -13.4730882645 87.9154510498
29.1931781769 -13.4609098434 87.7134475708
29.1488513947 -13.4367275238 87.5104827881
29.0678558350 -13.3928632736 87.3058929443
28.9408340454 -13.3242940903 87.0992202759
28.7722015381 -13.2333879471 86.8905410767
28.5809650421 -13.1303482056 86.6806182861
28.3936538696 -13.0294151306 86.4705886841
28.2353172302 -12.9440336227 86.2616119385
28.1224994659 -12.8830862045 86.0545196533
28.0618820190 -12.8501577377 85.8497085571
28.0582065582 -12.8477954865 85.6475219727
28.1283035278 -12.8850336075 85.4488983154
28.3061332703 -12.9800996780 85.2556686401
28.6225700378 -13.1495685577 85.0695877075
29.0662059784 -13.3873186111 84.8903884888
29.5643653870 -13.6543369293 84.7145996094
30.0160369873 -13.8964023590 84.5370941162
30.3513126373 -14.0759878159 84.3540725708
30.5606098175 -14.1879501343 84.1647949219
30.6769599915 -14.2500200272 83.9707717896
30.7428302765 -14.2849922180 83.7741394043
30.7904624939 -14.3101749420 83.5765762329
30.8369789124 -14.3347578049 83.3790130615
30.8843021393 -14.3597745895 83.1815490723
30.9213924408 -14.3792991638 82.9835510254
30.9322242737 -14.3847274780 82.7840652466
30.9069595337 -14.3707790375 82.5824584961
30.8472442627 -14.3383378983 82.3787460327
30.7612895966 -14.2918100357 82.1733551025
30.6563339233 -14.2350826263 81.9666671753
30.5370483398 -14.1706628799 81.7589416504
30.4079856873 -14.1009941101 81.5504226685
30.2731208801 -14.0282096863 81.3413467407
30.1319274902 -13.9520282745 81.1316680908
29.9787387848 -13.8694067001 80.9210052490
29.8098106384 -13.7783365250 80.7090835571
29.6335468292 -13.6833267212 80.4964294434
29.4734840393 -13.5970134735 80.2846069336
29.3593711853 -13.5353670120 80.0756454468
29.3131160736 -13.5101480484 79.8711471558
29.3395595551 -13.5239543915 79.6715927124
29.4247207642 -13.5692834854 79.4761581421
29.5409526825 -13.6312913895 79.2830200195
29.6593704224 -13.6944723129 79.0901947021
29.7624130249 -13.7494010925 78.8964233398
29.8440589905 -13.7928428650 78.7012405396
29.8992767334 -13.8220977783 78.5042266846
29.9184417725 -13.8319978714 78.3046188354
29.8941650391 -13.8185777664 78.1017913818
29.8303852081 -13.7839508057 77.8959426880
29.7425670624 -13.7364187241 77.6881637573
29.6492023468 -13.6859083176 77.4798278809
29.5628166199 -13.6391448975 77.2718963623
29.4885177612 -13.5988702774 77.0647735596
29.4326210022 -13.5684738159 76.8589935303
29.4138698578 -13.5580186844 76.6560745239
29.4641246796 -13.5846090317 76.4586639404
29.6124782562 -13.6638631821 76.2692642212
29.8625812531 -13.7977418900 76.0883789063
30.1822872162 -13.9689884186 75.9135742188
30.5177631378 -14.1487007141 75.7405242920
30.8224563599 -14.3118886948 75.5653610229
31.0770263672 -14.4481687546 75.3863754272
31.2871799469 -14.5606040955 75.2039642334
31.4681682587 -14.6573829651 75.0193328857
31.6303443909 -14.7440614700 74.8333206177
31.7722320557 -14.8198490143 74.6457595825
31.8818225861 -14.8782987595 74.4555435181
31.9458332062 -14.9122781754 74.2614288330
31.9628906250 -14.9210500717 74.0631866455
31.9509887695 -14.9142751694 73.8623580933
31.9393310547 -14.9076309204 73.6615219116
31.9466323853 -14.9111652374 73.4624023438
31.9653434753 -14.9208250046 73.2643356323
31.9698314667 -14.9228496552 73.0649566650
31.9412727356 -14.9071311951 72.8624877930
31.8858852386 -14.8770103455 72.6574325562
31.8340892792 -14.8488168716 72.4526290894
31.8274707794 -14.8448772430 72.2520751953
31.9050407410 -14.8861370087 72.0596389771
32.0908660889 -14.9855165482 71.8778305054
32.3808822632 -15.1408338547 71.7064895630
32.7369804382 -15.3316316605 71.5420684814
33.1002769470 -15.5262947083 71.3788604736
33.4181404114 -15.6965665817 71.2116165161
33.6644401550 -15.8284168243 71.0375900269
33.8414649963 -15.9230766296 70.8568801880
33.9684028625 -15.9908447266 70.6712875366
34.0662879944 -16.0430145264 70.4828720093
34.1481552124 -16.0865840912 70.2929306030
34.2185516357 -16.1239967346 70.1018981934
34.2778625488 -16.1554584503 69.9097900391
34.3236541748 -16.1796627045 69.7163314819
34.3497962952 -16.1933135986 69.5208358765
34.3498535156 -16.1929645538 69.3225784302
34.3238105774 -16.1785984039 69.1214904785
34.2809028625 -16.1551799774 68.9185256958
34.2379264832 -16.1317214966 68.7154846191
34.2172775269 -16.1202526093 68.5148239136
34.2431221008 -16.1337451935 68.3192825317
34.3309936523 -16.1805400848 68.1306838989
34.4762878418 -16.2581672668 67.9486389160
34.6546821594 -16.3535671234 67.7705230713
34.8372726440 -16.4512195587 67.5931396484
35.0065422058 -16.5417194366 67.4144744873
35.1595840454 -16.6235084534 67.2341766357
35.3011054993 -16.6991119385 67.0527572632
35.4362487793 -16.7712898254 66.8707885742
35.5670585632 -16.8411426544 66.6884918213
35.6919136047 -16.9077987671 66.5056686401
35.8071937561 -16.9693145752 66.3218841553
35.9095230103 -17.0238761902 66.1367111206
35.9965896606 -17.0702438354 65.9498443604
36.0668830872 -17.1076049805 65.7610626221
36.1199226379 -17.1357021332 65.5702819824
36.1567230225 -17.1550807953 65.3775863647
36.1794891357 -17.1669235229 65.1832122803
36.1909675598 -17.1727066040 64.9874649048
36.1943855286 -17.1741600037 64.7907257080
36.1937599182 -17.1734447479 64.5934753418
36.1939849854 -17.1731853485 64.3963241577
36.2006874084 -17.1764049530 64.1999893188
36.2202377319 -17.1865215302 64.0052795410
36.2594070435 -17.2071723938 63.8130989075
36.3237266541 -17.2413272858 63.6241989136
36.4147186279 -17.2898025513 63.4388237000
36.5287094116 -17.3506298065 63.2565612793
36.6593017578 -17.4203701019 63.0766143799
36.8007011414 -17.4959144592 62.8982696533
36.9481277466 -17.5746936798 62.7209091187
37.0966033936 -17.6540374756 62.5438919067
37.2422790527 -17.7318801880 62.3667030334
37.3851623535 -17.8082199097 62.1893348694
37.5279350281 -17.8845024109 62.0121498108
37.6697425842 -17.9602680206 61.8350257874
37.8018455505 -18.0308227539 61.6567726135
37.9113998413 -18.0892696381 61.4756126404
37.9892272949 -18.1306819916 61.2902259827
38.0325889587 -18.1535854340 61.1001739502
38.0418815613 -18.1581993103 60.9054374695
38.0185470581 -18.1452903748 60.7061424255
37.9677009583 -18.1176090240 60.5029373169
37.9009132385 -18.0813674927 60.2974014282
37.8340301514 -18.0450763702 60.0917472839
37.7812423706 -18.0163536072 59.8880043030
37.7505722046 -17.9995040894 59.6873435974
37.7446708679 -17.9959583282 59.4902038574
37.7654151917 -18.0067176819 59.2969055176
37.8169097900 -18.0339908600 59.1081047058
37.9036750793 -18.0802021027 58.9245262146
38.0265922546 -18.1458263397 58.7463722229
38.1812133789 -18.2284755707 58.5730667114
38.3585395813 -18.3233165741 58.4033393860
38.5458755493 -18.4235343933 58.2353515625
38.7287788391 -18.5213718414 58.0669555664
38.8961830139 -18.6108894348 57.8964767456
39.0447425842 -18.6902828217 57.7233810425
39.1765289307 -18.7606735229 57.5479393005
39.2923431396 -18.8224868774 57.3702392578
39.3885116577 -18.8737506866 57.1896820068
39.4596672058 -18.9115867615 57.0054016113
39.5023574829 -18.9341316223 56.8168106079
39.5141258240 -18.9400749207 56.6234626770
39.4899902344 -18.9267387390 56.4245147705
39.4239425659 -18.8908939362 56.2189521790
39.3185424805 -18.8339176178 56.0070838928
39.1934394836 -18.7663631439 55.7919387817
39.0808372498 -18.7055168152 55.5785942078
39.0112342834 -18.6677646637 55.3719482422
39.0039138794 -18.6634559631 55.1751899719
39.0652732849 -18.6960277557 54.9894790649
39.1867294312 -18.7608737946 54.8135757446
39.3438224792 -18.8448562622 54.6436309814
39.5068397522 -18.9320182800 54.4748687744
39.6581153870 -19.0128803253 54.3044052124
39.7972755432 -19.0872325897 54.1321525574
39.9302597046 -19.1582679749 53.9590644836
40.0579299927 -19.2264537811 53.7852783203
40.1763153076 -19.2896518707 53.6101150513
40.2840156555 -19.3471126556 53.4333229065
40.3856010437 -19.4012889862 53.2556457520
40.4863548279 -19.4550189972 53.0779647827
40.5848922729 -19.5075607300 52.9000434875
40.6728782654 -19.5544357300 52.7204551697
40.7419090271 -19.5911312103 52.5377426147
40.7889175415 -19.6160011292 52.3513336182
40.8149757385 -19.6296195984 52.1613693237
40.8201599121 -19.6320285797 51.9678192139
40.7997741699 -19.6207065582 51.7698173523
40.7457771301 -19.5913314819 51.5659065247
40.6529922485 -19.5411281586 51.3551101685
40.5248222351 -19.4719238281 51.1379432678
40.3745460510 -19.3908443451 50.9166793823
40.2256546021 -19.3105087280 50.6954345703
40.1118316650 -19.2490062714 50.4802207947
40.0667877197 -19.2244396210 50.2771453857
40.1032524109 -19.2436447144 50.0886383057
40.2022018433 -19.2964096069 49.9114494324
40.3283729553 -19.3637905121 49.7393188477
40.4563369751 -19.4321365356 49.5676841736
40.5801429749 -19.4982509613 49.3954658508
40.7029113770 -19.5638065338 49.2232284546
40.8249893188 -19.6289939880 49.0510253906
40.9430351257 -19.6920127869 48.8782463074
41.0550003052 -19.7517681122 48.7045021057
41.1613349915 -19.8085002899 48.5298576355
41.2607650757 -19.8615245819 48.3540687561
41.3472824097 -19.9076137543 48.1759910583
41.4124259949 -19.9422264099 47.9940071106
41.4498825073 -19.9619655609 47.8068771362
41.4573516846 -19.9656028748 47.6141090393
41.4356269836 -19.9535598755 47.4157829285
41.3881225586 -19.9276733398 47.2124938965
41.3229942322 -19.8923206329 47.0057487488
41.2546806335 -19.8552570343 46.7982902527
41.2001647949 -19.8256034851 46.5933914185
41.1719818115 -19.8100910187 46.3935127258
41.1755180359 -19.8116168976 46.1997604370
41.2121810913 -19.8309326172 46.0124740601
41.2821083069 -19.8681125641 45.8317489624
41.3831710815 -19.9220161438 45.6572456360
41.5095329285 -19.9895057678 45.4878692627
41.6525535583 -20.0659446716 45.3219680786
41.8027420044 -20.1462306976 45.1576881409
41.9508018494 -20.2253761292 44.9931907654
42.0881690979 -20.2987785339 44.8267517090
42.2085533142 -20.3630599976 44.6570892334
42.3105163574 -20.4174499512 44.4838714600
42.3982543945 -20.4641971588 44.3079109192
42.4780960083 -20.5067043304 44.1304664612
42.5530319214 -20.5465774536 43.9521217346
42.6205787659 -20.5824832916 43.7723693848
42.6756668091 -20.6116962433 43.5901451111
42.7150077820 -20.6324539185 43.4047470093
42.7392997742 -20.6451263428 43.2162857056
42.7522544861 -20.6517105103 43.0255012512
42.7580261230 -20.6544380188 42.8332290649
42.7589073181 -20.6545372009 42.6399383545
42.7540855408 -20.6515750885 42.4454421997
42.7399291992 -20.6435966492 42.2489700317
42.7128372192 -20.6286735535 42.0497398376
42.6741180420 -20.6075038910 41.8480033875
42.6328544617 -20.5849685669 41.6456604004
42.6032409668 -20.5686893463 41.4457321167
42.5982093811 -20.5656127930 41.2510108948
42.6235466003 -20.5788478851 41.0627937317
42.6760215759 -20.6066589355 40.8804435730
42.7474822998 -20.6446666718 40.7022628784
42.8318786621 -20.6896247864 40.5269775391
42.9278907776 -20.7408199310 40.3543319702
43.0352058411 -20.7980861664 40.1842765808
43.1503372192 -20.8595523834 40.0160789490
43.2661323547 -20.9213752747 39.8481864929
43.3735084534 -20.9786758423 39.6785926819
43.4635848999 -21.0266838074 39.5053215027
43.5305137634 -21.0622596741 39.3270378113
43.5738067627 -21.0851402283 39.1435890198
43.5976943970 -21.0975990295 38.9558601379
43.6074981689 -21.1024913788 38.7650032043
43.6058349609 -21.1012248993 38.5715789795
43.5912895203 -21.0930404663 38.3752441406
43.5603752136 -21.0760650635 38.1751785278
43.5115203857 -21.0494499207 37.9709968567
43.4478378296 -21.0148696899 37.7633628845
43.3766784668 -20.9762763977 37.5539245605
43.3079719543 -20.9389991760 37.3449363708
43.2537193298 -20.9094848633 37.1391601563
43.2265777588 -20.8945331573 36.9395446777
43.2354583740 -20.8989295959 36.7481994629
43.2812309265 -20.9231433868 36.5654067993
43.3580398560 -20.9640274048 36.3898811340
43.4599533081 -21.0183963776 36.2203140259
43.5853385925 -21.0853729248 36.0563735962
43.7321853638 -21.1638774872 35.8976325989
43.8891372681 -21.2478122711 35.7414741516
44.0345344543 -21.3255386353 35.5828056335
44.1469116211 -21.3855304718 35.4165191650
44.2177581787 -21.4232120514 35.2405281067
44.2554740906 -21.4430999756 35.0567359924
44.2782783508 -21.4549770355 34.8694343567
44.3027534485 -21.4677524567 34.6825523376
44.3368911743 -21.4857177734 34.4980201721
44.3802566528 -21.5086402893 34.3157539368
44.4273147583 -21.5335464478 34.1344337463
44.4706153870 -21.5564327240 33.9522590637
44.5035171509 -21.5737342834 33.7676124573
44.5224189758 -21.5835151672 33.5795898438
44.5272521973 -21.5857410431 33.3881454468
44.5201950073 -21.5815773010 33.1937828064
44.5041847229 -21.5726070404 32.9972038269
44.4823417664 -21.5605010986 32.7991523743
44.4578857422 -21.5469932556 32.6004104614
44.4339218140 -21.5337486267 32.4017524719
44.4129867554 -21.5221290588 32.2038040161
44.3966941833 -21.5130062103 32.0069770813
44.3857688904 -21.5067653656 31.8114624023
44.3803215027 -21.5034675598 31.6172981262
44.3801155090 -21.5029850006 31.4244384766
44.3847274780 -21.5050888062 31.2327842712
44.3935813904 -21.5094738007 31.0422039032
44.4059600830 -21.5157508850 30.8525199890
44.4209403992 -21.5234260559 30.6635112762
44.4373245239 -21.5318546295 30.4748725891
44.4534606934 -21.5401515961 30.2861843109
44.4672584534 -21.5471916199 30.0969123840
44.4769668579 -21.5520362854 29.9066009521
44.4827880859 -21.5547904968 29.7152881622
44.4876861572 -21.5570487976 29.5237388611
44.4954147339 -21.5608291626 29.3329219818
44.5066909790 -21.5665149689 29.1430320740
44.5175743103 -21.5719909668 28.9530487061
44.5222129822 -21.5741081238 28.7614364624
44.5170860291 -21.5709819794 28.5672607422
44.5025634766 -21.5628089905 28.3705959320
44.4811744690 -21.5509471893 28.1720924377
44.4553413391 -21.5366973877 27.9723739624
44.4270935059 -21.5211505890 27.7719688416
44.3994636536 -21.5059356689 27.5716781616
44.3775749207 -21.4938030243 27.3728733063
44.3675117493 -21.4880256653 27.1771907806
44.3734741211 -21.4908561707 26.9857826233
44.3954544067 -21.5022926331 26.7986831665
44.4293861389 -21.5201473236 26.6148262024
44.4697341919 -21.5414524078 26.4327468872
44.5128631592 -21.5642490387 26.2514686584
44.5589065552 -21.5886116028 26.0710372925
44.6113357544 -21.6164035797 25.8924007416
44.6742172241 -21.6498126984 25.7166881561
44.7479400635 -21.6890468597 25.5440273285
44.8260536194 -21.7306385040 25.3726692200
44.8971214294 -21.7684459686 25.1994743347
44.9513587952 -21.7972106934 25.0217266083
44.9856605530 -21.8152675629 24.8385314941
45.0019683838 -21.8236560822 24.6503868103
45.0015563965 -21.8230648041 24.4576053619
44.9820213318 -21.8121986389 24.2594814301
44.9404029846 -21.7894668579 24.0551471710
44.8791542053 -21.7561912537 23.8452434540
44.8081817627 -21.7176914215 23.6325092316
44.7396736145 -21.6805133820 23.4203605652
44.6800842285 -21.6481266022 23.2106246948
44.6260871887 -21.6187458038 23.0023784637
44.5670547485 -21.5866584778 22.7926177979
44.4934616089 -21.5467491150 22.5786190033
44.4088516235 -21.5009212494 22.3613643646
44.3360519409 -21.4614372253 22.1473579407
44.3057899475 -21.4448070526 21.9454383850
44.3321380615 -21.4585895538 21.7597408295
44.3990707397 -21.4941749573 21.5857677460
44.4733390808 -21.5337028503 21.4140033722
44.5286712646 -21.5630569458 21.2368526459
44.5573730469 -21.5781040192 21.0520420074
44.5652847290 -21.5819816589 20.8612117767
44.5621528625 -21.5799274445 20.6671619415
44.5557594299 -21.5761184692 20.4721469879
44.5498886108 -21.5725936890 20.2772674561
44.5442771912 -21.5692062378 20.0824470520
44.5356750488 -21.5642108917 19.8867282867
44.5196762085 -21.5552425385 19.6888046265
44.4926452637 -21.5403461456 19.4875850677
44.4528656006 -21.5186023712 19.2825336456
44.4005584717 -21.4901275635 19.0736904144
44.3376655579 -21.4559650421 18.8616065979
44.2679862976 -21.4181537628 18.6473941803
44.1970405579 -21.3796634674 18.4326953888
44.1318855286 -21.3442840576 18.2196254730
44.0813255310 -21.3167476654 18.0108509064
44.0548820496 -21.3021659851 17.8092708588
44.0592880249 -21.3041591644 17.6169795990
44.0952033997 -21.3230819702 17.4342422485
44.1577072144 -21.3562908173 17.2596282959
44.2400245667 -21.4001445770 17.0911331177
44.3359375000 -21.4513034821 16.9269008636
44.4386100769 -21.5060939789 16.7648677826
44.5393753052 -21.5598602295 16.6023883820
44.6299400330 -21.6081466675 16.4369068146
44.7056236267 -21.6484355927 16.2669601440
44.7658500671 -21.6804237366 16.0923366547
44.8122062683 -21.7049579620 15.9134979248
44.8464660645 -21.7229919434 15.7309608459
44.8696975708 -21.7350997925 15.5450334549
44.8823204041 -21.7415103912 15.3558235168
44.8847961426 -21.7424678802 15.1634511948
44.8784141541 -21.7386665344 14.9682998657
44.8654632568 -21.7313346863 14.7710676193
44.8483467102 -21.7217655182 14.5724973679
44.8280639648 -21.7104949951 14.3728961945
44.8032341003 -21.6967792511 14.1718196869
44.7711982727 -21.6791954041 13.9684171677
44.7314453125 -21.6574630737 13.7625083923
44.6884078979 -21.6339664459 13.5554895401
44.6503295898 -21.6131324768 13.3499813080
44.6252136230 -21.5992641449 13.1485557556
44.6183395386 -21.5951976776 12.9529323578
44.6326217651 -21.6024990082 12.7640848160
44.6687393188 -21.6215324402 12.5822792053
44.7233428955 -21.6504974365 12.4064817429
44.7882995605 -21.6850261688 12.2341012955
44.8543090820 -21.7201213837 12.0621471405
44.9165115356 -21.7531719208 11.8890438080
44.9757919312 -21.7846508026 11.7150697708
45.0340576172 -21.8155860901 11.5408430099
45.0890579224 -21.8447666168 11.3656225204
45.1344299316 -21.8687725067 11.1873178482
45.1637191772 -21.8841381073 11.0037908554
45.1732177734 -21.8888683319 10.8137836456
45.1621894836 -21.8825702667 10.6170129776
45.1331901550 -21.8666152954 10.4142770767
45.0925407410 -21.8444004059 10.2076330185
45.0486183167 -21.8204269409 9.9998359680
45.0082054138 -21.7983379364 9.7931346893
44.9743995667 -21.7798023224 9.5885715485
44.9477615356 -21.7651138306 9.3863439560
44.9284286499 -21.7543525696 9.1865177155
44.9171180725 -21.7479019165 8.9893465042
44.9148292542 -21.7462997437 8.7951841354
44.9223709106 -21.7499771118 8.6043233871
44.9403915405 -21.7592868805 8.4170045853
44.9702110291 -21.7749385834 8.2336969376
45.0147056580 -21.7984752655 8.0553998947
45.0774879456 -21.8318367004 7.8833742142
45.1594505310 -21.8755073547 7.7179632187
45.2552528381 -21.9266128540 7.5573844910
45.3542938232 -21.9794597626 7.3980436325
45.4464035034 -22.0285835266 7.2364611626
45.5265655518 -22.0712852478 7.0708985329
45.5943870544 -22.1073570251 6.9011964798
45.6509895325 -22.1373996735 6.7277140617
45.6974945068 -22.1620178223 6.5508160591
45.7345924377 -22.1815795898 6.3707180023
45.7613983154 -22.1956119537 6.1870923042
45.7756423950 -22.2028942108 5.9991297722
45.7766189575 -22.2030467987 5.8065552711
45.7672462463 -22.1976394653 5.6103610992
45.7521705627 -22.1891651154 5.4121475220
45.7344131470 -22.1792507172 5.2129654884
45.7147026062 -22.1682853699 5.0130624771
45.6931495667 -22.1563320160 4.8124752045
45.6707839966 -22.1439399719 4.6115603447
45.6496810913 -22.1322288513 4.4110531807
45.6322593689 -22.1224937439 4.2118101120
45.6205253601 -22.1158161163 4.0145535469
45.6156921387 -22.1128444672 3.8197259903
45.6180877686 -22.1137619019 3.6274607182
45.6272430420 -22.1183071136 3.4376029968
45.6420364380 -22.1258850098 3.2497687340
45.6609115601 -22.1356544495 3.0634105206
45.6820297241 -22.1466312408 2.8778781891
45.7034645081 -22.1577777863 2.6924810410
45.7234649658 -22.1681518555 2.5065886974
45.7407379150 -22.1770610809 2.3197317123
45.7545013428 -22.1840877533 2.1316213608
45.7642097473 -22.1889305115 1.9420490265
45.7691154480 -22.1911945343 1.7507375479
45.7679252625 -22.1901817322 1.5572044849
45.7586135864 -22.1848049164 1.3606958389
45.7388687134 -22.1738224030 1.1603500843
45.7075996399 -22.1566448212 0.9557443261
45.6669349670 -22.1344203949 0.7476364970
45.6233253479 -22.1106109619 0.5383763313
45.5866203308 -22.0905132294 0.3315921426
45.5671195984 -22.0796604156 0.1311008483
20.2938022614 11.9734067917 88.6051559448
20.3123092651 11.9869661331 88.3982620239
20.3507595062 12.0130748749 88.1918945313
20.4038639069 12.0484066010 87.9859695435
20.4684123993 12.0909376144 87.7804183960
20.5426177979 12.1395454407 87.5752258301
20.6237869263 12.1925354004 87.3703308105
20.7078723907 12.2473583221 87.1656265259
20.7898464203 12.3008518219 86.9609680176
20.8622341156 12.3483133316 86.7561187744
20.9138736725 12.3827171326 86.5507049561
20.9327869415 12.3965272903 86.3442993164
20.9126186371 12.3857460022 86.1366195679
20.8587760925 12.3537759781 85.9277572632
20.7900238037 12.3124256134 85.7183074951
20.7320728302 12.2778730392 85.5091247559
20.7065277100 12.2637100220 85.3010177612
20.7260475159 12.2779035568 85.0945129395
20.8017902374 12.3274717331 84.8901290894
20.9533615112 12.4247503281 84.6887207031
21.2042579651 12.5845193863 84.4913711548
21.5588569641 12.8095331192 84.2984466553
21.9813480377 13.0772581100 84.1087493896
22.4038162231 13.3449640274 83.9196319580
22.7625370026 13.5725574493 83.7284622192
23.0290164948 13.7421112061 83.5338897705
23.2107048035 13.8583164215 83.3360366821
23.3314323425 13.9361667633 83.1357727051
23.4145278931 13.9903392792 82.9340057373
23.4763298035 14.0311155319 82.7313766479
23.5251350403 14.0637130737 82.5282440186
23.5619831085 14.0887899399 82.3246078491
23.5835437775 14.1042470932 82.1202926636
23.5863361359 14.1078977585 81.9151000977
23.5700588226 14.0995512009 81.7089843750
23.5379467010 14.0812454224 81.5020446777
23.4941921234 14.0556135178 81.2944717407
23.4401168823 14.0234918594 81.0863113403
23.3722095490 13.9826679230 80.8773422241
23.2849349976 13.9296627045 80.6672668457
23.1787815094 13.8647832870 80.4560623169
23.0678215027 13.7968807220 80.2444381714
22.9771747589 13.7417583466 80.0337524414
22.9289684296 13.7133331299 79.8252639771
22.9293575287 13.7154779434 79.6194000244
22.9688568115 13.7422218323 79.4157333374
23.0323028564 13.7840299606 79.2134857178
23.1072502136 13.8330707550 79.0119857788
23.1873970032 13.8853807449 78.8108825684
23.2729053497 13.9410629272 78.6102066040
23.3673877716 14.0023880005 78.4101791382
23.4732818604 14.0708913803 78.2109680176
23.5898666382 14.1461162567 78.0125503540
23.7130794525 14.2255077362 77.8147048950
23.8338184357 14.3033428192 77.6168670654
23.9376182556 14.3705234528 77.4181137085
24.0104808807 14.4182434082 77.2175216675
24.0475711823 14.4434633255 77.0146942139
24.0569629669 14.4512634277 76.8100967407
24.0555038452 14.4522380829 76.6047897339
24.0596065521 14.4567117691 76.3998413086
24.0793285370 14.4710083008 76.1959457397
24.1243896484 14.5012397766 75.9938049316
24.2227916718 14.5650177002 75.7954025269
24.4327869415 14.6989755630 75.6049270630
24.8174343109 14.9427680969 75.4270629883
25.3812122345 15.2992057800 75.2624969482
26.0300235748 15.7091140747 75.1048355103
26.6173133850 16.0803241730 74.9436187744
27.0410804749 16.3486919403 74.7712249756
27.2925243378 16.5086898804 74.5866546631
27.4244289398 16.5935115814 74.3934936523
27.4959793091 16.6403751373 74.1959533691
27.5458564758 16.6736125946 73.9968566895
27.5931587219 16.7052288055 73.7976150513
27.6447467804 16.7395401001 73.5987701416
27.6987380981 16.7753601074 73.4001770020
27.7459011078 16.8068885803 73.2011184692
27.7729682922 16.8257789612 73.0005111694
27.7704334259 16.8260536194 72.7975463867
27.7416515350 16.8098278046 72.5924453735
27.7063217163 16.7894821167 72.3867568970
27.6934909821 16.7832851410 72.1828689575
27.7276687622 16.8066463470 71.9828643799
27.8164634705 16.8643493652 71.7874984741
27.9474315643 16.9485664368 71.5958099365
28.0976161957 17.0448646545 71.4059448242
28.2496891022 17.1423492432 71.2164459229
28.4004898071 17.2390308380 71.0270462036
28.5551719666 17.3381519318 70.8381881714
28.7151775360 17.4406185150 70.6500167847
28.8719863892 17.5410709381 70.4617691040
29.0106468201 17.6301136017 70.2721176147
29.1190643311 17.7001399994 70.0799179077
29.1950244904 17.7497577667 69.8849029541
29.2455196381 17.7833652496 69.6876525879
29.2803554535 17.8071289063 69.4890136719
29.3064632416 17.8254032135 69.2896041870
29.3266448975 17.8399524689 69.0896682739
29.3419532776 17.8514385223 68.8892898560
29.3536491394 17.8606529236 68.6885833740
29.3613052368 17.8673286438 68.4874954224
29.3587627411 17.8675899506 68.2854232788
29.3349037170 17.8544540405 68.0812606812
29.2833499908 17.8239078522 67.8743362427
29.2146720886 17.7825965881 67.6656341553
29.1576766968 17.7486305237 67.4579925537
29.1440525055 17.7419300079 67.2546157837
29.1888980865 17.7719841003 67.0571060181
29.2849845886 17.8342475891 66.8648757935
29.4125671387 17.9163074493 66.6759948730
29.5530242920 18.0064601898 66.4886093140
29.6968307495 18.0987148285 66.3017654419
29.8425540924 18.1921730042 66.1153182983
29.9895477295 18.2864284515 65.9291992188
30.1327819824 18.3783187866 65.7428894043
30.2650566101 18.4633197784 65.5556030273
30.3817062378 18.5384960175 65.3668136597
30.4813060760 18.6029548645 65.1763381958
30.5633716583 18.6563911438 64.9840927124
30.6265697479 18.6979675293 64.7898864746
30.6690196991 18.7265033722 64.5934677124
30.6919765472 18.7427883148 64.3949432373
30.7051582336 18.7529277802 64.1953582764
30.7256832123 18.7676811218 63.9966011047
30.7664031982 18.7951278687 63.8001480103
30.8239059448 18.8331222534 63.6056556702
30.8812217712 18.8709983826 63.4112129211
30.9246253967 18.9001312256 63.2152442932
30.9585342407 18.9232940674 63.0182266235
31.0055561066 18.9547004700 62.8227767944
31.0923271179 19.0110855103 62.6320495605
31.2318134308 19.1005973816 62.4476585388
31.4152240753 19.2177124023 62.2686729431
31.6187000275 19.3474349976 62.0923347473
31.8178958893 19.4744682312 61.9157638550
31.9984664917 19.5897903442 61.7372169495
32.1564521790 19.6909198761 61.5561676025
32.2921981812 19.7780704498 61.3726196289
32.4053077698 19.8509941101 61.1864700317
32.4946136475 19.9089565277 60.9975280762
32.5611343384 19.9526023865 60.8058662415
32.6099662781 19.9851322174 60.6120834351
32.6492042542 20.0116329193 60.4171485901
32.6859397888 20.0365581512 60.2219467163
32.7203788757 20.0600433350 60.0264968872
32.7427330017 20.0759315491 59.8295402527
32.7390861511 20.0754852295 59.6292610168
32.7043876648 20.0555229187 59.4249496460
32.6497726440 20.0230522156 59.2179908752
32.5962600708 19.9912700653 59.0110893250
32.5628585815 19.9721260071 58.8067474365
32.5616302490 19.9732017517 58.6066055298
32.5998535156 19.9990615845 58.4116973877
32.6810340881 20.0519104004 58.2225761414
32.8025894165 20.1301288605 58.0389862061
32.9552841187 20.2279090881 57.8597679138
33.1267242432 20.3374652863 57.6833038330
33.3051490784 20.4514083862 57.5080299377
33.4807815552 20.5635948181 57.3326148987
33.6459770203 20.6692199707 57.1560020447
33.7949714661 20.7646675110 56.9773712158
33.9228858948 20.8468666077 56.7960052490
34.0251541138 20.9129543304 56.6112213135
34.0989608765 20.9611587524 56.4225654602
34.1453094482 20.9921112061 56.2301254272
34.1689834595 21.0088176727 56.0345191956
34.1760101318 21.0150680542 55.8365554810
34.1710205078 21.0137691498 55.6368713379
34.1568832397 21.0067234039 55.4358520508
34.1368980408 20.9960041046 55.2339515686
34.1173019409 20.9855308533 55.0320739746
34.1066894531 20.9806995392 54.8314781189
34.1122474670 20.9860248566 54.6332359314
34.1372833252 21.0035896301 54.4378738403
34.1826591492 21.0339298248 54.2455596924
34.2490005493 21.0774364471 54.0564308167
34.3372459412 21.1347045898 53.8706741333
34.4487991333 21.2066135406 53.6885490417
34.5842208862 21.2935123444 53.5101890564
34.7385253906 21.3922691345 53.3348846436
34.8976249695 21.4940357208 53.1605224609
35.0430412292 21.5872058868 52.9842796326
35.1623725891 21.6639919281 52.8042106628
35.2544746399 21.7236747742 52.6200828552
35.3245849609 21.7695388794 52.4326553345
35.3771324158 21.8043727875 52.2425689697
35.4151191711 21.8300609589 52.0502624512
35.4433174133 21.8495998383 51.8564567566
35.4669036865 21.8662433624 51.6619529724
35.4862136841 21.8801994324 51.4667930603
35.4955749512 21.8879070282 51.2700614929
35.4882812500 21.8851566315 51.0706558228
35.4622001648 21.8706035614 50.8682022095
35.4224510193 21.8474674225 50.6634864807
35.3813362122 21.8234748840 50.4584846497
35.3559722900 21.8093738556 50.2559890747
35.3643074036 21.8164405823 50.0589866638
35.4202003479 21.8533706665 49.8698272705
35.5273094177 21.9224662781 49.6892280579
35.6746444702 22.0168228149 49.5154609680
35.8398628235 22.1224079132 49.3448867798
36.0002517700 22.2249584198 49.1737251282
36.1428108215 22.3163089752 48.9997825623
36.2670440674 22.3961505890 48.8229331970
36.3809928894 22.4695301056 48.6445045471
36.4930915833 22.5417480469 48.4659118652
36.6040992737 22.6132812500 48.2872848511
36.7057533264 22.6789379120 48.1072006226
36.7879447937 22.7323703766 47.9238891602
36.8470840454 22.7713279724 47.7366828918
36.8878211975 22.7987308502 47.5463523865
36.9183387756 22.8197116852 47.3542823792
36.9440116882 22.8376560211 47.1613960266
36.9632835388 22.8515758514 46.9674072266
36.9685173035 22.8566837311 46.7709541321
36.9530029297 22.8487606049 46.5708122253
36.9186019897 22.8289833069 46.3672714233
36.8761672974 22.8041591644 46.1622314453
36.8389015198 22.7825832367 45.9580497742
36.8170967102 22.7707138062 45.7566032410
36.8182792664 22.7732772827 45.5592842102
36.8485107422 22.7940807343 45.3672447205
36.9104080200 22.8347644806 45.1810264587
36.9999809265 22.8928260803 44.9999694824
37.1076126099 22.9622230530 44.8223533630
37.2238769531 23.0370368958 44.6464805603
37.3448638916 23.1148166656 44.4716415405
37.4711303711 23.1959095001 44.2979469299
37.6015701294 23.2796192169 44.1252098083
37.7301673889 23.3621692657 43.9523010254
37.8495521545 23.4389381409 43.7778320313
37.9558334351 23.5074768066 43.6010437012
38.0486679077 23.5675716400 43.4218482971
38.1284599304 23.6194782257 43.2402915955
38.1942977905 23.6626243591 43.0561676025
38.2431526184 23.6951103210 42.8688735962
38.2697257996 23.7136058807 42.6773414612
38.2673263550 23.7139129639 42.4802398682
38.2308235168 23.6928119659 42.2765007019
38.1624488831 23.6517028809 42.0664901733
38.0766448975 23.5996551514 41.8529701233
37.9963645935 23.5510768890 41.6403999329
37.9418907166 23.5186977386 41.4327926636
37.9234619141 23.5089454651 41.2322235107
37.9434127808 23.5232868195 41.0392379761
38.0010604858 23.5612888336 40.8537750244
38.0938682556 23.6213607788 40.6754188538
38.2159385681 23.6997985840 40.5030517578
38.3572196960 23.7902927399 40.3347167969
38.5046157837 23.8846225739 40.1678123474
38.6446609497 23.9743404388 39.9996185303
38.7666664124 24.0527305603 39.8279495239
38.8651046753 24.1163291931 39.6516304016
38.9405021667 24.1654605865 39.4707260132
38.9977989197 24.2032337189 39.2862014771
39.0427703857 24.2332725525 39.0992050171
39.0789527893 24.2577896118 38.9104499817
39.1067771912 24.2770652771 38.7199974060
39.1242065430 24.2898139954 38.5274124146
39.1277847290 24.2938690186 38.3319473267
39.1145591736 24.2873783112 38.1329498291
39.0847358704 24.2704696655 37.9304351807
39.0430946350 24.2461471558 37.7253684998
38.9973373413 24.2192401886 37.5193634033
38.9542961121 24.1940402985 37.3138618469
38.9174079895 24.1727027893 37.1096076965
38.8872375488 24.1555805206 36.9067268372
38.8637237549 24.1426353455 36.7052230835
38.8480491638 24.1346092224 36.5053710938
38.8437042236 24.1336975098 36.3079376221
38.8567771912 24.1437129974 36.1142692566
38.8945465088 24.1692276001 35.9259834290
38.9619674683 24.2133464813 35.7442245483
39.0577354431 24.2752552032 35.5687637329
39.1726913452 24.3492012024 35.3976478577
39.2913780212 24.4254913330 35.2275123596
39.3964500427 24.4932346344 35.0545234680
39.4745140076 24.5440273285 34.8756828308
39.5203361511 24.5745887756 34.6897659302
39.5370445251 24.5868816376 34.4973983765
39.5337867737 24.5866470337 34.3005752563
39.5224761963 24.5813598633 34.1019287109
39.5130615234 24.5772609711 33.9036827087
39.5088958740 24.5764560699 33.7066040039
39.5066642761 24.5768642426 33.5099525452
39.5015907288 24.5754909515 33.3126373291
39.4931678772 24.5720157623 33.1145477295
39.4867248535 24.5697822571 32.9168853760
39.4897651672 24.5734996796 32.7213897705
39.5058403015 24.5853939056 32.5288925171
39.5316352844 24.6033878326 32.3386573792
39.5608291626 24.6235122681 32.1492424011
39.5909156799 24.6441993713 31.9600658417
39.6250114441 24.6673984528 31.7718601227
39.6667861938 24.6954174042 31.5854930878
39.7155761719 24.7278366089 31.4008255005
39.7683181763 24.7627334595 31.2171478271
39.8259391785 24.8006916046 31.0346927643
39.8954963684 24.8461360931 30.8551387787
39.9839630127 24.9034442902 30.6801719666
40.0897750854 24.9716300964 30.5094566345
40.2010383606 25.0432376862 30.3401889801
40.3018646240 25.1082935333 30.1685695648
40.3797454834 25.1589565277 29.9915657043
40.4292221069 25.1917991638 29.8078117371
40.4526596069 25.2083053589 29.6178188324
40.4585342407 25.2137966156 29.4235897064
40.4564361572 25.2142848969 29.2274188995
40.4519653320 25.2132854462 29.0306587219
40.4456939697 25.2111549377 28.8334407806
40.4356727600 25.2066745758 28.6352882385
40.4201164246 25.1987228394 28.4357471466
40.3984642029 25.1869449615 28.2346706390
40.3709716797 25.1715049744 28.0321083069
40.3373374939 25.1522140503 27.8279724121
40.2948684692 25.1273822784 27.6215782166
40.2379226685 25.0934715271 27.4114990234
40.1612930298 25.0472126007 27.1963977814
40.0673217773 24.9900798798 26.9768199921
39.9702568054 24.9310073853 26.7563209534
39.8910140991 24.8831138611 26.5401782990
39.8464355469 24.8569641113 26.3326988220
39.8437271118 24.8570747375 26.1357898712
39.8816337585 24.8826580048 25.9492168427
39.9510765076 24.9280223846 25.7707519531
40.0348396301 24.9823665619 25.5960464478
40.1128883362 25.0331249237 25.4199848175
40.1723823547 25.0722465515 25.2392444611
40.2125511169 25.0992450714 25.0535869598
40.2404937744 25.1185798645 24.8648109436
40.2639160156 25.1350765228 24.6748905182
40.2864341736 25.1510047913 24.4847602844
40.3061790466 25.1651973724 24.2939300537
40.3170776367 25.1738376617 24.1007995605
40.3123512268 25.1726818085 23.9035739899
40.2883567810 25.1594409943 23.7012538910
