9.4790620804 37.7698898315 19.7912731171
9.4836711884 37.7847976685 19.5942440033
9.4877920151 37.7974510193 19.3966999054
9.4924497604 37.8125877380 19.1997451782
9.4977493286 37.8306922913 19.0035037994
9.5030078888 37.8486137390 18.8072338104
9.5073404312 37.8622436523 18.6099624634
9.5104007721 37.8699913025 18.4113044739
9.5128250122 37.8747901917 18.2119483948
9.5161495209 37.8837547302 18.0135860443
9.5223264694 37.9059257507 17.8183860779
9.5330820084 37.9492912292 17.6282920837
9.5493736267 38.0182952881 17.4444065094
9.5712633133 38.1132125854 17.2668457031
9.5981969833 38.2314834595 17.0950412750
9.6293754578 38.3694190979 16.9281387329
9.6637783051 38.5222854614 16.7650260925
9.6997718811 38.6825218201 16.6038894653
9.7348594666 38.8385696411 16.4419193268
9.7661714554 38.9771423340 16.2758598328
9.7914609909 39.0878334045 16.1031208038
9.8098106384 39.1663932800 15.9226093292
9.8216590881 39.2148551941 15.7347650528
9.8283920288 39.2396316528 15.5411176682
9.8317441940 39.2487487793 15.3436145782
10.0599212646 40.2287483215 13.1961050034
10.0634469986 40.2386932373 12.9994077682
10.0663185120 40.2456054688 12.8019380569
10.0640630722 40.2287673950 12.5983657837
10.0529432297 40.1708717346 12.3841857910
10.0320062637 40.0675010681 12.1581830978
10.0040493011 39.9316062927 11.9236259460
9.9749355316 39.7903404236 11.6875019073
9.9513568878 39.6747169495 11.4578666687
9.9383373260 39.6080055237 11.2408361435
9.9381084442 39.6005439758 11.0392017365
9.9507198334 39.6525611877 10.8531351089
9.9752130508 39.7596359253 10.6815824509
10.0103597641 39.9160652161 10.5231447220
10.0548400879 40.1157493591 10.3763055801
10.1070737839 40.3513565063 10.2392044067
10.1648120880 40.6124801636 10.1091499329
10.2249097824 40.8845443726 9.9823179245
10.2836532593 41.1503448486 9.8541450500
10.3374843597 41.3933944702 9.7202205658
10.3836698532 41.6010284424 9.5771150589
10.4208517075 41.7669487000 9.4230728149
10.4495058060 41.8933601379 9.2586116791
10.4718971252 41.9907608032 9.0864839554
10.4913072586 42.0743408203 8.9107389450
10.5110120773 42.1592941284 8.7354621887
10.5334100723 42.2567329407 8.5636682510
10.5593013763 42.3703651428 8.3963909149
10.5876970291 42.4956054688 8.2324085236
10.6165781021 42.6231002808 8.0691900253
10.6440887451 42.7442474365 7.9043841362
10.6693029404 42.8547554016 7.7368030548
10.6923866272 42.9553947449 7.5666384697
10.7143783569 43.0509757996 7.3951973915
10.7366075516 43.1476669312 7.2241735458
10.7598724365 43.2491531372 7.0545902252
10.7838258743 43.3538398743 6.8860125542
10.8071565628 43.4556427002 6.7167553902
10.8285293579 43.5483741760 6.5450906754
10.8474826813 43.6298942566 6.3704023361
10.8644247055 43.7020950317 6.1932001114
10.8800125122 43.7680168152 6.0143198967
10.8948383331 43.8304138184 5.8345227242
10.9096927643 43.8929443359 5.6548333168
10.9257764816 43.9611740112 5.4768238068
10.9443902969 44.0411415100 5.3022122383
10.9662551880 44.1361770630 5.1319646835
10.9908456802 44.2438507080 4.9654197693
11.0161314011 44.3547592163 4.7999210358
11.0391731262 44.4552612305 4.6315827370
11.0574426651 44.5336456299 4.4570364952
11.0698270798 44.5847473145 4.2747612000
11.0764350891 44.6090660095 4.0848484039
11.0791921616 44.5712928772 2.4985175133
11.0900230408 44.6152000427 2.3144071102
11.1113185883 44.7076339722 2.1445822716
11.1433753967 44.8499755859 1.9895380735
11.1846485138 45.0350685120 1.8472578526
11.2318058014 45.2474555969 1.7132587433
11.2807960510 45.4683494568 1.5820308924
11.3279323578 45.6806602478 1.4485238791
11.3705921173 45.8722114563 1.3091050386
11.4076137543 46.0376205444 1.1621336937
11.4392585754 46.1780967712 1.0079209805
11.4663877487 46.2976341248 0.8476165533
11.4893550873 46.3978767395 0.6816719174
11.5076942444 46.4766502380 0.5094001889
11.5208749771 46.5315017700 0.3300237656
11.5291967392 46.5638160706 0.1439151019
59.4009361267 1.0820122957 75.5053863525
59.4218978882 1.0839830637 75.3216247559
59.4537963867 1.0864324570 75.1387710571
59.4901771545 1.0890774727 74.9563064575
59.5257911682 1.0916887522 74.7738189697
59.5571746826 1.0941147804 74.5910263062
59.5812797546 1.0962224007 74.4076538086
59.5950126648 1.0978764296 74.2234420776
59.5963249207 1.0989874601 74.0381851196
59.5849494934 1.0995438099 73.8518447876
59.5616264343 1.0995780230 73.6644592285
59.5271224976 1.0991239548 73.4760742188
59.4825363159 1.0982295275 73.2867660522
59.4307556152 1.0970208645 73.0967559814
59.3775939941 1.0957523584 72.9065551758
59.3310661316 1.0947741270 72.7168731689
59.2988777161 1.0944225788 72.5284042358
59.2860717773 1.0949183702 72.3416442871
59.2942886353 1.0963321924 72.1567611694
59.3219223022 1.0985944271 71.9736557007
59.3644180298 1.1015053988 71.7919540405
59.4148254395 1.1047616005 71.6110229492
59.4650382996 1.1080091000 71.4301376343
59.5074157715 1.1109141111 71.2485656738
59.5360031128 1.1132167578 71.0657424927
59.5471267700 1.1147569418 70.8812866211
59.5395736694 1.1154816151 70.6950454712
59.5145797729 1.1154452562 70.5071105957
59.4754714966 1.1147929430 70.3177642822
59.4266891479 1.1137188673 70.1274185181
59.3729782104 1.1124299765 69.9365158081
59.3192405701 1.1111404896 69.7455444336
59.2702980042 1.1100604534 69.5549697876
59.2296447754 1.1093425751 69.3651580811
59.1981163025 1.1090232134 69.1762084961
59.1739692688 1.1090258360 68.9879608154
59.1544342041 1.1092300415 68.8001480103
59.1372261047 1.1095358133 68.6125488281
59.1205596924 1.1098654270 68.4249725342
59.1021995544 1.1101212502 68.2371902466
59.0789451599 1.1101639271 68.0488662720
59.0471496582 1.1098343134 67.8596115112
59.0034866333 1.1089876890 67.6690444946
58.9453582764 1.1075109243 67.4768829346
58.8710632324 1.1053297520 67.2829132080
58.7806625366 1.1024472713 67.0871047974
58.6777229309 1.0990190506 66.8898086548
58.5701713562 1.0953904390 66.6918869019
58.4682960510 1.0920101404 66.4944381714
58.3805503845 1.0892462730 66.2984085083
58.3103523254 1.0872474909 66.1042098999
58.2561950684 1.0859481096 65.9117126465
58.2142906189 1.0851829052 65.7205047607
58.1814765930 1.0848139524 65.5302734375
58.1568489075 1.0848016739 65.3409118652
58.1417121887 1.0852031708 65.1526031494
58.1383361816 1.0861166716 64.9656066895
58.1480484009 1.0876002312 64.7801208496
58.1694602966 1.0895931721 64.5959854126
58.1974411011 1.0918719769 64.4126434326
58.2237281799 1.0940769911 64.2291336060
58.2395706177 1.0958271027 64.0444107056
58.2392082214 1.0968718529 63.8577880859
58.2221603394 1.0971906185 63.6691703796
58.1929893494 1.0969817638 63.4790687561
58.1588821411 1.0965585709 63.2883338928
58.1265754700 1.0962138176 63.0977668762
58.1001815796 1.0961265564 62.9078712463
58.0808258057 1.0963457823 62.7187957764
58.0678100586 1.0968410969 62.5304679871
58.0600776672 1.0975661278 62.3427658081
58.0569419861 1.0984913111 62.1556205750
58.0580253601 1.0995999575 61.9689941406
58.0629272461 1.1008747816 61.7828369141
58.0710067749 1.1022876501 61.5970802307
58.0812072754 1.1037927866 61.4115982056
58.0919227600 1.1053203344 61.2261848450
58.1011695862 1.1067838669 61.0405921936
58.1070976257 1.1081031561 60.8545761108
58.1086425781 1.1092320681 60.6679954529
58.1059188843 1.1101752520 60.4808578491
58.1001663208 1.1109869480 60.2933120728
58.0932655334 1.1117490530 60.1056022644
58.0869865417 1.1125380993 59.9179611206
58.0823059082 1.1133966446 59.7305145264
58.0792160034 1.1143244505 59.5432662964
58.0769309998 1.1152871847 59.3561172485
58.0742950439 1.1162346601 59.1689071655
58.0701637268 1.1171174049 58.9814910889
58.0636672974 1.1178975105 58.7937393188
58.0543251038 1.1185541153 58.6055870056
58.0419960022 1.1190810204 58.4170036316
58.0268898010 1.1194875240 58.2280197144
58.0097122192 1.1198043823 58.0387268066
57.9919166565 1.1200944185 57.8493156433
57.9757957458 1.1204572916 57.6601104736
57.9644317627 1.1210269928 57.4715423584
57.9614372253 1.1219598055 57.2841300964
57.9699783325 1.1233932972 57.0983314514
57.9909172058 1.1253648996 56.9142990112
58.0213813782 1.1277494431 56.7316436768
58.0554199219 1.1302890778 56.5495262146
58.0865249634 1.1327011585 56.3670272827
58.1097297668 1.1347703934 56.1834220886
58.1220932007 1.1363692284 55.9982643127
58.1221923828 1.1374361515 55.8113327026
58.1097984314 1.1379612684 55.6225662231
58.0860023499 1.1379921436 55.4321060181
58.0533332825 1.1376385689 55.2402992249
58.0154151917 1.1370574236 55.0476646423
57.9763526917 1.1364272833 54.8548088074
57.9402122498 1.1359241009 54.6623306274
57.9102592468 1.1356891394 54.4707298279
57.8878593445 1.1357820034 54.2802200317
57.8718605042 1.1361526251 54.0906486511
57.8591079712 1.1366636753 53.9015388489
57.8460044861 1.1371599436 53.7123527527
57.8304672241 1.1375508308 53.5227699280
57.8129882813 1.1378576756 53.3328628540
57.7961387634 1.1381920576 53.1430244446
57.7830276489 1.1386885643 52.9537391663
57.7760658264 1.1394513845 52.7653846741
57.7765464783 1.1405367851 52.5781784058
57.7844886780 1.1419452429 52.3921394348
57.7984848022 1.1436158419 52.2070541382
57.8160057068 1.1454389095 52.0225410461
57.8340682983 1.1472854614 51.8381271362
57.8497161865 1.1490274668 51.6533432007
57.8601951599 1.1505453587 51.4677467346
57.8635101318 1.1517534256 51.2810020447
57.8595466614 1.1526465416 51.0930862427
57.8508567810 1.1533348560 50.9043884277
57.8422241211 1.1540260315 50.7156829834
57.8393974304 1.1549683809 50.5279083252
57.8476142883 1.1563886404 50.3419303894
57.8702430725 1.1584322453 50.1583290100
57.9077377319 1.1611189842 49.9772071838
57.9575996399 1.1643403769 49.7981719971
58.0153884888 1.1679043770 49.6205139160
58.0760726929 1.1715930700 49.4434013367
58.1351356506 1.1752114296 49.2660903931
58.1895179749 1.1786267757 49.0880584717
58.2378158569 1.1817789078 48.9090652466
58.2792816162 1.1846352816 48.7289619446
58.3124542236 1.1871328354 48.5474929810
58.3352661133 1.1891822815 48.3642921448
58.3465919495 1.1907353401 48.1791458130
58.3476142883 1.1918430328 47.9922294617
58.3416366577 1.1926480532 47.8041038513
58.3327064514 1.1933257580 47.6154479980
58.3242530823 1.1940240860 47.4268569946
58.3185157776 1.1948398352 47.2387237549
58.3166236877 1.1958217621 47.0512504578
58.3189125061 1.1969844103 46.8645057678
58.3251152039 1.1983160973 46.6784439087
58.3343124390 1.1997772455 46.4929161072
58.3447723389 1.2012927532 46.3076133728
58.3538818359 1.2027498484 46.1220817566
58.3582420349 1.2040020227 45.9357032776
58.3539314270 1.2048796415 45.7477645874
58.3370933533 1.2052167654 45.5575523376
58.3052215576 1.2049047947 45.3645973206
58.2587432861 1.2039626837 45.1689414978
58.2019004822 1.2025735378 44.9713287354
58.1418075562 1.2010446787 44.7730445862
58.0858383179 1.1996942759 44.5754356384
58.0390815735 1.1987416744 44.3794441223
58.0036468506 1.1982781887 44.1854820251
57.9797821045 1.1983138323 43.9936065674
57.9668617249 1.1988220215 43.8037338257
57.9631958008 1.1997296810 43.6155624390
57.9652214050 1.2008827925 43.4284477234
57.9675521851 1.2020490170 43.2413825989
57.9647407532 1.2029936314 43.0533485413
57.9539184570 1.2035927773 42.8637847900
57.9362869263 1.2038984299 42.6729087830
57.9162597656 1.2041009665 42.4815521240
57.8992347717 1.2044330835 42.2907333374
57.8897132874 1.2050888538 42.1013221741
57.8903694153 1.2061834335 41.9138526917
57.9014892578 1.2077291012 41.7283973694
57.9205360413 1.2096163034 41.5444793701
57.9422302246 1.2116173506 41.3610954285
57.9596366882 1.2134337425 41.1768951416
57.9660072327 1.2147743702 40.9905548096
57.9566307068 1.2154368162 40.8011283875
57.9304351807 1.2153745890 40.6083717346
57.8908691406 1.2147368193 40.4129371643
57.8452873230 1.2138400078 40.2162551880
57.8023605347 1.2130582333 40.0200347900
57.7690467834 1.2126904726 39.8256721497
57.7488517761 1.2128881216 39.6338806152
57.7419548035 1.2136583328 39.4447212219
57.7462501526 1.2149107456 39.2578010559
57.7585258484 1.2165066004 39.0724868774
57.7753181458 1.2182968855 38.8880996704
57.7930870056 1.2201290131 38.7039222717
57.8077316284 1.2218267918 38.5191268921
57.8143272400 1.2231779099 38.3326950073
57.8081321716 1.2239786386 38.1436462402
57.7868041992 1.2241282463 37.9514694214
57.7520484924 1.2237005234 37.7564888000
57.7090759277 1.2229194641 37.5597610474
57.6639404297 1.2220456600 37.3625183105
57.6208992004 1.2212623358 37.1656532288
57.5818824768 1.2206524611 36.9695625305
57.5478706360 1.2202581167 36.7744674683
57.5200080872 1.2201286554 36.5806121826
57.4992256165 1.2203037739 36.3882026672
57.4851684570 1.2207682133 36.1971855164
57.4757652283 1.2214329243 36.0071296692
57.4677391052 1.2221568823 35.8173446655
57.4577522278 1.2227966785 35.6271286011
57.4437599182 1.2232644558 35.4360351563
57.4258804321 1.2235652208 35.2440834045
57.4063453674 1.2237951756 35.0517463684
57.3885574341 1.2241002321 34.8597526550
57.3758468628 1.2246236801 34.6688308716
57.3705825806 1.2254670858 34.4794998169
57.3738746643 1.2266782522 34.2920188904
57.3856010437 1.2282516956 34.1063728333
57.4042396545 1.2301220894 33.9222526550
57.4266128540 1.2321527004 33.7389678955
57.4480094910 1.2341413498 33.5554885864
57.4630622864 1.2358572483 33.3706283569
57.4671630859 1.2371029854 33.1833534241
57.4580001831 1.2377791405 32.9931335449
57.4366989136 1.2379344702 32.8001937866
57.4078216553 1.2377647161 32.6055259705
57.3777122498 1.2375421524 32.4105415344
57.3518104553 1.2375005484 32.2164535522
57.3326797485 1.2377498150 32.0238533020
57.3199996948 1.2382758856 31.8326778412
57.3120079041 1.2390034199 31.6425418854
57.3067665100 1.2398490906 31.4530143738
57.3022041321 1.2407239676 31.2636280060
57.2957115173 1.2415159941 31.0737857819
57.2843818665 1.2421008348 30.8828239441
57.2660217285 1.2423839569 30.6902236938
57.2399559021 1.2423369884 30.4958190918
57.2073440552 1.2420094013 30.2998638153
57.1709976196 1.2415220737 30.1029949188
57.1347999573 1.2410411835 29.9061069489
57.1024894714 1.2407274246 29.7100734711
57.0764427185 1.2406826019 29.5154533386
57.0572280884 1.2409306765 29.3223915100
57.0440177917 1.2414362431 29.1307086945
57.0352401733 1.2421321869 28.9400463104
57.0290298462 1.2429380417 28.7499713898
57.0234603882 1.2437714338 28.5600337982
57.0167999268 1.2445582151 28.3698234558
57.0077400208 1.2452422380 28.1790256500
56.9955139160 1.2457909584 27.9874553680
56.9798088074 1.2461904287 27.7950305939
56.9604187012 1.2464324236 27.6016960144
56.9369735718 1.2465007305 27.4073524475
56.9089813232 1.2463747263 27.2118797302
56.8763923645 1.2460519075 27.0152492523
56.8400192261 1.2455675602 26.8176574707
56.8013916016 1.2449868917 26.6194629669
56.7622718811 1.2443853617 26.4210929871
56.7246093750 1.2438466549 26.2230224609
56.6906547546 1.2434668541 26.0258045197
56.6624221802 1.2433322668 25.8299427032
56.6406936646 1.2434765100 25.6356372833
56.6245384216 1.2438591719 25.4426746368
56.6119155884 1.2443932295 25.2505588531
56.6009101868 1.2449967861 25.0588207245
56.5906791687 1.2456334829 24.8672542572
56.5816116333 1.2463200092 24.6759586334
56.5749015808 1.2471075058 24.4852333069
56.5718650818 1.2480522394 24.2954120636
56.5733261108 1.2491893768 24.1067104340
56.5792503357 1.2505174875 23.9191303253
56.5887527466 1.2519985437 23.7324523926
56.6003150940 1.2535676956 23.5463008881
56.6119575500 1.2551400661 23.3601779938
56.6212272644 1.2566111088 23.1734580994
56.6252403259 1.2578573227 22.9854049683
56.6211814880 1.2587586641 22.7952842712
56.6074523926 1.2592465878 22.6026725769
56.5847396851 1.2593507767 22.4077301025
56.5561714172 1.2592051029 22.2112445831
56.5265083313 1.2590126991 22.0144309998
56.5009841919 1.2589974403 21.8186435699
56.4841423035 1.2593532801 21.6250705719
56.4785270691 1.2601890564 21.4343910217
56.4837608337 1.2614881992 21.2465248108
56.4965934753 1.2631118298 21.0606460571
56.5119323730 1.2648426294 20.8754310608
56.5243225098 1.2664473057 20.6894550323
56.5293197632 1.2677361965 20.5015430450
56.5242385864 1.2685949802 20.3109683990
56.5081825256 1.2689849138 20.1174774170
56.4821777344 1.2689507008 19.9213218689
56.4499816895 1.2686522007 19.7234802246
56.4182472229 1.2683737278 19.5257129669
56.3945465088 1.2684384584 19.3300457001
56.3838729858 1.2690591812 19.1378269196
56.3861122131 1.2702311277 18.9490547180
56.3960990906 1.2717336416 18.7623634338
56.4058837891 1.2732276917 18.5756225586
56.4080047607 1.2743945122 18.3868160248
56.3979072571 1.2750402689 18.1946945190
56.3743438721 1.2751116753 17.9988975525
56.3383789063 1.2746545076 17.7996864319
56.2925415039 1.2737764120 17.5977306366
56.2401504517 1.2726194859 17.3939189911
56.1842460632 1.2713130713 17.1890697479
56.1268196106 1.2699420452 16.9837226868
56.0693244934 1.2685686350 16.7782783508
56.0139007568 1.2672840357 16.5733261108
55.9639778137 1.2662343979 16.3698177338
55.9235763550 1.2655909061 16.1688785553
55.8957595825 1.2654839754 15.9713783264
55.8812866211 1.2659460306 15.7775535583
55.8785324097 1.2669075727 15.5869741440
55.8844337463 1.2682378292 15.3988065720
55.8953361511 1.2697813511 15.2120428085
55.9069023132 1.2713530064 15.0254726410
55.9134216309 1.2727096081 14.8374872208
55.9079246521 1.2735544443 14.6461105347
55.8841018677 1.2736189365 14.4495353699
55.8390655518 1.2727801800 14.2469053268
55.7746887207 1.2711182833 14.0387125015
55.6967773438 1.2688806057 13.8265762329
55.6132354736 1.2664037943 13.6127252579
55.5324172974 1.2640435696 13.3995409012
55.4622230530 1.2621362209 13.1892938614
55.4099197388 1.2609908581 12.9840936661
55.3819007874 1.2608796358 12.7858161926
55.3826141357 1.2619911432 12.5957899094
55.4131011963 1.2643698454 12.4143743515
55.4704818726 1.2678924799 12.2407884598
55.5486259460 1.2722982168 12.0733032227
55.6392593384 1.2772347927 11.9095478058
55.7326889038 1.2822896242 11.7467174530
55.8187103271 1.2870289087 11.5818319321
55.8886909485 1.2910851240 11.4123458862
55.9380607605 1.2942644358 11.2368869781
55.9672622681 1.2965857983 11.0555448532
55.9803810120 1.2982232571 10.8694877625
55.9829635620 1.2994126081 10.6803255081
55.9804458618 1.3003849983 10.4896459579
55.9771652222 1.3013252020 10.2987318039
55.9757461548 1.3023445606 10.1083593369
55.9771957397 1.3034859896 9.9188356400
55.9818801880 1.3047648668 9.7302722931
55.9906196594 1.3062158823 9.5429220200
56.0053024292 1.3079196215 9.3573617935
56.0289764404 1.3100050688 9.1745157242
56.0652236938 1.3126248121 8.9954843521
56.1167030334 1.3158913851 8.8210935593
56.1831970215 1.3197952509 8.6513061523
56.2604103088 1.3241540194 8.4848480225
56.3403549194 1.3286283016 8.3193120956
56.4130821228 1.3327953815 8.1516714096
56.4692497253 1.3362590075 7.9790625572
56.5027236938 1.3387587070 7.7995762825
56.5118865967 1.3402259350 7.6126723289
56.4989204407 1.3407539129 7.4189772606
56.4679679871 1.3405185938 7.2197222710
56.4242591858 1.3397418261 7.0164852142
56.3752250671 1.3387396336 6.8115410805
56.3316764832 1.3379704952 6.6082253456
56.3058280945 1.3379528522 6.4103412628
56.3063468933 1.3390542269 6.2206172943
56.3339462280 1.3413044214 6.0393247604
56.3808250427 1.3443723917 5.8640823364
56.4341125488 1.3477120399 5.6908984184
56.4809837341 1.3507791758 5.5157623291
56.5125007629 1.3531945944 5.3358554840
56.5244216919 1.3547788858 5.1498126984
56.5154914856 1.3554790020 4.9572005272
56.4855079651 1.3552865982 4.7579164505
56.4350738525 1.3542273045 4.5521092415
56.3668708801 1.3524152040 4.3405914307
56.2867012024 1.3500963449 4.1251749992
56.2023849487 1.3476023674 3.9083285332
56.1207504272 1.3452227116 3.6922235489
56.0456123352 1.3431189060 3.4780850410
55.9789505005 1.3413749933 3.2665622234
55.9236793518 1.3401141167 3.0586054325
55.8840637207 1.3395171165 2.8556101322
55.8627967834 1.3396975994 2.6584727764
55.8580436707 1.3405779600 2.4666371346
55.8641090393 1.3419165611 2.2782917023
55.8747329712 1.3434482813 2.0914254189
55.8851280212 1.3449702263 1.9044911861
55.8912239075 1.3463101387 1.7161631584
55.8883857727 1.3472716808 1.5249214172
55.8719558716 1.3476579189 1.3292260170
55.8389472961 1.3473424911 1.1280717850
55.7887496948 1.3462994099 0.9212261438
55.7223930359 1.3445730209 0.7089976668
55.6421203613 1.3422580957 0.4920921326
55.5519943237 1.3395267725 0.2718245387
55.4577941895 1.3366237879 0.0500874706
19.2990283966 35.5416259766 73.9888687134
19.3097476959 35.5595169067 73.7924728394
19.3239994049 35.5842628479 73.5966110229
19.3327388763 35.5983085632 73.3999557495
19.3289756775 35.5880851746 73.2014617920
19.3110294342 35.5503234863 73.0008163452
19.2822952271 35.4916191101 72.7984771729
19.2487430573 35.4235572815 72.5953216553
19.2164611816 35.3579635620 72.3922576904
19.1904773712 35.3045959473 72.1900863647
19.1745853424 35.2708168030 71.9894104004
19.1714935303 35.2618904114 71.7907104492
19.1829204559 35.2811508179 71.5942993164
19.2094936371 35.3298149109 71.4003448486
19.2503089905 35.4061355591 71.2087478638
19.3020267487 35.5036239624 71.0190277100
19.3580780029 35.6095275879 70.8301467896
19.4092254639 35.7059135437 70.6405868530
19.4460124969 35.7744178772 70.4487457275
19.4619102478 35.8023643494 70.2534866333
19.4552726746 35.7865562439 70.0544281006
19.4291324615 35.7328834534 69.8520126343
19.3894977570 35.6529998779 69.6471939087
19.3435688019 35.5609016418 69.4411697388
19.2985935211 35.4706459045 69.2351760864
19.2609348297 35.3945999146 69.0303497314
19.2351322174 35.3415718079 68.8275222778
19.2233905792 35.3158454895 68.6271286011
19.2256698608 35.3173446655 68.4292144775
19.2397899628 35.3418388367 68.2334442139
19.2613162994 35.3807106018 68.0390625000
19.2837791443 35.4214057922 67.8448867798
19.2999267578 35.4498405457 67.6495971680
19.3039894104 35.4547996521 67.4520797729
19.2939300537 35.4323425293 67.2519149780
19.2720375061 35.3869018555 67.0494766235
19.2432003021 35.3279762268 66.8456420898
19.2124805450 35.2653923035 66.6413650513
19.1839599609 35.2070770264 66.4374237061
19.1610393524 35.1596374512 66.2344894409
19.1468620300 35.1291770935 66.0331878662
19.1440105438 35.1207084656 65.8340759277
19.1535530090 35.1363105774 65.6373977661
19.1739292145 35.1729507446 65.4429016113
19.2001705170 35.2209854126 65.2496261597
19.2240886688 35.2645111084 65.0559387207
19.2364311218 35.2855529785 64.8599548340
19.2306137085 35.2713241577 64.6602630615
19.2055625916 35.2197418213 64.4565887451
19.1656455994 35.1392860413 64.2497558594
19.1184329987 35.0446586609 64.0412826538
19.0720005035 34.9515419006 63.8328399658
19.0325088501 34.8719100952 63.6257324219
19.0026531219 34.8109893799 63.4205627441
18.9821624756 34.7682533264 63.2173080444
18.9699211121 34.7415428162 63.0157661438
18.9653892517 34.7298049927 62.8158493042
18.9680118561 34.7319641113 62.6174736023
18.9758014679 34.7441596985 62.4202232361
18.9847316742 34.7585678101 62.2232360840
18.9896087646 34.7651062012 62.0253601074
18.9857139587 34.7546081543 61.8255348206
18.9700832367 34.7213096619 61.6230545044
18.9419040680 34.6636352539 61.4176902771
18.9026718140 34.5844917297 61.2097320557
18.8567485809 34.4923477173 61.0001373291
18.8114795685 34.4014739990 60.7905616760
18.7752647400 34.3281860352 60.5829467773
18.7537670135 34.2834815979 60.3786468506
18.7472000122 34.2677841187 60.1777648926
18.7512302399 34.2726707458 59.9793472290
18.7603645325 34.2874717712 59.7821311951
18.7705497742 34.3043212891 59.5851821899
18.7796134949 34.3189849854 59.3879776001
18.7867488861 34.3299064636 59.1903266907
18.7921333313 34.3374214172 58.9922599792
18.7965736389 34.3431091309 58.7939720154
18.8011188507 34.3489990234 58.5957069397
18.8066730499 34.3568496704 58.3976936340
18.8135032654 34.3671760559 58.1999969482
18.8208675385 34.3785400391 58.0024414063
18.8275337219 34.3885498047 57.8047218323
18.8331565857 34.3965301514 57.6067466736
18.8390235901 34.4049873352 57.4088401794
18.8474464417 34.4184112549 57.2115821838
18.8608779907 34.4415664673 57.0156135559
18.8815689087 34.4788246155 56.8215217590
18.9110984802 34.5332565308 56.6297492981
18.9493465424 34.6046295166 56.4402961731
18.9937629700 34.6879882813 56.2525329590
19.0399227142 34.7747383118 56.0653305054
19.0831336975 34.8557586670 55.8774642944
19.1197681427 34.9239959717 55.6879692078
19.1478176117 34.9755630493 55.4962844849
19.1671924591 35.0102691650 55.3023567200
19.1798610687 35.0319519043 55.1066741943
19.1894569397 35.0476570129 54.9101905823
19.2002601624 35.0657157898 54.7140464783
19.2161197662 35.0935935974 54.5192909241
19.2396659851 35.1364135742 54.3266677856
19.2721595764 35.1966133118 54.1365432739
19.3139190674 35.2748260498 53.9490470886
19.3643379211 35.3698654175 53.7640419006
19.4205951691 35.4762496948 53.5807838440
19.4764709473 35.5818977356 53.3975563049
19.5236206055 35.6705894470 53.2120170593
19.5552310944 35.7290878296 53.0222091675
19.5689659119 35.7528457642 52.8274116516
19.5670623779 35.7462158203 52.6281967163
19.5548572540 35.7195663452 52.4260177612
19.5397033691 35.6871833801 52.2229537964
19.5297260284 35.6648597717 52.0213317871
19.5833721161 35.7368583679 49.8505668640
19.5939292908 35.7544479370 49.6549682617
19.6104621887 35.7836456299 49.4612121582
19.6288890839 35.8165321350 49.2680702209
19.6477203369 35.8501968384 49.0750923157
19.6682605743 35.8871917725 48.8826789856
19.6925239563 35.9314155579 48.6914672852
19.7212409973 35.9843025208 48.5016975403
19.7533340454 36.0437545776 48.3130531311
19.7865848541 36.1054534912 48.1248435974
19.8190975189 36.1657218933 47.9364814758
19.8507251740 36.2242698669 47.7479095459
19.8831024170 36.2842750549 47.5596504211
19.9182357788 36.3496398926 47.3723487854
19.9572677612 36.4225845337 47.1863822937
20.0003662109 36.5034332275 47.0018157959
20.0470752716 36.5913047791 46.8185234070
20.0962715149 36.6840095520 46.6361503601
20.1459121704 36.7775840759 46.4540405273
20.1930675507 36.8663253784 46.2712364197
20.2343120575 36.9435844421 46.0866012573
20.2665519714 37.0033340454 45.8990898132
20.2882900238 37.0426673889 45.7081718445
20.3004913330 37.0634651184 45.5141258240
20.3062477112 37.0717353821 45.3179473877
20.3097438812 37.0756111145 45.1210174561
20.3154373169 37.0837516785 44.9248237610
20.3271789551 37.1036605835 44.7306823730
20.3469810486 37.1392326355 44.5392990112
20.3742542267 37.1893348694 44.3504981995
20.4065246582 37.2491493225 44.1634712219
20.4409618378 37.3131828308 43.9772644043
20.4754123688 37.3772392273 43.7911415100
20.5085010529 37.4386520386 43.6046257019
20.5394268036 37.4958572388 43.4174346924
20.5677623749 37.5480308533 43.2294158936
20.5930576324 37.5942916870 43.0403938293
20.6143512726 37.6327743530 42.8500251770
20.6304550171 37.6611671448 42.6578712463
20.6409816742 37.6787147522 42.4637756348
20.6469116211 37.6873283386 42.2680664063
20.6499843597 37.6903839111 42.0713424683
20.6517219543 37.6908454895 41.8741378784
20.6530704498 37.6905479431 41.6767883301
20.6546535492 37.6907043457 41.4795188904
20.6571865082 37.6927108765 41.2825851440
20.6615676880 37.6983108521 41.0863189697
20.6683139801 37.7085113525 40.8909187317
20.6767177582 37.7219314575 40.6961288452
20.6848125458 37.7347526550 40.5012397766
20.6908740997 37.7436218262 40.3056144714
20.6954898834 37.7496757507 40.1094589233
20.7022895813 37.7599830627 39.9141120911
20.7162914276 37.7842903137 39.7214584351
20.7407054901 37.8288497925 39.5327186584
20.7746028900 37.8918457031 39.3475875854
20.8131504059 37.9638900757 39.1642875671
20.8502349854 38.0330924988 38.9805259705
20.8816623688 38.0912933350 38.7947044373
20.9067420959 38.1371498108 38.6065483093
20.9271678925 38.1739578247 38.4166679382
20.9447669983 38.2052650452 38.2257537842
20.9606494904 38.2332344055 38.0342102051
20.9761142731 38.2603988647 37.8425445557
20.9932956696 38.2908973694 37.6515693665
21.0142536163 38.3287429810 37.4620933533
21.0395660400 38.3750572205 37.2743606567
21.0680370331 38.4275131226 37.0879173279
21.0976810455 38.4822540283 36.9019966125
21.1267795563 38.5359344482 36.7159309387
21.1538372040 38.5856475830 36.5291252136
21.1767215729 38.6272430420 36.3407287598
21.1923427582 38.6547126770 36.1494979858
21.1975650787 38.6619606018 35.9541549683
21.1908302307 38.6459465027 35.7540321350
21.1738243103 38.6099548340 35.5497665405
21.1523704529 38.5653114319 35.3436508179
21.1350326538 38.5286750793 35.1391334534
21.1292457581 38.5145034790 34.9392395020
21.1375656128 38.5277709961 34.7450523376
21.1571407318 38.5629348755 34.5554656982
21.1824035645 38.6091613770 34.3682479858
21.2084999084 38.6570053101 34.1814270020
21.2332954407 38.7023277283 33.9941291809
21.2573661804 38.7462348938 33.8065872192
21.2825527191 38.7923126221 33.6195602417
21.3102989197 38.8433723450 33.4336547852
21.3406696320 38.8995399475 33.2489051819
21.3723526001 38.9582595825 33.0647735596
21.4036636353 39.0162620544 32.8805618286
21.4340991974 39.0725555420 32.6960525513
21.4649848938 39.1297302246 32.5118026733
21.4984779358 39.1919784546 32.3287277222
21.5360565186 39.2621688843 32.1474685669
21.5777702332 39.3404121399 31.9680576324
21.6220989227 39.4237442017 31.7898654938
21.6662063599 39.5066452026 31.6116847992
21.7067871094 39.5826835632 31.4320926666
21.7408657074 39.6460762024 31.2497920990
21.7658271790 39.6917343140 31.0636272430
21.7793254852 39.7150917053 30.8725433350
21.7801589966 39.7138099670 30.6759719849
21.7696666718 39.6904869080 30.4744472504
21.7521724701 39.6535453796 30.2698192596
21.7340869904 39.6154518127 30.0648746490
21.7222862244 39.5895843506 29.8626422882
21.7223548889 39.5868110657 29.6656131744
21.7369308472 39.6122589111 29.4750022888
21.7649898529 39.6639480591 29.2904148102
21.8027248383 39.7344665527 29.1102046967
21.8453903198 39.8145751953 28.9322891235
21.8885841370 39.8957099915 28.7547111511
21.9282913208 39.9700660706 28.5756702423
21.9607276917 40.0302772522 28.3934440613
21.9831943512 40.0710868835 28.2067813873
21.9954738617 40.0920791626 28.0155467987
22.0004806519 40.0989151001 27.8210239410
22.0038394928 40.1025505066 27.6257534027
22.0125217438 40.1165390015 27.4329185486
22.0325508118 40.1526107788 27.2453041077
22.0666236877 40.2160110474 27.0641956329
22.1128749847 40.3031082153 26.8887901306
22.1652412415 40.4021110535 26.7163276672
22.2151317596 40.4962921143 26.5428428650
22.2540721893 40.5691719055 26.3643798828
22.2766437531 40.6101989746 26.1783695221
22.2823066711 40.6183166504 25.9844894409
22.2750396729 40.6012763977 25.7845458984
22.2613525391 40.5717391968 25.5815486908
22.2482452393 40.5433311462 25.3787784576
22.2420349121 40.5283470154 25.1792297363
22.2474803925 40.5360412598 24.9851894379
22.2666988373 40.5705413818 24.7977104187
22.2985420227 40.6296119690 24.6163005829
22.3390388489 40.7055282593 24.4391078949
22.3826866150 40.7875747681 24.2635231018
22.4239749908 40.8650321960 24.0869064331
22.4587059021 40.9297294617 23.9072265625
22.4848957062 40.9778022766 23.7234916687
22.5029945374 41.0101318359 23.5358905792
22.5151863098 41.0309638977 23.3454513550
22.5239391327 41.0451011658 23.1533565521
22.5310478210 41.0560417175 22.9604682922
22.5382041931 41.0670738220 22.7676143646
22.5482711792 41.0837669373 22.5762004852
22.5650634766 41.1135559082 22.3881206512
22.5911254883 41.1613883972 22.2046604156
22.6257514954 41.2258911133 22.0255050659
22.6652374268 41.2998504639 21.8488464355
22.7047843933 41.3739356995 21.6723136902
22.7407531738 41.4410514832 21.4940853119
22.7726936340 41.5003318787 21.3139247894
22.8040027618 41.5583801270 21.1335201263
22.8398113251 41.6251907349 20.9554557800
22.8833503723 41.7070503235 20.7813796997
22.9341526031 41.8030509949 20.6110877991
22.9896087646 41.9081115723 20.4432811737
23.0475692749 42.0180473328 20.2768878937
23.1070442200 42.1309356689 20.1114101410
23.1670303345 42.2448234558 19.9463405609
23.2255821228 42.3559150696 19.7806835175
23.2800807953 42.4591255188 19.6130867004
23.3281230927 42.5497665405 19.4422931671
23.3684959412 42.6254768372 19.2676525116
23.4018974304 42.6876182556 19.0894947052
23.4307270050 42.7408599854 18.9090385437
23.4580783844 42.7912254333 18.7278804779
23.4868450165 42.8443489075 18.5475215912
23.5191173553 42.9042930603 18.3690643311
23.5555686951 42.9723777771 18.1928768158
23.5953731537 43.0469932556 18.0185413361
23.6371860504 43.1255187988 17.8453578949
23.6804542542 43.2068786621 17.6730461121
23.7257709503 43.2922248840 17.5019245148
23.7739410400 43.3831367493 17.3324298859
23.8244991302 43.4786949158 17.1643238068
23.8748016357 43.5737571716 16.9962062836
23.9207248688 43.6602973938 16.8258647919
23.9586887360 43.7313385010 16.6513633728
23.9875946045 43.7847442627 16.4720783234
24.0094223022 43.8243675232 16.2890396118
24.0283069611 43.8582687378 16.1044597626
24.0488586426 43.8954086304 15.9208202362
24.0747718811 43.9429931641 15.7401399612
24.1084613800 44.0057182312 15.5637550354
24.1511173248 44.0859031677 15.3923444748
24.2024230957 44.1829338074 15.2257719040
24.2602462769 44.2926597595 15.0629005432
24.3211021423 44.4082908630 14.9018402100
24.3811225891 44.5222969055 14.7404708862
24.4368743896 44.6279945374 14.5768909454
24.4860725403 44.7209281921 14.4098167419
24.5280361176 44.7997817993 14.2388467789
24.5629959106 44.8649940491 14.0640773773
24.5904846191 44.9156608582 13.8852243423
24.6086349487 44.9481391907 13.7012100220
24.6148796082 44.9574356079 13.5105600357
24.6069297791 44.9390907288 13.3119392395
24.5832653046 44.8901405334 13.1044378281
24.5435428619 44.8099174500 12.8877983093
24.4891586304 44.7011375427 12.6627464294
24.4240150452 44.5714035034 12.4314384460
24.3550319672 44.4341888428 12.1977653503
24.2911338806 44.3068733215 11.9667978287
24.2405185699 44.2054252625 11.7432365417
24.2080860138 44.1393852234 11.5299425125
24.1951332092 44.1112861633 11.3277301788
24.2012023926 44.1202316284 11.1364135742
24.2263488770 44.1663360596 10.9561004639
24.2721500397 44.2526664734 10.7877788544
24.3407745361 44.3834495544 10.6327838898
24.4326038361 44.5594329834 10.4914302826
24.5441322327 44.7737884521 10.3617696762
24.6681556702 45.0124855042 10.2396802902
24.7964019775 45.2594108582 10.1203765869
24.9222831726 45.5017395020 10.0000171661
25.0413417816 45.7307739258 9.8759746552
25.1496524811 45.9388847351 9.7459144592
25.2426719666 46.1172142029 9.6071147919
25.3160953522 46.2573776245 9.4569692612
25.3678932190 46.3554191589 9.2941980362
25.3995399475 46.4142112732 9.1195917130
25.4154891968 46.4424247742 8.9357185364
25.4214897156 46.4512596130 8.7459459305
25.4230670929 46.4514808655 8.5535354614
25.4249324799 46.4522590637 8.3612918854
25.4313220978 46.4618530273 8.1717596054
25.4465522766 46.4886703491 7.9875535965
25.4747848511 46.5408172607 7.8112173080
25.5184993744 46.6231231689 7.6442999840
25.5767745972 46.7337951660 7.4863066673
25.6452026367 46.8642463684 7.3346195221
25.7176418304 47.0025177002 7.1855435371
25.7880687714 47.1368675232 7.0354228020
25.8513927460 47.2573852539 6.8811397552
25.9037513733 47.3565406799 6.7203011513
25.9427986145 47.4297676086 6.5514245033
25.9677963257 47.4756240845 6.3740048409
25.9794044495 47.4953918457 6.1883888245
25.9792747498 47.4922981262 5.9955477715
25.9695224762 47.4704513550 5.7967400551
25.9522285461 47.4339141846 5.5932207108
25.9298553467 47.3874816895 5.3864893913
25.9066486359 47.3394203186 5.1791682243
25.8893947601 47.3029594421 4.9754920006
25.8856868744 47.2928886414 4.7802329063
25.9003467560 47.3186035156 4.5964655876
25.9328308105 47.3790512085 4.4239239693
25.9775848389 47.4634017944 4.2591810226
26.0266609192 47.5561790466 4.0972723961
26.0726051331 47.6428527832 3.9335052967
26.1101036072 47.7130775452 3.7645003796
26.1361198425 47.7609214783 3.5882961750
26.1493225098 47.7838058472 3.4040014744
26.1498317719 47.7819557190 3.2116417885
26.1396560669 47.7592849731 3.0124480724
26.1234054565 47.7247734070 2.8093299866
26.1084403992 47.6927719116 2.6069836617
26.1036491394 47.6805915833 2.4111263752
26.1168518066 47.7034721375 2.2268345356
26.1519718170 47.7690658569 2.0567123890
26.2075862885 47.8745956421 1.8999255896
26.2774391174 48.0078735352 1.7525037527
26.3524856567 48.1512794495 1.6086295843
26.4237651825 48.2873420715 1.4624931812
26.4851627350 48.4041519165 1.3100938797
26.5348014832 48.4980468750 1.1501647234
26.5745582581 48.5726852417 0.9838888645
26.6083393097 48.6356849670 0.8137896657
26.6399288177 48.6944122314 0.6423295736
26.6712646484 48.7526435852 0.4707755744
26.7021331787 48.8099632263 0.2989865243
26.7314414978 48.8642501831 0.1262387782
57.6426696777 -14.3257865906 75.5042266846
57.6567192078 -14.3278217316 75.3199081421
57.6778182983 -14.3314189911 75.1361846924
57.7029380798 -14.3359069824 74.9528121948
57.7278099060 -14.3403406143 74.7694396973
57.7481727600 -14.3437747955 74.5857162476
57.7612037659 -14.3455848694 74.4013900757
57.7655715942 -14.3454742432 74.2163238525
57.7601737976 -14.3431997299 74.0304183960
57.7437400818 -14.3384790421 73.8435287476
57.7160453796 -14.3312616348 73.6556320190
57.6792144775 -14.3220195770 73.4668807983
57.6377563477 -14.3117513657 73.2776641846
57.5976905823 -14.3017921448 73.0885162354
57.5653343201 -14.2935400009 72.9000015259
57.5458221436 -14.2881355286 72.7126083374
57.5420074463 -14.2862100601 72.5266189575
57.5541725159 -14.2878274918 72.3420867920
57.5801734924 -14.2925119400 72.1588516235
57.6156158447 -14.2992877960 71.9765319824
57.6542701721 -14.3067779541 71.7945480347
57.6891441345 -14.3134298325 71.6122436523
57.7137794495 -14.3178119659 71.4290084839
57.7231559753 -14.3188114166 71.2443313599
57.7141075134 -14.3157253265 71.0578689575
57.6857986450 -14.3083696365 70.8695220947
57.6405601501 -14.2972612381 70.6794662476
57.5841636658 -14.2836780548 70.4882431030
57.5245285034 -14.2693758011 70.2966156006
57.4692039490 -14.2560300827 70.1053466797
57.4231872559 -14.2447471619 69.9149246216
57.3881874084 -14.2359056473 69.7255554199
57.3634300232 -14.2293357849 69.5371780396
57.3470230103 -14.2246170044 69.3496170044
57.3368110657 -14.2212715149 69.1626739502
57.3303833008 -14.2187652588 68.9760971069
57.3249053955 -14.2164688110 68.7896041870
57.3172645569 -14.2136926651 68.6028671265
57.3043174744 -14.2097406387 68.4155578613
57.2830276489 -14.2039384842 68.2273330688
57.2507019043 -14.1956882477 68.0378952026
57.2058944702 -14.1846694946 67.8470611572
57.1497154236 -14.1711301804 67.6549301147
57.0861473083 -14.1559505463 67.4619216919
57.0204544067 -14.1402988434 67.2685852051
56.9568138123 -14.1251029968 67.0753860474
56.8972396851 -14.1108074188 66.8825454712
56.8424682617 -14.0975761414 66.6901550293
56.7933654785 -14.0856027603 66.4983291626
56.7511901855 -14.0751647949 66.3072128296
56.7165985107 -14.0664081573 66.1168899536
56.6886711121 -14.0591297150 65.9272842407
56.6650466919 -14.0528059006 65.7381210327
56.6432914734 -14.0468959808 65.5491409302
56.6224594116 -14.0411911011 65.3602371216
56.6036453247 -14.0359334946 65.1715316772
56.5889587402 -14.0315904617 64.9832763672
56.5799407959 -14.0285053253 64.7956619263
56.5766754150 -14.0266952515 64.6087188721
56.5778007507 -14.0258598328 64.4222793579
56.5808334351 -14.0254487991 64.2360687256
56.5826034546 -14.0247564316 64.0497055054
56.5799865723 -14.0230903625 63.8627967834
56.5709266663 -14.0199956894 63.6750984192
56.5551414490 -14.0154085159 63.4865570068
56.5339927673 -14.0096302032 63.2973251343
56.5098228455 -14.0031833649 63.1076889038
56.4853439331 -13.9966669083 62.9179725647
56.4631080627 -13.9906473160 62.7285003662
56.4450531006 -13.9855566025 62.5395164490
56.4323081970 -13.9816427231 62.3511734009
56.4252090454 -13.9789819717 62.1635246277
56.4233436584 -13.9774818420 61.9765243530
56.4253425598 -13.9768381119 61.7900123596
56.4288101196 -13.9765214920 61.6036872864
56.4308776855 -13.9758939743 61.4171791077
56.4293632507 -13.9744720459 61.2301979065
56.4238319397 -13.9721584320 61.0426788330
56.4156265259 -13.9692506790 60.8547973633
56.4069061279 -13.9662294388 60.6668281555
56.3996467590 -13.9635324478 60.4790382385
56.3952217102 -13.9614639282 60.2916069031
56.3944549561 -13.9602069855 60.1046524048
56.3976593018 -13.9598312378 59.9182281494
56.4046440125 -13.9602947235 59.7323112488
56.4147338867 -13.9614477158 59.5468177795
56.4268531799 -13.9630498886 59.3616104126
56.4395217896 -13.9647750854 59.1764831543
56.4509124756 -13.9662160873 58.9911918640
56.4591751099 -13.9669637680 58.8054733276
56.4631195068 -13.9667510986 58.6191558838
56.4628448486 -13.9656038284 58.4322471619
56.4599571228 -13.9638767242 58.2449645996
56.4570960999 -13.9621543884 58.0576744080
56.4570121765 -13.9610490799 57.8707656860
56.4617347717 -13.9610099792 57.6845359802
56.4721527100 -13.9622354507 57.4991226196
56.4881553650 -13.9647006989 57.3145141602
56.5089950562 -13.9682397842 57.1306228638
56.5335464478 -13.9726028442 56.9472846985
56.5600166321 -13.9773921967 56.7642555237
56.5852394104 -13.9819040298 56.5810699463
56.6041831970 -13.9850215912 56.3969841003
56.6105918884 -13.9853582382 56.2110633850
56.5984573364 -13.9815778732 56.0223960876
56.5633773804 -13.9727029800 55.8302879333
56.5036430359 -13.9583549500 55.6344413757
56.4211349487 -13.9389505386 55.4350852966
56.3209877014 -13.9156293869 55.2329521179
56.2095375061 -13.8897972107 55.0289726257
56.0923347473 -13.8626880646 54.8239669800
55.9743461609 -13.8354034424 54.6186828613
55.8614273071 -13.8092422485 54.4140129089
55.7607612610 -13.7858018875 54.2110824585
55.6795616150 -13.7666816711 54.0110282898
55.6232795715 -13.7530946732 53.8147315979
55.5949211121 -13.7457065582 53.6227149963
55.5957374573 -13.7447967529 53.4352264404
55.6260719299 -13.7504425049 53.2523765564
55.6850700378 -13.7624511719 53.0740890503
55.7694931030 -13.7801074982 52.8999023438
55.8731422424 -13.8020324707 52.7288818359
55.9877204895 -13.8263854980 52.5597343445
56.1047744751 -13.8512897491 52.3911247253
56.2172470093 -13.8751773834 52.2219238281
56.3195877075 -13.8968153000 52.0512161255
56.4069137573 -13.9151201248 51.8781967163
56.4747695923 -13.9291009903 51.7021064758
56.5201873779 -13.9380989075 51.5224189758
56.5432090759 -13.9421234131 51.3391036987
56.5474967957 -13.9419879913 51.1527137756
56.5394630432 -13.9391155243 50.9642791748
56.5264015198 -13.9351272583 50.7749938965
56.5148010254 -13.9314622879 50.5859260559
56.5096817017 -13.9292364120 50.3979225159
56.5146675110 -13.9292554855 50.2116088867
56.5317344666 -13.9319581985 50.0273361206
56.5604286194 -13.9372434616 49.8450469971
56.5976257324 -13.9444169998 49.6642379761
56.6385879517 -13.9524278641 49.4841156006
56.6785087585 -13.9602069855 49.3038597107
56.7133636475 -13.9668617249 49.1227722168
56.7400283813 -13.9716968536 48.9403114319
56.7562561035 -13.9742136002 48.7560615540
56.7609672546 -13.9741725922 48.5698242188
56.7546653748 -13.9716854095 48.3816604614
56.7395324707 -13.9672346115 48.1919288635
56.7190208435 -13.9615907669 48.0012283325
56.6971244812 -13.9556379318 47.8102455139
56.6775932312 -13.9502105713 47.6196479797
56.6634788513 -13.9459857941 47.4299812317
56.6569824219 -13.9434537888 47.2416496277
56.6594238281 -13.9429073334 47.0549087524
56.6710891724 -13.9444112778 46.8698196411
56.6907463074 -13.9476900101 46.6861877441
56.7150878906 -13.9520092010 46.5034179688
56.7386627197 -13.9561595917 46.3205375671
56.7547683716 -13.9586496353 46.1363143921
56.7571907043 -13.9580993652 45.9495964050
56.7421722412 -13.9536733627 45.7596702576
56.7096786499 -13.9453649521 45.5664901733
56.6632843018 -13.9339666367 45.3706893921
56.6086959839 -13.9207468033 45.1732978821
56.5520591736 -13.9070720673 44.9754486084
56.4990806580 -13.8942108154 44.7782020569
56.4547233582 -13.8832626343 44.5824966431
56.4223899841 -13.8749876022 44.3889961243
56.4028663635 -13.8695592880 44.1978645325
56.3941726685 -13.8665370941 44.0087547302
56.3925743103 -13.8650913239 43.8209800720
56.3938941956 -13.8642940521 43.6337509155
56.3943557739 -13.8633060455 43.4463539124
56.3911285400 -13.8614988327 43.2582397461
56.3830108643 -13.8586044312 43.0691680908
56.3709373474 -13.8548297882 42.8793182373
56.3575210571 -13.8507575989 42.6891822815
56.3457565308 -13.8470516205 42.4993438721
56.3379096985 -13.8442173004 42.3102455139
56.3351478577 -13.8425121307 42.1221313477
56.3374977112 -13.8419437408 41.9350128174
56.3439331055 -13.8422832489 41.7486953735
56.3527107239 -13.8431434631 41.5628433228
56.3618621826 -13.8440866470 41.3770713806
56.3694992065 -13.8446931839 41.1909980774
56.3738327026 -13.8445663452 41.0042724609
56.3732452393 -13.8433437347 40.8165512085
56.3666038513 -13.8407764435 40.6276092529
56.3537025452 -13.8368167877 40.4373817444
56.3354682922 -13.8316726685 40.2460517883
56.3138580322 -13.8257770538 40.0540084839
56.2914123535 -13.8196954727 39.8617553711
56.2705459595 -13.8139648438 39.6697883606
56.2527732849 -13.8089218140 39.4784240723
56.2381515503 -13.8045797348 39.2876777649
56.2252998352 -13.8006296158 39.0972709656
56.2120437622 -13.7965908051 38.9067573547
56.1965103149 -13.7920446396 38.7157440186
56.1779060364 -13.7868156433 38.5240631104
56.1562004089 -13.7808971405 38.3317031860
56.1310081482 -13.7742033005 38.1385803223
56.1010627747 -13.7664527893 37.9444122314
56.0652885437 -13.7574043274 37.7489700317
56.0245742798 -13.7472591400 37.5524291992
55.9825477600 -13.7368202209 37.3555488586
55.9445419312 -13.7272748947 37.1594619751
55.9157142639 -13.7197713852 36.9652824402
55.8993949890 -13.7150487900 36.7737350464
55.8960113525 -13.7132024765 36.5849418640
55.9027786255 -13.7136135101 36.3983268738
55.9143753052 -13.7150993347 36.2127571106
55.9245262146 -13.7162628174 36.0268821716
55.9277610779 -13.7158880234 35.8395080566
55.9206619263 -13.7132158279 35.6498756409
55.9025039673 -13.7080831528 35.4578056335
55.8754348755 -13.7009687424 35.2637519836
55.8438873291 -13.6928586960 35.0686683655
55.8131408691 -13.6849250793 34.8737144470
55.7877540588 -13.6781835556 34.6798973083
55.7705802917 -13.6732692719 34.4878654480
55.7623405457 -13.6703414917 34.2977981567
55.7615928650 -13.6690807343 34.1093826294
55.7651176453 -13.6687698364 33.9219169617
55.7686462402 -13.6684608459 33.7344474792
55.7678070068 -13.6671781540 33.5459938049
55.7591094971 -13.6641492844 33.3557548523
55.7409591675 -13.6590166092 33.1633567810
55.7142524719 -13.6519804001 32.9689826965
55.6821746826 -13.6437492371 32.7733383179
55.6490554810 -13.6352863312 32.5774116516
55.6188812256 -13.6274776459 32.3821105957
55.5942382813 -13.6208992004 32.1880302429
55.5763359070 -13.6158208847 31.9954700470
55.5659179688 -13.6124067307 31.8046054840
55.5638542175 -13.6108522415 31.6156578064
55.5704231262 -13.6112174988 31.4287071228
55.5836791992 -13.6130704880 31.2433185577
55.5988311768 -13.6153450012 31.0583801270
55.6096496582 -13.6166563034 30.8724403381
55.6109848022 -13.6158580780 30.6842765808
55.6004409790 -13.6124153137 30.4933090210
55.5785026550 -13.6064376831 30.2996273041
55.5477447510 -13.5984973907 30.1038169861
55.5120773315 -13.5894641876 29.9067955017
55.4761924744 -13.5803823471 29.7096672058
55.4447631836 -13.5722913742 29.5135498047
55.4213256836 -13.5659790039 29.3193016052
55.4074249268 -13.5617885590 29.1273040771
55.4022865295 -13.5595483780 28.9373931885
55.4031524658 -13.5586433411 28.7489185333
55.4062004089 -13.5582246780 28.5609683990
55.4078140259 -13.5574865341 28.3726654053
55.4055900574 -13.5558938980 28.1834220886
55.3986625671 -13.5532550812 27.9930191040
55.3874244690 -13.5496559143 27.8015460968
55.3728408813 -13.5453128815 27.6092319489
55.3557891846 -13.5404205322 27.4162807465
55.3368606567 -13.5351095200 27.2228393555
55.3168945313 -13.5295677185 27.0291099548
55.2975196838 -13.5241565704 26.8354911804
55.2807502747 -13.5193262100 26.6424903870
55.2677993774 -13.5153446198 26.4504108429
55.2580947876 -13.5120868683 26.2591209412
55.2491378784 -13.5089950562 26.0679969788
55.2370071411 -13.5051956177 25.8760585785
55.2172737122 -13.4997043610 25.6821804047
55.1864166260 -13.4917373657 25.4854583740
55.1435317993 -13.4810914993 25.2856445313
55.0914230347 -13.4683933258 25.0834274292
55.0360679626 -13.4549703598 24.8803062439
54.9842567444 -13.4423370361 24.6780109406
54.9408454895 -13.4315729141 24.4777889252
54.9073600769 -13.4230175018 24.2800521851
54.8825645447 -13.4163980484 24.0844974518
