-1.464440 44.349388 13.807632 0.000000 0.000000 0.000000 
-1.467605 44.420536 13.630467 0.000000 0.000000 0.000000 
-1.470219 44.473747 13.448477 0.000000 0.000000 0.000000 
-1.472330 44.510582 13.262053 0.000000 0.000000 0.000000 
-1.474031 44.534130 13.072015 0.000000 0.000000 0.000000 
-1.475461 44.548855 12.879567 0.000000 0.000000 0.000000 
-1.476844 44.562057 12.686708 0.000000 0.000000 0.000000 
-1.478432 44.581894 12.495695 0.000000 0.000000 0.000000 
-1.480359 44.612816 12.307774 0.000000 0.000000 0.000000 
-1.482607 44.654144 12.122776 0.000000 0.000000 0.000000 
-1.485078 44.702770 11.939856 0.000000 0.000000 0.000000 
-1.487671 44.755360 11.758095 0.000000 0.000000 0.000000 
-1.490271 44.808186 11.576460 0.000000 0.000000 0.000000 
-1.492764 44.857548 11.393910 0.000000 0.000000 0.000000 
-1.495097 44.901718 11.209956 0.000000 0.000000 0.000000 
-1.497297 44.941547 11.024824 0.000000 0.000000 0.000000 
-1.499400 44.978226 10.838843 0.000000 0.000000 0.000000 
-1.501381 45.010944 10.651781 0.000000 0.000000 0.000000 
-1.503175 45.037567 10.463021 0.000000 0.000000 0.000000 
-1.504761 45.057430 10.272365 0.000000 0.000000 0.000000 
-1.506216 45.073017 10.080504 0.000000 0.000000 0.000000 
-1.507693 45.089340 9.888867 0.000000 0.000000 0.000000 
-1.509378 45.112415 9.699175 0.000000 0.000000 0.000000 
-1.511438 45.147736 9.513017 0.000000 0.000000 0.000000 
-1.513969 45.198410 9.331309 0.000000 0.000000 0.000000 
-1.516936 45.263294 9.153753 0.000000 0.000000 0.000000 
-1.520171 45.336926 8.978798 0.000000 0.000000 0.000000 
-1.523452 45.412086 8.804370 0.000000 0.000000 0.000000 
-1.526598 45.482872 8.628758 0.000000 0.000000 0.000000 
-1.529494 45.545475 8.450850 0.000000 0.000000 0.000000 
-1.532048 45.596973 8.269777 0.000000 0.000000 0.000000 
-1.534195 45.635197 8.084884 0.000000 0.000000 0.000000 
-1.535952 45.660706 7.896310 0.000000 0.000000 0.000000 
-1.537466 45.678284 7.705434 0.000000 0.000000 0.000000 
-1.538981 45.695877 7.514577 0.000000 0.000000 0.000000 
-1.540753 45.721886 7.326211 0.000000 0.000000 0.000000 
-1.542979 45.762714 7.142245 0.000000 0.000000 0.000000 
-1.545777 45.822220 6.963846 0.000000 0.000000 0.000000 
-1.549234 45.903248 6.791895 0.000000 0.000000 0.000000 
-1.553441 46.008766 6.627313 0.000000 0.000000 0.000000 
-1.558426 46.139690 6.470420 0.000000 0.000000 0.000000 
-1.564042 46.291252 6.319841 0.000000 0.000000 0.000000 
-1.569972 46.453094 6.172519 0.000000 0.000000 0.000000 
-1.575871 46.613968 6.025105 0.000000 0.000000 0.000000 
-1.581492 46.765800 5.875170 0.000000 0.000000 0.000000 
-1.586687 46.903721 5.721235 0.000000 0.000000 0.000000 
-1.591369 47.024918 5.562424 0.000000 0.000000 0.000000 
-1.595537 47.129368 5.398698 0.000000 0.000000 0.000000 
-1.599315 47.221073 5.231236 0.000000 0.000000 0.000000 
-1.602921 47.307201 5.062191 0.000000 0.000000 0.000000 
-1.606577 47.394939 4.893734 0.000000 0.000000 0.000000 
-1.610400 47.488194 4.727064 0.000000 0.000000 0.000000 
-1.614399 47.587181 4.562252 0.000000 0.000000 0.000000 
-1.618558 47.691448 4.399172 0.000000 0.000000 0.000000 
-1.622949 47.803295 4.238541 0.000000 0.000000 0.000000 
-1.627730 47.927933 4.081973 0.000000 0.000000 0.000000 
-1.633059 48.070507 3.931076 0.000000 0.000000 0.000000 
-1.638990 48.232822 3.786441 0.000000 0.000000 0.000000 
-1.645434 48.411922 3.647191 0.000000 0.000000 0.000000 
-1.652164 48.600403 3.511067 0.000000 0.000000 0.000000 
-1.658845 48.787357 3.374700 0.000000 0.000000 0.000000 
-1.665064 48.959217 3.233866 0.000000 0.000000 0.000000 
-1.670378 49.101479 3.084019 0.000000 0.000000 0.000000 
-1.674448 49.203083 2.921646 0.000000 0.000000 0.000000 
-1.677213 49.261978 2.746029 0.000000 0.000000 0.000000 
-1.678927 49.286480 2.559692 0.000000 0.000000 0.000000 
-1.680001 49.290058 2.366805 0.000000 0.000000 0.000000 
-1.680799 49.284565 2.171057 0.000000 0.000000 0.000000 
-1.681540 49.277241 1.974717 0.000000 0.000000 0.000000 
-1.682328 49.271454 1.778845 0.000000 0.000000 0.000000 
-1.683198 49.268303 1.583793 0.000000 0.000000 0.000000 
-1.684146 49.267757 1.389553 0.000000 0.000000 0.000000 
-1.685162 49.269398 1.196001 0.000000 0.000000 0.000000 
-1.686233 49.272873 1.003027 0.000000 0.000000 0.000000 
-1.687357 49.278061 0.810595 0.000000 0.000000 0.000000 
-1.688538 49.285137 0.618766 0.000000 0.000000 0.000000 
-1.689800 49.294849 0.427782 0.000000 0.000000 0.000000 
-1.691198 49.309002 0.238228 0.000000 0.000000 0.000000 
-1.692826 49.330730 0.051122 0.000000 0.000000 0.000000 
-49.412693 27.614397 63.360867 0.000000 0.000000 0.000000 
-49.418991 27.617825 63.173912 0.000000 0.000000 0.000000 
-49.429703 27.623549 62.987480 0.000000 0.000000 0.000000 
-49.440197 27.629158 62.801029 0.000000 0.000000 0.000000 
-49.447159 27.632929 62.614162 0.000000 0.000000 0.000000 
-49.450912 27.635033 62.426907 0.000000 0.000000 0.000000 
-49.453613 27.636587 62.239525 0.000000 0.000000 0.000000 
-49.455326 27.637625 62.052017 0.000000 0.000000 0.000000 
-49.453362 27.636749 61.864052 0.000000 0.000000 0.000000 
-49.445442 27.632774 61.675346 0.000000 0.000000 0.000000 
-49.432312 27.626085 61.485973 0.000000 0.000000 0.000000 
-49.417595 27.618570 61.296383 0.000000 0.000000 0.000000 
-49.406517 27.612949 61.107216 0.000000 0.000000 0.000000 
-49.405140 27.612383 60.919243 0.000000 0.000000 0.000000 
-49.420475 27.620512 60.733368 0.000000 0.000000 0.000000 
-49.460220 27.641352 60.550602 0.000000 0.000000 0.000000 
-49.530201 27.677931 60.371742 0.000000 0.000000 0.000000 
-49.629402 27.729723 60.196716 0.000000 0.000000 0.000000 
-49.747318 27.791260 60.024227 0.000000 0.000000 0.000000 
-49.867916 27.854191 59.852234 0.000000 0.000000 0.000000 
-49.977966 27.911631 59.679024 0.000000 0.000000 0.000000 
-50.072571 27.961029 59.503933 0.000000 0.000000 0.000000 
-50.153954 28.003544 59.327217 0.000000 0.000000 0.000000 
-50.226387 28.041401 59.149422 0.000000 0.000000 0.000000 
-50.291916 28.075665 58.970795 0.000000 0.000000 0.000000 
-50.349220 28.105642 58.791149 0.000000 0.000000 0.000000 
-50.395092 28.129671 58.610039 0.000000 0.000000 0.000000 
-50.426964 28.146410 58.427090 0.000000 0.000000 0.000000 
-50.444469 28.155670 58.242226 0.000000 0.000000 0.000000 
-50.448879 28.158113 58.055592 0.000000 0.000000 0.000000 
-50.441341 28.154337 57.867317 0.000000 0.000000 0.000000 
-50.422249 28.144545 57.677429 0.000000 0.000000 0.000000 
-50.393127 28.129530 57.486122 0.000000 0.000000 0.000000 
-50.359547 28.112194 57.294147 0.000000 0.000000 0.000000 
-50.332100 28.098053 57.102974 0.000000 0.000000 0.000000 
-50.323780 28.093870 56.914444 0.000000 0.000000 0.000000 
-50.345062 28.105095 56.730068 0.000000 0.000000 0.000000 
-50.399666 28.133671 56.550438 0.000000 0.000000 0.000000 
-50.483017 28.177208 56.374969 0.000000 0.000000 0.000000 
-50.583534 28.229683 56.202061 0.000000 0.000000 0.000000 
-50.686256 28.283308 56.029594 0.000000 0.000000 0.000000 
-50.777451 28.330931 55.855595 0.000000 0.000000 0.000000 
-50.847855 28.367729 55.678692 0.000000 0.000000 0.000000 
-50.893303 28.391535 55.498238 0.000000 0.000000 0.000000 
-50.914013 28.402464 55.314213 0.000000 0.000000 0.000000 
-50.914295 28.402758 55.127197 0.000000 0.000000 0.000000 
-50.901932 28.396469 54.938305 0.000000 0.000000 0.000000 
-50.885643 28.388136 54.748802 0.000000 0.000000 0.000000 
-50.871716 28.381031 54.559624 0.000000 0.000000 0.000000 
-50.862553 28.376410 54.371132 0.000000 0.000000 0.000000 
-50.857807 28.374084 54.183281 0.000000 0.000000 0.000000 
-50.856274 28.373434 53.995907 0.000000 0.000000 0.000000 
-50.857132 28.374029 53.808880 0.000000 0.000000 0.000000 
-50.860512 28.375933 53.622231 0.000000 0.000000 0.000000 
-50.867947 28.379951 53.436203 0.000000 0.000000 0.000000 
-50.882389 28.387617 53.251255 0.000000 0.000000 0.000000 
-50.906357 28.400240 53.067787 0.000000 0.000000 0.000000 
-50.938313 28.417025 52.885586 0.000000 0.000000 0.000000 
-50.970657 28.434010 52.703480 0.000000 0.000000 0.000000 
-50.993145 28.445864 52.519867 0.000000 0.000000 0.000000 
-51.000023 28.449589 52.333817 0.000000 0.000000 0.000000 
-50.993923 28.446562 52.145718 0.000000 0.000000 0.000000 
-50.983074 28.441061 51.956848 0.000000 0.000000 0.000000 
-50.975590 28.437311 51.768490 0.000000 0.000000 0.000000 
-50.976326 28.437841 51.581432 0.000000 0.000000 0.000000 
-50.986973 28.443531 51.395958 0.000000 0.000000 0.000000 
-51.006836 28.454018 51.211975 0.000000 0.000000 0.000000 
-51.033520 28.468056 51.029118 0.000000 0.000000 0.000000 
-51.064339 28.484247 50.846962 0.000000 0.000000 0.000000 
-51.097641 28.501730 50.665245 0.000000 0.000000 0.000000 
-51.132092 28.519810 50.483753 0.000000 0.000000 0.000000 
-51.164715 28.536942 50.301994 0.000000 0.000000 0.000000 
-51.190594 28.550560 50.119160 0.000000 0.000000 0.000000 
-51.204887 28.558149 49.934425 0.000000 0.000000 0.000000 
-51.204834 28.558268 49.747311 0.000000 0.000000 0.000000 
-51.190426 28.550915 49.557777 0.000000 0.000000 0.000000 
-51.164551 28.537592 49.366291 0.000000 0.000000 0.000000 
-51.132748 28.521181 49.173759 0.000000 0.000000 0.000000 
-51.101627 28.505127 48.981293 0.000000 0.000000 0.000000 
-51.076397 28.492140 48.789776 0.000000 0.000000 0.000000 
-51.059505 28.483494 48.599640 0.000000 0.000000 0.000000 
-51.051445 28.479445 48.410992 0.000000 0.000000 0.000000 
-51.052361 28.480070 48.223869 0.000000 0.000000 0.000000 
-51.062840 28.485672 48.038391 0.000000 0.000000 0.000000 
-51.083061 28.496346 47.854610 0.000000 0.000000 0.000000 
-51.111038 28.511055 47.672203 0.000000 0.000000 0.000000 
-51.141747 28.527189 47.490299 0.000000 0.000000 0.000000 
-51.168869 28.541454 47.307800 0.000000 0.000000 0.000000 
-51.187981 28.551550 47.123917 0.000000 0.000000 0.000000 
-51.198280 28.557060 46.938492 0.000000 0.000000 0.000000 
-51.201618 28.558945 46.751835 0.000000 0.000000 0.000000 
-51.200527 28.558523 46.564384 0.000000 0.000000 0.000000 
-51.197102 28.556889 46.376503 0.000000 0.000000 0.000000 
-51.192890 28.554842 46.188469 0.000000 0.000000 0.000000 
-51.189152 28.553043 46.000507 0.000000 0.000000 0.000000 
-51.187012 28.552076 45.812820 0.000000 0.000000 0.000000 
-51.187218 28.552330 45.625546 0.000000 0.000000 0.000000 
-51.189640 28.553738 45.438671 0.000000 0.000000 0.000000 
-51.192772 28.555515 45.251919 0.000000 0.000000 0.000000 
-51.193653 28.556122 45.064751 0.000000 0.000000 0.000000 
-51.188438 28.553553 44.876446 0.000000 0.000000 0.000000 
-51.174004 28.546186 44.686424 0.000000 0.000000 0.000000 
-51.150276 28.533981 44.494644 0.000000 0.000000 0.000000 
-51.121445 28.519119 44.301872 0.000000 0.000000 0.000000 
-51.094387 28.505182 44.109383 0.000000 0.000000 0.000000 
-51.075310 28.495399 43.918350 0.000000 0.000000 0.000000 
-51.067520 28.491491 43.729412 0.000000 0.000000 0.000000 
-51.071308 28.493608 43.542641 0.000000 0.000000 0.000000 
-51.084415 28.500580 43.357639 0.000000 0.000000 0.000000 
-51.102619 28.510202 43.173615 0.000000 0.000000 0.000000 
-51.121300 28.520075 42.989700 0.000000 0.000000 0.000000 
-51.137718 28.528769 42.805370 0.000000 0.000000 0.000000 
-51.151947 28.536322 42.620628 0.000000 0.000000 0.000000 
-51.165909 28.543737 42.435848 0.000000 0.000000 0.000000 
-51.181797 28.552156 42.251450 0.000000 0.000000 0.000000 
-51.200607 28.562094 42.067635 0.000000 0.000000 0.000000 
-51.220726 28.572714 41.884090 0.000000 0.000000 0.000000 
-51.237545 28.581617 41.699921 0.000000 0.000000 0.000000 
-51.245708 28.586014 41.514061 0.000000 0.000000 0.000000 
-51.243210 28.584860 41.326099 0.000000 0.000000 0.000000 
-51.233662 28.580038 41.136730 0.000000 0.000000 0.000000 
-51.224491 28.575411 40.947414 0.000000 0.000000 0.000000 
-51.223145 28.574858 40.759636 0.000000 0.000000 0.000000 
-51.234444 28.580887 40.574379 0.000000 0.000000 0.000000 
-51.259510 28.594082 40.391891 0.000000 0.000000 0.000000 
-51.295315 28.612867 40.211594 0.000000 0.000000 0.000000 
-51.335148 28.633749 40.032150 0.000000 0.000000 0.000000 
-51.370869 28.652493 39.851917 0.000000 0.000000 0.000000 
-51.396317 28.665884 39.669636 0.000000 0.000000 0.000000 
-51.409714 28.673006 39.484917 0.000000 0.000000 0.000000 
-51.413456 28.675100 39.298233 0.000000 0.000000 0.000000 
-51.411728 28.674349 39.110420 0.000000 0.000000 0.000000 
-51.407982 28.672546 38.922180 0.000000 0.000000 0.000000 
-51.403553 28.670387 38.733784 0.000000 0.000000 0.000000 
-51.397697 28.667488 38.545082 0.000000 0.000000 0.000000 
-51.389069 28.663141 38.355782 0.000000 0.000000 0.000000 
-51.378166 28.657614 38.165985 0.000000 0.000000 0.000000 
-51.368927 28.652950 37.976517 0.000000 0.000000 0.000000 
-51.367111 28.652155 37.788586 0.000000 0.000000 0.000000 
-51.376465 28.657171 37.603001 0.000000 0.000000 0.000000 
-51.396381 28.667685 37.419655 0.000000 0.000000 0.000000 
-51.422924 28.681648 37.237736 0.000000 0.000000 0.000000 
-51.450867 28.696341 37.056141 0.000000 0.000000 0.000000 
-51.474442 28.708759 36.873642 0.000000 0.000000 0.000000 
-51.487709 28.715813 36.688957 0.000000 0.000000 0.000000 
-51.486240 28.715195 36.501114 0.000000 0.000000 0.000000 
-51.469025 28.706383 36.309860 0.000000 0.000000 0.000000 
-51.438580 28.690681 36.115715 0.000000 0.000000 0.000000 
-51.399090 28.670273 35.919556 0.000000 0.000000 0.000000 
-51.354927 28.647432 35.722317 0.000000 0.000000 0.000000 
-51.311172 28.624802 35.525101 0.000000 0.000000 0.000000 
-51.274654 28.605942 35.329399 0.000000 0.000000 0.000000 
-51.252655 28.594637 35.136829 0.000000 0.000000 0.000000 
-51.249229 28.593002 34.948318 0.000000 0.000000 0.000000 
-51.262596 28.600105 34.763504 0.000000 0.000000 0.000000 
-51.286026 28.612450 34.580936 0.000000 0.000000 0.000000 
-51.310719 28.625452 34.398670 0.000000 0.000000 0.000000 
-51.327885 28.634533 34.214748 0.000000 0.000000 0.000000 
-51.330429 28.636005 34.027569 0.000000 0.000000 0.000000 
-51.315384 28.628321 33.836437 0.000000 0.000000 0.000000 
-51.285629 28.612980 33.641960 0.000000 0.000000 0.000000 
-51.249111 28.594120 33.445908 0.000000 0.000000 0.000000 
-51.216007 28.577034 33.250568 0.000000 0.000000 0.000000 
-51.195480 28.566498 33.058033 0.000000 0.000000 0.000000 
-51.192944 28.565325 32.869564 0.000000 0.000000 0.000000 
-51.208458 28.573547 32.685211 0.000000 0.000000 0.000000 
-51.237129 28.588621 32.503887 0.000000 0.000000 0.000000 
-51.271130 28.606466 32.323818 0.000000 0.000000 0.000000 
-51.301643 28.622496 32.142982 0.000000 0.000000 0.000000 
-51.320324 28.632366 31.959442 0.000000 0.000000 0.000000 
-51.321304 28.633026 31.771812 0.000000 0.000000 0.000000 
-51.303349 28.623825 31.579767 0.000000 0.000000 0.000000 
-51.269638 28.606426 31.384012 0.000000 0.000000 0.000000 
-51.225334 28.583513 31.185724 0.000000 0.000000 0.000000 
-51.175522 28.557732 30.986074 0.000000 0.000000 0.000000 
-51.124676 28.531412 30.786104 0.000000 0.000000 0.000000 
-51.076881 28.506681 30.586775 0.000000 0.000000 0.000000 
-51.035885 28.485489 30.388985 0.000000 0.000000 0.000000 
-51.004524 28.469313 30.193417 0.000000 0.000000 0.000000 
-50.983627 28.458584 30.000288 0.000000 0.000000 0.000000 
-50.971680 28.452513 29.809261 0.000000 0.000000 0.000000 
-50.965832 28.449617 29.619671 0.000000 0.000000 0.000000 
-50.963314 28.448454 29.430862 0.000000 0.000000 0.000000 
-50.962128 28.447983 29.242363 0.000000 0.000000 0.000000 
-50.961079 28.447584 29.053886 0.000000 0.000000 0.000000 
-50.959614 28.446972 28.865299 0.000000 0.000000 0.000000 
-50.957661 28.446102 28.676582 0.000000 0.000000 0.000000 
-50.955502 28.445126 28.487804 0.000000 0.000000 0.000000 
-50.953766 28.444370 28.299118 0.000000 0.000000 0.000000 
-50.953457 28.444357 28.110771 0.000000 0.000000 0.000000 
-50.955910 28.445782 27.923094 0.000000 0.000000 0.000000 
-50.962753 28.449492 27.736490 0.000000 0.000000 0.000000 
-50.975578 28.456316 27.551367 0.000000 0.000000 0.000000 
-50.994778 28.466455 27.367830 0.000000 0.000000 0.000000 
-51.017479 28.478422 27.185181 0.000000 0.000000 0.000000 
-51.036808 28.488628 27.001715 0.000000 0.000000 0.000000 
-51.044846 28.492962 26.815445 0.000000 0.000000 0.000000 
-51.038082 28.489588 26.625473 0.000000 0.000000 0.000000 
-51.020031 28.480341 26.432648 0.000000 0.000000 0.000000 
-50.998207 28.469128 26.238838 0.000000 0.000000 0.000000 
-50.978558 28.459049 26.045540 0.000000 0.000000 0.000000 
-50.962387 28.450779 25.853088 0.000000 0.000000 0.000000 
-50.947216 28.443031 25.660858 0.000000 0.000000 0.000000 
-50.929745 28.434086 25.468014 0.000000 0.000000 0.000000 
-50.908916 28.423391 25.274281 0.000000 0.000000 0.000000 
-50.887421 28.412350 25.080339 0.000000 0.000000 0.000000 
-50.870533 28.403708 24.887541 0.000000 0.000000 0.000000 
-50.863235 28.400057 24.697180 0.000000 0.000000 0.000000 
-50.867584 28.402468 24.509802 0.000000 0.000000 0.000000 
-50.881313 28.409763 24.324848 0.000000 0.000000 0.000000 
-50.897854 28.418522 24.140633 0.000000 0.000000 0.000000 
-50.908604 28.424263 23.954926 0.000000 0.000000 0.000000 
-50.907059 28.423607 23.766022 0.000000 0.000000 0.000000 
-50.892349 28.416100 23.573666 0.000000 0.000000 0.000000 
-50.869518 28.404364 23.379152 0.000000 0.000000 0.000000 
-50.846336 28.392447 23.184507 0.000000 0.000000 0.000000 
-50.829170 28.383659 22.991407 0.000000 0.000000 0.000000 
-50.820862 28.379482 22.800613 0.000000 0.000000 0.000000 
-50.821503 28.379965 22.612169 0.000000 0.000000 0.000000 
-50.830280 28.384682 22.425875 0.000000 0.000000 0.000000 
-50.846165 28.393097 22.241476 0.000000 0.000000 0.000000 
-50.867008 28.404095 22.058414 0.000000 0.000000 0.000000 
-50.888844 28.415607 21.875635 0.000000 0.000000 0.000000 
-50.907009 28.425211 21.691895 0.000000 0.000000 0.000000 
-50.918339 28.431255 21.506334 0.000000 0.000000 0.000000 
-50.921986 28.433302 21.318707 0.000000 0.000000 0.000000 
-50.918186 28.431473 21.129066 0.000000 0.000000 0.000000 
-50.906796 28.425692 20.937353 0.000000 0.000000 0.000000 
-50.887264 28.415674 20.743406 0.000000 0.000000 0.000000 
-50.859928 28.401592 20.547300 0.000000 0.000000 0.000000 
-50.826927 28.384563 20.349602 0.000000 0.000000 0.000000 
-50.791683 28.366367 20.151236 0.000000 0.000000 0.000000 
-50.757885 28.348925 19.953209 0.000000 0.000000 0.000000 
-50.729145 28.334114 19.756519 0.000000 0.000000 0.000000 
-50.708786 28.323666 19.562090 0.000000 0.000000 0.000000 
-50.698978 28.318708 19.370541 0.000000 0.000000 0.000000 
-50.700142 28.319462 19.182009 0.000000 0.000000 0.000000 
-50.710938 28.325232 18.996145 0.000000 0.000000 0.000000 
-50.728184 28.334354 18.812082 0.000000 0.000000 0.000000 
-50.746857 28.344223 18.628433 0.000000 0.000000 0.000000 
-50.761539 28.352015 18.443684 0.000000 0.000000 0.000000 
-50.768578 28.355825 18.256804 0.000000 0.000000 0.000000 
-50.766724 28.355007 18.067421 0.000000 0.000000 0.000000 
-50.755955 28.349550 17.875519 0.000000 0.000000 0.000000 
-50.736938 28.339802 17.681263 0.000000 0.000000 0.000000 
-50.712513 28.327236 17.485439 0.000000 0.000000 0.000000 
-50.689270 28.315289 17.289909 0.000000 0.000000 0.000000 
-50.676285 28.308678 17.097258 0.000000 0.000000 0.000000 
-50.681011 28.311285 16.909632 0.000000 0.000000 0.000000 
-50.705334 28.324093 16.727606 0.000000 0.000000 0.000000 
-50.744389 28.344568 16.549826 0.000000 0.000000 0.000000 
-50.788414 28.367630 16.373518 0.000000 0.000000 0.000000 
-50.826225 28.387461 16.195473 0.000000 0.000000 0.000000 
-50.848541 28.399223 16.012999 0.000000 0.000000 0.000000 
-50.850040 28.400152 15.824523 0.000000 0.000000 0.000000 
-50.830444 28.390100 15.629923 0.000000 0.000000 0.000000 
-50.795235 28.371923 15.430750 0.000000 0.000000 0.000000 
-50.755268 28.351271 15.230134 0.000000 0.000000 0.000000 
-50.723541 28.334904 15.031860 0.000000 0.000000 0.000000 
-50.710186 28.328102 14.838913 0.000000 0.000000 0.000000 
-50.718876 28.332775 14.652408 0.000000 0.000000 0.000000 
-50.745979 28.347029 14.471319 0.000000 0.000000 0.000000 
-50.782173 28.366014 14.292939 0.000000 0.000000 0.000000 
-50.816685 28.384125 14.114103 0.000000 0.000000 0.000000 
-50.842251 28.397581 13.932656 0.000000 0.000000 0.000000 
-50.856907 28.405357 13.747997 0.000000 0.000000 0.000000 
-50.861572 28.407934 13.560378 0.000000 0.000000 0.000000 
-50.856853 28.405626 13.369957 0.000000 0.000000 0.000000 
-50.842342 28.398222 13.176595 0.000000 0.000000 0.000000 
-50.818272 28.385841 12.980340 0.000000 0.000000 0.000000 
-50.787098 28.369766 12.781912 0.000000 0.000000 0.000000 
-50.753502 28.352428 12.582703 0.000000 0.000000 0.000000 
-50.723629 28.337029 12.384561 0.000000 0.000000 0.000000 
-50.704571 28.327259 12.189640 0.000000 0.000000 0.000000 
-50.702858 28.326513 11.999938 0.000000 0.000000 0.000000 
-50.720863 28.336035 11.816215 0.000000 0.000000 0.000000 
-50.753834 28.353342 11.637060 0.000000 0.000000 0.000000 
-50.791237 28.372959 11.459295 0.000000 0.000000 0.000000 
-50.822075 28.389156 11.279565 0.000000 0.000000 0.000000 
-50.839352 28.398298 11.095714 0.000000 0.000000 0.000000 
-50.840565 28.399076 10.906944 0.000000 0.000000 0.000000 
-50.825836 28.391562 10.713262 0.000000 0.000000 0.000000 
-50.797131 28.376768 10.515238 0.000000 0.000000 0.000000 
-50.758904 28.357021 10.314224 0.000000 0.000000 0.000000 
-50.718166 28.335968 10.112370 0.000000 0.000000 0.000000 
-50.682686 28.317650 9.912086 0.000000 0.000000 0.000000 
-50.658379 28.305147 9.715219 0.000000 0.000000 0.000000 
-50.647713 28.299746 9.522566 0.000000 0.000000 0.000000 
-50.649723 28.300940 9.333851 0.000000 0.000000 0.000000 
-50.660759 28.306831 9.147957 0.000000 0.000000 0.000000 
-50.675392 28.314598 8.963200 0.000000 0.000000 0.000000 
-50.687931 28.321272 8.777794 0.000000 0.000000 0.000000 
-50.694023 28.324591 8.590364 0.000000 0.000000 0.000000 
-50.690807 28.323065 8.399993 0.000000 0.000000 0.000000 
-50.675583 28.315290 8.205806 0.000000 0.000000 0.000000 
-50.645454 28.299759 8.006860 0.000000 0.000000 0.000000 
-50.599339 28.275908 7.802779 0.000000 0.000000 0.000000 
-50.540024 28.245184 7.594419 0.000000 0.000000 0.000000 
-50.473404 28.210659 7.383636 0.000000 0.000000 0.000000 
-50.405964 28.175711 7.172492 0.000000 0.000000 0.000000 
-50.343613 28.143406 6.962877 0.000000 0.000000 0.000000 
-50.291630 28.116501 6.756502 0.000000 0.000000 0.000000 
-50.253513 28.096811 6.554513 0.000000 0.000000 0.000000 
-50.229359 28.084389 6.356972 0.000000 0.000000 0.000000 
-50.216461 28.077827 6.163030 0.000000 0.000000 0.000000 
-50.211899 28.075602 5.971764 0.000000 0.000000 0.000000 
-50.214481 28.077093 5.782803 0.000000 0.000000 0.000000 
-50.224419 28.082415 5.596232 0.000000 0.000000 0.000000 
-50.241581 28.091496 5.412024 0.000000 0.000000 0.000000 
-50.264469 28.103556 5.229701 0.000000 0.000000 0.000000 
-50.291100 28.117565 5.048627 0.000000 0.000000 0.000000 
-50.320343 28.132935 4.868440 0.000000 0.000000 0.000000 
-50.351601 28.149351 4.688945 0.000000 0.000000 0.000000 
-50.383484 28.166094 4.509692 0.000000 0.000000 0.000000 
-50.414001 28.182127 4.330022 0.000000 0.000000 0.000000 
-50.441826 28.196756 4.149494 0.000000 0.000000 0.000000 
-50.466560 28.209778 3.967969 0.000000 0.000000 0.000000 
-50.488422 28.221306 3.785516 0.000000 0.000000 0.000000 
-50.509430 28.232386 3.602798 0.000000 0.000000 0.000000 
-50.534538 28.245602 3.421469 0.000000 0.000000 0.000000 
-50.569950 28.264183 3.243614 0.000000 0.000000 0.000000 
-50.620098 28.290430 3.070736 0.000000 0.000000 0.000000 
-50.687420 28.325617 2.903685 0.000000 0.000000 0.000000 
-50.774914 28.371302 2.743507 0.000000 0.000000 0.000000 
-50.887520 28.430056 2.591908 0.000000 0.000000 0.000000 
-51.030170 28.504446 2.450607 0.000000 0.000000 0.000000 
-51.203659 28.594887 2.319934 0.000000 0.000000 0.000000 
-51.400967 28.697721 2.197570 0.000000 0.000000 0.000000 
-51.606888 28.805038 2.078396 0.000000 0.000000 0.000000 
-51.802517 28.907001 1.955991 0.000000 0.000000 0.000000 
-51.972176 28.995445 1.824980 0.000000 0.000000 0.000000 
-52.108059 29.066315 1.682643 0.000000 0.000000 0.000000 
-52.210751 29.119907 1.529107 0.000000 0.000000 0.000000 
-52.286835 29.159653 1.366568 0.000000 0.000000 0.000000 
-52.345348 29.190252 1.198078 0.000000 0.000000 0.000000 
-52.394093 29.215771 1.026293 0.000000 0.000000 0.000000 
-52.437489 29.238503 0.852718 0.000000 0.000000 0.000000 
-52.476402 29.258902 0.677641 0.000000 0.000000 0.000000 
-52.509064 29.276049 0.500442 0.000000 0.000000 0.000000 
-52.532539 29.288414 0.320087 0.000000 0.000000 0.000000 
-52.544376 29.294722 0.135702 0.000000 0.000000 0.000000 
23.392736 43.291904 60.563057 0.000000 0.000000 0.000000 
23.405060 43.316906 60.374966 0.000000 0.000000 0.000000 
23.421957 43.350441 60.188110 0.000000 0.000000 0.000000 
23.434782 43.376377 60.000210 0.000000 0.000000 0.000000 
23.437775 43.383976 59.809711 0.000000 0.000000 0.000000 
23.431061 43.373466 59.616611 0.000000 0.000000 0.000000 
23.419340 43.353619 59.422134 0.000000 0.000000 0.000000 
23.408161 43.334785 59.227768 0.000000 0.000000 0.000000 
23.401194 43.323807 59.034512 0.000000 0.000000 0.000000 
23.400042 43.323669 58.842827 0.000000 0.000000 0.000000 
23.405598 43.336048 58.652973 0.000000 0.000000 0.000000 
23.418972 43.363010 58.465290 0.000000 0.000000 0.000000 
23.441029 43.406166 58.280048 0.000000 0.000000 0.000000 
23.471283 43.464611 58.097145 0.000000 0.000000 0.000000 
23.507662 43.534477 57.916035 0.000000 0.000000 0.000000 
23.547388 43.610584 57.735958 0.000000 0.000000 0.000000 
23.587795 43.687962 57.556171 0.000000 0.000000 0.000000 
23.626251 43.761700 57.375931 0.000000 0.000000 0.000000 
23.659969 43.826599 57.194431 0.000000 0.000000 0.000000 
23.686609 43.878296 57.010986 0.000000 0.000000 0.000000 
23.705259 43.915089 56.825298 0.000000 0.000000 0.000000 
23.716713 43.938465 56.637573 0.000000 0.000000 0.000000 
23.722818 43.951862 56.448318 0.000000 0.000000 0.000000 
23.725590 43.959042 56.258095 0.000000 0.000000 0.000000 
23.726780 43.963276 56.067410 0.000000 0.000000 0.000000 
23.727955 43.967484 55.876720 0.000000 0.000000 0.000000 
23.730791 43.974781 55.686516 0.000000 0.000000 0.000000 
23.737261 43.988861 55.497395 0.000000 0.000000 0.000000 
23.749414 44.013538 55.309986 0.000000 0.000000 0.000000 
23.768621 44.051373 55.124718 0.000000 0.000000 0.000000 
23.794769 44.102146 54.941589 0.000000 0.000000 0.000000 
23.826012 44.162418 54.760063 0.000000 0.000000 0.000000 
23.859222 44.226364 54.579216 0.000000 0.000000 0.000000 
23.890675 44.287029 54.397915 0.000000 0.000000 0.000000 
23.916691 44.337555 54.215019 0.000000 0.000000 0.000000 
23.934393 44.372578 54.029629 0.000000 0.000000 0.000000 
23.942522 44.389744 53.841312 0.000000 0.000000 0.000000 
23.942003 44.390789 53.650326 0.000000 0.000000 0.000000 
23.936062 44.381718 53.457638 0.000000 0.000000 0.000000 
23.929586 44.371655 53.264763 0.000000 0.000000 0.000000 
23.927557 44.369884 53.073261 0.000000 0.000000 0.000000 
23.932961 44.381969 52.884098 0.000000 0.000000 0.000000 
23.945456 44.407280 52.697197 0.000000 0.000000 0.000000 
23.961782 44.439732 52.511543 0.000000 0.000000 0.000000 
23.977753 44.471523 52.325813 0.000000 0.000000 0.000000 
23.990459 44.497231 52.139069 0.000000 0.000000 0.000000 
23.999193 44.515526 51.951069 0.000000 0.000000 0.000000 
24.004816 44.528019 51.762081 0.000000 0.000000 0.000000 
24.008663 44.537201 51.572521 0.000000 0.000000 0.000000 
24.011953 44.545345 51.382786 0.000000 0.000000 0.000000 
24.015820 44.554565 51.193241 0.000000 0.000000 0.000000 
24.021446 44.567070 51.004280 0.000000 0.000000 0.000000 
24.029844 44.584736 50.816242 0.000000 0.000000 0.000000 
24.041307 44.608120 50.629242 0.000000 0.000000 0.000000 
24.055239 44.636108 50.443089 0.000000 0.000000 0.000000 
24.070812 44.667156 50.257515 0.000000 0.000000 0.000000 
24.087574 44.700417 50.072372 0.000000 0.000000 0.000000 
24.104702 44.734360 49.887398 0.000000 0.000000 0.000000 
24.119642 44.764229 49.701717 0.000000 0.000000 0.000000 
24.128542 44.782829 49.514019 0.000000 0.000000 0.000000 
24.128946 44.785591 49.323437 0.000000 0.000000 0.000000 
24.122051 44.774746 49.130348 0.000000 0.000000 0.000000 
24.112020 44.758053 48.936157 0.000000 0.000000 0.000000 
24.103327 44.743855 48.742397 0.000000 0.000000 0.000000 
24.098700 44.737236 48.550014 0.000000 0.000000 0.000000 
24.098995 44.739799 48.359329 0.000000 0.000000 0.000000 
24.104170 44.751453 48.170341 0.000000 0.000000 0.000000 
24.113970 44.771736 47.982983 0.000000 0.000000 0.000000 
24.127748 44.799431 47.797043 0.000000 0.000000 0.000000 
24.144156 44.832031 47.612064 0.000000 0.000000 0.000000 
24.161573 44.866516 47.427483 0.000000 0.000000 0.000000 
24.178856 44.900745 47.242889 0.000000 0.000000 0.000000 
24.195267 44.933350 47.058025 0.000000 0.000000 0.000000 
24.209885 44.962608 46.872559 0.000000 0.000000 0.000000 
24.221712 44.986668 46.686115 0.000000 0.000000 0.000000 
24.230604 45.005253 46.498642 0.000000 0.000000 0.000000 
24.237795 45.020668 46.310566 0.000000 0.000000 0.000000 
24.245447 45.036942 46.122673 0.000000 0.000000 0.000000 
24.255880 45.058399 45.935810 0.000000 0.000000 0.000000 
24.271173 45.088917 45.750748 0.000000 0.000000 0.000000 
24.292795 45.131233 45.568050 0.000000 0.000000 0.000000 
24.320833 45.185509 45.387772 0.000000 0.000000 0.000000 
24.353298 45.248039 45.209202 0.000000 0.000000 0.000000 
24.386707 45.312325 45.031063 0.000000 0.000000 0.000000 
24.417841 45.372368 44.852158 0.000000 0.000000 0.000000 
24.444935 45.424881 44.671814 0.000000 0.000000 0.000000 
24.467319 45.468616 44.489769 0.000000 0.000000 0.000000 
24.484674 45.502968 44.305878 0.000000 0.000000 0.000000 
24.496988 45.527931 44.120121 0.000000 0.000000 0.000000 
24.504831 45.544556 43.932693 0.000000 0.000000 0.000000 
24.509163 45.554638 43.743942 0.000000 0.000000 0.000000 
24.510977 45.560024 43.554234 0.000000 0.000000 0.000000 
24.511408 45.562832 43.363991 0.000000 0.000000 0.000000 
24.512114 45.566154 43.173851 0.000000 0.000000 0.000000 
24.515200 45.573914 42.984627 0.000000 0.000000 0.000000 
24.522377 45.589298 42.796989 0.000000 0.000000 0.000000 
24.534088 45.613132 42.611130 0.000000 0.000000 0.000000 
24.549294 45.643482 42.426662 0.000000 0.000000 0.000000 
24.565907 45.676453 42.242775 0.000000 0.000000 0.000000 
24.581636 45.707779 42.058582 0.000000 0.000000 0.000000 
24.594912 45.734528 41.873455 0.000000 0.000000 0.000000 
24.605267 45.755829 41.687202 0.000000 0.000000 0.000000 
24.612986 45.772221 41.499928 0.000000 0.000000 0.000000 
24.618605 45.784702 41.311829 0.000000 0.000000 0.000000 
24.622713 45.794365 41.123131 0.000000 0.000000 0.000000 
24.625959 45.802418 40.934097 0.000000 0.000000 0.000000 
24.629026 45.810143 40.744991 0.000000 0.000000 0.000000 
24.632542 45.818695 40.556068 0.000000 0.000000 0.000000 
24.637037 45.829082 40.367550 0.000000 0.000000 0.000000 
24.643036 45.842266 40.179642 0.000000 0.000000 0.000000 
24.651089 45.859280 39.992584 0.000000 0.000000 0.000000 
24.661505 45.880699 39.806511 0.000000 0.000000 0.000000 
24.673666 45.905369 39.621170 0.000000 0.000000 0.000000 
24.685656 45.929722 39.435787 0.000000 0.000000 0.000000 
24.694944 45.949036 39.249313 0.000000 0.000000 0.000000 
24.699753 45.960003 39.061005 0.000000 0.000000 0.000000 
24.700050 45.962563 38.870827 0.000000 0.000000 0.000000 
24.697565 45.959934 38.679485 0.000000 0.000000 0.000000 
24.695105 45.957355 38.488136 0.000000 0.000000 0.000000 
24.695518 45.960133 38.297985 0.000000 0.000000 0.000000 
24.700819 45.972015 38.109886 0.000000 0.000000 0.000000 
24.711830 45.994537 37.924202 0.000000 0.000000 0.000000 
24.728245 46.027134 37.740833 0.000000 0.000000 0.000000 
24.748785 46.067417 37.559258 0.000000 0.000000 0.000000 
24.771444 46.111649 37.378628 0.000000 0.000000 0.000000 
24.794119 46.155907 37.198063 0.000000 0.000000 0.000000 
24.815304 46.197392 37.016914 0.000000 0.000000 0.000000 
24.834066 46.234360 36.834770 0.000000 0.000000 0.000000 
24.849503 46.265129 36.651237 0.000000 0.000000 0.000000 
24.860838 46.288258 36.465961 0.000000 0.000000 0.000000 
24.868210 46.304001 36.278992 0.000000 0.000000 0.000000 
24.873014 46.314953 36.090912 0.000000 0.000000 0.000000 
24.877361 46.325058 35.902645 0.000000 0.000000 0.000000 
24.883425 46.338360 35.715130 0.000000 0.000000 0.000000 
24.893152 46.358490 35.529240 0.000000 0.000000 0.000000 
24.908041 46.388237 35.345642 0.000000 0.000000 0.000000 
24.928686 46.428707 35.164627 0.000000 0.000000 0.000000 
24.954529 46.478870 34.985966 0.000000 0.000000 0.000000 
24.984211 46.536182 34.809071 0.000000 0.000000 0.000000 
25.015818 46.597076 34.633110 0.000000 0.000000 0.000000 
25.046503 46.656258 34.456818 0.000000 0.000000 0.000000 
25.072353 46.706425 34.278427 0.000000 0.000000 0.000000 
25.089573 46.740513 34.096214 0.000000 0.000000 0.000000 
25.096380 46.755199 33.909340 0.000000 0.000000 0.000000 
25.094093 46.752937 33.718361 0.000000 0.000000 0.000000 
25.086643 46.741055 33.525021 0.000000 0.000000 0.000000 
25.078936 46.728695 33.331543 0.000000 0.000000 0.000000 
25.075069 46.723492 33.139790 0.000000 0.000000 0.000000 
25.077362 46.729767 32.950844 0.000000 0.000000 0.000000 
25.086216 46.748268 32.764912 0.000000 0.000000 0.000000 
25.100220 46.776360 32.581367 0.000000 0.000000 0.000000 
25.116495 46.808685 32.398907 0.000000 0.000000 0.000000 
25.131760 46.839127 32.216019 0.000000 0.000000 0.000000 
25.143661 46.863304 32.031597 0.000000 0.000000 0.000000 
25.151279 46.879498 31.845205 0.000000 0.000000 0.000000 
25.154522 46.887539 31.656782 0.000000 0.000000 0.000000 
25.153374 46.887402 31.466303 0.000000 0.000000 0.000000 
25.147915 46.879230 31.273788 0.000000 0.000000 0.000000 
25.139006 46.864632 31.079626 0.000000 0.000000 0.000000 
25.128727 46.847485 30.884787 0.000000 0.000000 0.000000 
25.119724 46.832714 30.690521 0.000000 0.000000 0.000000 
25.113941 46.823940 30.497753 0.000000 0.000000 0.000000 
25.111998 46.822323 30.306795 0.000000 0.000000 0.000000 
25.113747 46.827583 30.117592 0.000000 0.000000 0.000000 
25.119097 46.839554 29.930115 0.000000 0.000000 0.000000 
25.128101 46.858330 29.744402 0.000000 0.000000 0.000000 
25.140261 46.882984 29.560228 0.000000 0.000000 0.000000 
25.153997 46.910580 29.376842 0.000000 0.000000 0.000000 
25.167088 46.936966 29.193174 0.000000 0.000000 0.000000 
25.177723 46.958782 29.008343 0.000000 0.000000 0.000000 
25.185144 46.974609 28.821964 0.000000 0.000000 0.000000 
25.189495 46.984715 28.634100 0.000000 0.000000 0.000000 
25.191460 46.990376 28.445072 0.000000 0.000000 0.000000 
25.192066 46.993507 28.255375 0.000000 0.000000 0.000000 
25.192501 46.996319 28.065590 0.000000 0.000000 0.000000 
25.193836 47.000805 27.876245 0.000000 0.000000 0.000000 
25.196712 47.008167 27.687660 0.000000 0.000000 0.000000 
25.201138 47.018410 27.499846 0.000000 0.000000 0.000000 
25.206511 47.030418 27.312510 0.000000 0.000000 0.000000 
25.211941 47.042538 27.125212 0.000000 0.000000 0.000000 
25.216637 47.053288 26.937553 0.000000 0.000000 0.000000 
25.220097 47.061733 26.749281 0.000000 0.000000 0.000000 
25.222069 47.067410 26.560263 0.000000 0.000000 0.000000 
25.222313 47.069866 26.370371 0.000000 0.000000 0.000000 
25.220402 47.068310 26.179384 0.000000 0.000000 0.000000 
25.215786 47.061710 25.987013 0.000000 0.000000 0.000000 
25.208340 47.049843 25.793182 0.000000 0.000000 0.000000 
25.199270 47.034950 25.598499 0.000000 0.000000 0.000000 
25.191488 47.022461 25.404446 0.000000 0.000000 0.000000 
25.188587 47.019054 25.212864 0.000000 0.000000 0.000000 
25.192858 47.029015 25.024960 0.000000 0.000000 0.000000 
25.204119 47.051994 24.840660 0.000000 0.000000 0.000000 
25.220221 47.083984 24.658888 0.000000 0.000000 0.000000 
25.238323 47.119709 24.478189 0.000000 0.000000 0.000000 
25.255728 47.154129 24.297169 0.000000 0.000000 0.000000 
25.270370 47.183399 24.114750 0.000000 0.000000 0.000000 
25.281448 47.206036 23.930506 0.000000 0.000000 0.000000 
25.289820 47.223629 23.744865 0.000000 0.000000 0.000000 
25.297606 47.240135 23.558935 0.000000 0.000000 0.000000 
25.307076 47.259773 23.373907 0.000000 0.000000 0.000000 
25.319351 47.284637 23.190376 0.000000 0.000000 0.000000 
25.333822 47.313591 23.008032 0.000000 0.000000 0.000000 
25.348886 47.343651 22.826036 0.000000 0.000000 0.000000 
25.363401 47.372688 22.643784 0.000000 0.000000 0.000000 
25.377426 47.400806 22.461300 0.000000 0.000000 0.000000 
25.391724 47.429436 22.278994 0.000000 0.000000 0.000000 
25.406624 47.459190 22.097044 0.000000 0.000000 0.000000 
25.421036 47.488026 21.914864 0.000000 0.000000 0.000000 
25.432348 47.511097 21.731049 0.000000 0.000000 0.000000 
25.437857 47.523357 21.544127 0.000000 0.000000 0.000000 
25.436918 47.523609 21.353729 0.000000 0.000000 0.000000 
25.431953 47.516365 21.161139 0.000000 0.000000 0.000000 
25.427277 47.509655 20.968687 0.000000 0.000000 0.000000 
25.426950 47.511047 20.778585 0.000000 0.000000 0.000000 
25.433355 47.524979 20.592154 0.000000 0.000000 0.000000 
25.446831 47.552071 20.409601 0.000000 0.000000 0.000000 
25.466000 47.589771 20.230204 0.000000 0.000000 0.000000 
25.488564 47.633793 20.052719 0.000000 0.000000 0.000000 
25.512072 47.679569 19.875809 0.000000 0.000000 0.000000 
25.534243 47.722858 19.698215 0.000000 0.000000 0.000000 
25.553146 47.760059 19.518866 0.000000 0.000000 0.000000 
25.567638 47.789047 19.337111 0.000000 0.000000 0.000000 
25.577652 47.809692 19.152893 0.000000 0.000000 0.000000 
25.583878 47.823284 18.966583 0.000000 0.000000 0.000000 
25.587261 47.831585 18.778694 0.000000 0.000000 0.000000 
25.588758 47.836372 18.589750 0.000000 0.000000 0.000000 
25.589334 47.839443 18.400286 0.000000 0.000000 0.000000 
25.589903 47.842503 18.210814 0.000000 0.000000 0.000000 
25.591228 47.846970 18.021765 0.000000 0.000000 0.000000 
25.593906 47.853958 17.833479 0.000000 0.000000 0.000000 
25.598503 47.864513 17.646282 0.000000 0.000000 0.000000 
25.605642 47.879810 17.460537 0.000000 0.000000 0.000000 
25.615778 47.900681 17.276514 0.000000 0.000000 0.000000 
25.628542 47.926449 17.094013 0.000000 0.000000 0.000000 
25.642361 47.954178 16.912144 0.000000 0.000000 0.000000 
25.654974 47.979664 16.729614 0.000000 0.000000 0.000000 
25.664587 47.999561 16.545385 0.000000 0.000000 0.000000 
25.670492 48.012558 16.359039 0.000000 0.000000 0.000000 
25.672731 48.018723 16.170582 0.000000 0.000000 0.000000 
25.671511 48.018452 15.980121 0.000000 0.000000 0.000000 
25.667320 48.012646 15.787924 0.000000 0.000000 0.000000 
25.661715 48.004211 15.594889 0.000000 0.000000 0.000000 
25.657825 47.998970 15.402832 0.000000 0.000000 0.000000 
25.659481 48.004047 15.214002 0.000000 0.000000 0.000000 
25.669386 48.024490 15.030004 0.000000 0.000000 0.000000 
25.687952 48.061058 14.851114 0.000000 0.000000 0.000000 
25.713484 48.110592 14.676369 0.000000 0.000000 0.000000 
25.742781 48.167137 14.503907 0.000000 0.000000 0.000000 
25.771603 48.222797 14.331236 0.000000 0.000000 0.000000 
25.795778 48.269810 14.155883 0.000000 0.000000 0.000000 
25.812887 48.303658 13.976389 0.000000 0.000000 0.000000 
25.822895 48.324287 13.792707 0.000000 0.000000 0.000000 
25.827097 48.334106 13.605581 0.000000 0.000000 0.000000 
25.826679 48.335331 13.415699 0.000000 0.000000 0.000000 
25.822435 48.329426 13.223515 0.000000 0.000000 0.000000 
25.815626 48.318748 13.029773 0.000000 0.000000 0.000000 
25.808802 48.308041 12.835997 0.000000 0.000000 0.000000 
25.805435 48.303772 12.644283 0.000000 0.000000 0.000000 
25.808624 48.311707 12.456519 0.000000 0.000000 0.000000 
25.819883 48.334667 12.273648 0.000000 0.000000 0.000000 
25.838467 48.371258 12.095251 0.000000 0.000000 0.000000 
25.861206 48.415592 11.919426 0.000000 0.000000 0.000000 
25.883425 48.458950 11.743339 0.000000 0.000000 0.000000 
25.900976 48.493622 11.564451 0.000000 0.000000 0.000000 
25.911917 48.515987 11.381553 0.000000 0.000000 0.000000 
25.916313 48.526169 11.194660 0.000000 0.000000 0.000000 
25.914837 48.525417 11.004157 0.000000 0.000000 0.000000 
25.908037 48.514755 10.810363 0.000000 0.000000 0.000000 
25.897028 48.496258 10.613941 0.000000 0.000000 0.000000 
25.884321 48.474602 10.416432 0.000000 0.000000 0.000000 
25.873432 48.456333 10.220014 0.000000 0.000000 0.000000 
25.867493 48.447273 10.026638 0.000000 0.000000 0.000000 
25.868279 48.450733 9.837433 0.000000 0.000000 0.000000 
25.876196 48.467472 9.652679 0.000000 0.000000 0.000000 
25.890547 48.496185 9.471969 0.000000 0.000000 0.000000 
25.909529 48.533516 9.294196 0.000000 0.000000 0.000000 
25.930506 48.574558 9.117723 0.000000 0.000000 0.000000 
25.951084 48.614864 8.941049 0.000000 0.000000 0.000000 
25.970448 48.652905 8.763656 0.000000 0.000000 0.000000 
25.989521 48.690407 8.586124 0.000000 0.000000 0.000000 
26.009737 48.730034 8.409363 0.000000 0.000000 0.000000 
26.031704 48.772919 8.233762 0.000000 0.000000 0.000000 
26.055010 48.818295 8.059066 0.000000 0.000000 0.000000 
26.078863 48.864689 7.884776 0.000000 0.000000 0.000000 
26.102766 48.911175 7.710575 0.000000 0.000000 0.000000 
26.127008 48.958294 7.536650 0.000000 0.000000 0.000000 
26.152765 49.008232 7.363755 0.000000 0.000000 0.000000 
26.181074 49.062920 7.192567 0.000000 0.000000 0.000000 
26.211178 49.120945 7.022604 0.000000 0.000000 0.000000 
26.240076 49.176727 6.851937 0.000000 0.000000 0.000000 
26.264174 49.223572 6.678233 0.000000 0.000000 0.000000 
26.281412 49.257648 6.500136 0.000000 0.000000 0.000000 
26.291924 49.279209 6.317708 0.000000 0.000000 0.000000 
26.297197 49.291019 6.131888 0.000000 0.000000 0.000000 
26.298996 49.296360 5.943807 0.000000 0.000000 0.000000 
26.298868 49.298115 5.754465 0.000000 0.000000 0.000000 
26.298128 49.298733 5.564716 0.000000 0.000000 0.000000 
26.297968 49.300426 5.375338 0.000000 0.000000 0.000000 
26.299480 49.305233 5.187056 0.000000 0.000000 0.000000 
26.303608 49.314915 5.000497 0.000000 0.000000 0.000000 
26.311054 49.330765 4.816135 0.000000 0.000000 0.000000 
26.322184 49.353470 4.634226 0.000000 0.000000 0.000000 
26.336817 49.382698 4.454666 0.000000 0.000000 0.000000 
26.353848 49.416389 4.276732 0.000000 0.000000 0.000000 
26.371202 49.450676 4.099054 0.000000 0.000000 0.000000 
26.386587 49.481300 3.920101 0.000000 0.000000 0.000000 
26.398428 49.505333 3.738813 0.000000 0.000000 0.000000 
26.406096 49.521595 3.554754 0.000000 0.000000 0.000000 
26.409748 49.530384 3.368013 0.000000 0.000000 0.000000 
26.410633 49.534023 3.179413 0.000000 0.000000 0.000000 
26.411392 49.537430 2.990725 0.000000 0.000000 0.000000 
26.415449 49.546970 2.804260 0.000000 0.000000 0.000000 
26.425627 49.567909 2.621944 0.000000 0.000000 0.000000 
26.443056 49.602337 2.444566 0.000000 0.000000 0.000000 
26.467060 49.648994 2.271697 0.000000 0.000000 0.000000 
26.495930 49.704712 2.102199 0.000000 0.000000 0.000000 
26.527576 49.765594 1.934667 0.000000 0.000000 0.000000 
26.559408 49.826820 1.767339 0.000000 0.000000 0.000000 
26.588266 49.882511 1.598054 0.000000 0.000000 0.000000 
26.611448 49.927643 1.424946 0.000000 0.000000 0.000000 
26.628002 49.960438 1.247336 0.000000 0.000000 0.000000 
26.638916 49.982735 1.065878 0.000000 0.000000 0.000000 
26.646317 49.998497 0.882019 0.000000 0.000000 0.000000 
26.652809 50.012569 0.697546 0.000000 0.000000 0.000000 
26.661182 50.030144 0.514388 0.000000 0.000000 0.000000 
26.673885 50.055767 0.334250 0.000000 0.000000 0.000000 
26.692015 50.091492 0.157916 0.000000 0.000000 0.000000 
-23.056604 39.315903 60.663292 0.000000 0.000000 0.000000 
-23.070885 39.338573 60.471832 0.000000 0.000000 0.000000 
-23.094948 39.376598 60.282387 0.000000 0.000000 0.000000 
-23.121042 39.417816 60.093407 0.000000 0.000000 0.000000 
-23.142738 39.452126 59.903568 0.000000 0.000000 0.000000 
-23.156992 39.474754 59.712227 0.000000 0.000000 0.000000 
-23.164104 39.486168 59.519417 0.000000 0.000000 0.000000 
-23.166424 39.490063 59.325615 0.000000 0.000000 0.000000 
-23.167128 39.491417 59.131466 0.000000 0.000000 0.000000 
-23.169867 39.495972 58.937740 0.000000 0.000000 0.000000 
-23.179123 39.510754 58.745399 0.000000 0.000000 0.000000 
-23.200161 39.544029 58.555595 0.000000 0.000000 0.000000 
-23.237562 39.602993 58.369347 0.000000 0.000000 0.000000 
-23.292574 39.689602 58.186977 0.000000 0.000000 0.000000 
-23.361244 39.797653 58.007694 0.000000 0.000000 0.000000 
-23.435461 39.914410 57.829765 0.000000 0.000000 0.000000 
-23.506315 40.025887 57.651257 0.000000 0.000000 0.000000 
-23.567070 40.121506 57.470669 0.000000 0.000000 0.000000 
-23.614206 40.195755 57.287186 0.000000 0.000000 0.000000 
-23.647568 40.248375 57.100727 0.000000 0.000000 0.000000 
-23.670399 40.284466 56.911980 0.000000 0.000000 0.000000 
-23.688601 40.313290 56.722229 0.000000 0.000000 0.000000 
-23.708527 40.344822 56.532902 0.000000 0.000000 0.000000 
-23.734226 40.385414 56.344921 0.000000 0.000000 0.000000 
-23.765902 40.435390 56.158356 0.000000 0.000000 0.000000 
-23.801065 40.490841 55.972656 0.000000 0.000000 0.000000 
-23.837606 40.548450 55.787338 0.000000 0.000000 0.000000 
-23.875610 40.608360 55.602436 0.000000 0.000000 0.000000 
-23.915989 40.671997 55.418163 0.000000 0.000000 0.000000 
-23.958166 40.738457 55.234394 0.000000 0.000000 0.000000 
-24.000252 40.804771 55.050686 0.000000 0.000000 0.000000 
-24.040947 40.868904 54.866737 0.000000 0.000000 0.000000 
-24.079723 40.930023 54.682411 0.000000 0.000000 0.000000 
-24.115091 40.985794 54.497353 0.000000 0.000000 0.000000 
-24.144281 41.031868 54.310886 0.000000 0.000000 0.000000 
-24.165283 41.065086 54.122501 0.000000 0.000000 0.000000 
-24.178587 41.086220 53.932293 0.000000 0.000000 0.000000 
-24.186956 41.099609 53.740906 0.000000 0.000000 0.000000 
-24.194225 41.111267 53.549263 0.000000 0.000000 0.000000 
-24.204092 41.127010 53.358261 0.000000 0.000000 0.000000 
-24.218962 41.150600 53.168507 0.000000 0.000000 0.000000 
-24.239155 41.182549 52.980095 0.000000 0.000000 0.000000 
-24.263182 41.220520 52.792671 0.000000 0.000000 0.000000 
-24.288565 41.260612 52.605633 0.000000 0.000000 0.000000 
-24.312401 41.298279 52.418255 0.000000 0.000000 0.000000 
-24.331972 41.329250 52.229847 0.000000 0.000000 0.000000 
-24.345736 41.351109 52.040001 0.000000 0.000000 0.000000 
-24.354105 41.364494 51.848808 0.000000 0.000000 0.000000 
-24.359344 41.372971 51.656826 0.000000 0.000000 0.000000 
-24.364891 41.381927 51.464928 0.000000 0.000000 0.000000 
-24.374374 41.397064 51.274044 0.000000 0.000000 0.000000 
-24.390541 41.422691 51.084904 0.000000 0.000000 0.000000 
-24.414566 41.460655 50.897831 0.000000 0.000000 0.000000 
-24.446131 41.510456 50.712769 0.000000 0.000000 0.000000 
-24.483580 41.569489 50.529312 0.000000 0.000000 0.000000 
-24.523582 41.632534 50.346603 0.000000 0.000000 0.000000 
-24.561481 41.692276 50.163418 0.000000 0.000000 0.000000 
-24.593311 41.742489 49.978695 0.000000 0.000000 0.000000 
-24.618217 41.781837 49.792194 0.000000 0.000000 0.000000 
-24.638924 41.814590 49.604614 0.000000 0.000000 0.000000 
-24.659548 41.847214 49.417053 0.000000 0.000000 0.000000 
-24.682348 41.883255 49.230114 0.000000 0.000000 0.000000 
-24.705936 41.920532 49.043430 0.000000 0.000000 0.000000 
-24.726658 41.953308 48.856010 0.000000 0.000000 0.000000 
-24.741879 41.977451 48.667126 0.000000 0.000000 0.000000 
-24.752035 41.993649 48.476879 0.000000 0.000000 0.000000 
-24.760067 42.006504 48.286060 0.000000 0.000000 0.000000 
-24.769529 42.021606 48.095646 0.000000 0.000000 0.000000 
-24.782900 42.042843 47.906326 0.000000 0.000000 0.000000 
-24.800478 42.070690 47.718204 0.000000 0.000000 0.000000 
-24.820169 42.101849 47.530704 0.000000 0.000000 0.000000 
-24.838615 42.131054 47.342888 0.000000 0.000000 0.000000 
-24.853113 42.154060 47.153992 0.000000 0.000000 0.000000 
-24.862749 42.169434 46.963745 0.000000 0.000000 0.000000 
-24.868103 42.178089 46.772289 0.000000 0.000000 0.000000 
-24.870358 42.181881 46.579952 0.000000 0.000000 0.000000 
