51.0045471191 -24.5903778076 43.6220283508
51.0684623718 -24.6191978455 43.4438934326
51.1034469604 -24.6342296600 43.2604637146
51.1056518555 -24.6336402893 43.0709686279
51.0742073059 -24.6170120239 42.8751792908
51.0084533691 -24.5840301514 42.6729049683
50.9132423401 -24.5370082855 42.4649925232
50.8047103882 -24.4836368561 42.2544212341
50.7066764832 -24.4352664948 42.0456886292
50.6407203674 -24.4021835327 41.8429107666
50.6201667786 -24.3907432556 41.6487045288
50.6486968994 -24.4026966095 41.4638595581
50.7183837891 -24.4342708588 41.2869529724
50.8098373413 -24.4762191772 41.1143264771
50.8999061584 -24.5175094604 40.9415473938
50.9726295471 -24.5505313873 40.7655105591
51.0241966248 -24.5734691620 40.5854377747
51.0595855713 -24.5886955261 40.4022598267
51.0859985352 -24.5996456146 40.2173576355
51.1083869934 -24.6086750031 40.0316886902
51.1286277771 -24.6166820526 39.8456153870
51.1466751099 -24.6236438751 39.6591262817
51.1618919373 -24.6292533875 39.4720840454
51.1737594604 -24.6332702637 39.2843894958
51.1822853088 -24.6356906891 39.0960273743
51.1882972717 -24.6369152069 38.9071617126
51.1941986084 -24.6380863190 38.7182731628
51.2052764893 -24.6417255402 38.5304298401
51.2302932739 -24.6520099640 38.3454170227
51.2779350281 -24.6730804443 38.1650390625
51.3483695984 -24.7050189972 37.9893684387
51.4272193909 -24.7409706116 37.8155059814
51.4915313721 -24.7699928284 37.6387519836
51.5249137878 -24.7842674255 37.4556922913
51.5272140503 -24.7837219238 37.2662353516
51.5110855103 -24.7743911743 37.0729446411
51.4922790527 -24.7637825012 36.8790626526
51.4828910828 -24.7576656342 36.6871185303
51.4897956848 -24.7593135834 36.4985618591
51.5148849487 -24.7696361542 36.3138351440
51.5541114807 -24.7866973877 36.1321105957
51.5966682434 -24.8053493500 35.9511337280
51.6283111572 -24.8187961578 35.7678871155
51.6388626099 -24.8221874237 35.5801811218
51.6285705566 -24.8156375885 35.3880233765
51.6079750061 -24.8041744232 35.1936378479
51.5913124084 -24.7945861816 35.0000572205
51.5887107849 -24.7917041779 34.8094749451
51.6028480530 -24.7968025208 34.6225013733
51.6297378540 -24.8079853058 34.4383087158
51.6598701477 -24.8207130432 34.2548446655
51.6802978516 -24.8288116455 34.0692939758
51.6807441711 -24.8273830414 33.8793792725
51.6603202820 -24.8159999847 33.6848754883
51.6269798279 -24.7984580994 33.4874839783
51.5895614624 -24.7789707184 33.2891349792
51.5507202148 -24.7588024139 33.0904121399
51.5059165955 -24.7357921600 32.8903007507
51.4466552734 -24.7058849335 32.6868934631
51.3639335632 -24.6647872925 32.4781494141
51.2504234314 -24.6090068817 32.2623710632
51.1039314270 -24.5374908447 32.0390090942
50.9350852966 -24.4553127289 31.8103904724
50.7734642029 -24.3765792847 31.5831718445
50.6592903137 -24.3204727173 31.3665008545
50.6208648682 -24.3004951477 31.1669216156
50.6566200256 -24.3159027100 30.9842281342
50.7382240295 -24.3531761169 30.8120765686
50.8319168091 -24.3962192535 30.6428050995
50.9201393127 -24.4366512299 30.4723873138
51.0059928894 -24.4759559631 30.3015308380
51.0994873047 -24.5189056396 30.1325511932
51.2011222839 -24.5657405853 29.9655799866
51.2990379333 -24.6107997894 29.7978668213
51.3802909851 -24.6479148865 29.6263809204
51.4423713684 -24.6758823395 29.4504966736
51.4929122925 -24.6983470917 29.2719726563
51.5398597717 -24.7190990448 29.0926589966
51.5835533142 -24.7382965088 28.9126262665
51.6181526184 -24.7531566620 28.7304878235
51.6385040283 -24.7612209320 28.5449962616
51.6438560486 -24.7621307373 28.3559436798
51.6356773376 -24.7565841675 28.1636524200
51.6138420105 -24.7445220947 27.9680633545
51.5761337280 -24.7248878479 27.7686157227
51.5212135315 -24.6970386505 27.5649547577
51.4512100220 -24.6619949341 27.3575630188
51.3711509705 -24.6221523285 27.1476249695
51.2868232727 -24.5802726746 26.9365329742
51.2034454346 -24.5388450623 26.7255477905
51.1244773865 -24.4995193481 26.5155181885
51.0508918762 -24.4627628326 26.3066959381
50.9840621948 -24.4292259216 26.0994224548
50.9304275513 -24.4019851685 25.8953037262
50.9012870789 -24.3864326477 25.6971607208
50.9059600830 -24.3870105743 25.5073528290
50.9450225830 -24.4039993286 25.3260936737
51.0100784302 -24.4333915710 25.1513557434
51.0890426636 -24.4694194794 24.9801712036
51.1711311340 -24.5069427490 24.8098678589
51.2484474182 -24.5421848297 24.6384639740
51.3166160583 -24.5730648041 24.4648513794
51.3762969971 -24.5998973846 24.2891750336
51.4320526123 -24.6248550415 24.1125717163
51.4868888855 -24.6493740082 23.9358024597
51.5376777649 -24.6719627380 23.7580661774
51.5770416260 -24.6891002655 23.5774688721
51.5996055603 -24.6982212067 23.3926143646
51.6055831909 -24.6994266510 23.2035217285
51.5989646912 -24.6946201324 23.0111846924
51.5833091736 -24.6855010986 22.8164958954
51.5582542419 -24.6718978882 22.6193447113
51.5175170898 -24.6508083344 22.4180812836
51.4493408203 -24.6166210175 22.2096157074
51.3411064148 -24.5633182526 21.9906024933
51.1869888306 -24.4881134033 21.7594356537
50.9934921265 -24.3941135406 21.5177307129
50.7785034180 -24.2898521423 21.2701072693
50.5643539429 -24.1859893799 21.0224037170
50.3694496155 -24.0913124084 20.7794857025
50.2035026550 -24.0104503632 20.5439624786
50.0692558289 -23.9447174072 20.3166217804
49.9681663513 -23.8948097229 20.0979137421
49.9035377502 -23.8623046875 19.8887901306
49.8783302307 -23.8486137390 19.6901130676
49.8917045593 -23.8533401489 19.5017414093
49.9379882813 -23.8737716675 19.3222236633
50.0064582825 -23.9047966003 19.1487388611
50.0818252563 -23.9391155243 18.9771995544
50.1486930847 -23.9693737030 18.8034496307
50.1982650757 -23.9913806915 18.6250820160
50.2303810120 -24.0050544739 18.4420223236
50.2494583130 -24.0125026703 18.2554340363
50.2596969604 -24.0157337189 18.0664443970
50.2634887695 -24.0158863068 17.8756904602
50.2619400024 -24.0134887695 17.6834621429
50.2555694580 -24.0087909698 17.4898929596
50.2445945740 -24.0018939972 17.2950344086
50.2288169861 -23.9927043915 17.0988197327
50.2064285278 -23.9803581238 16.9007377625
50.1714668274 -23.9620075226 16.6991176605
50.1135406494 -23.9326934814 16.4910316467
50.0251045227 -23.8888149261 16.2743263245
49.9131355286 -23.8336982727 16.0508937836
49.8012313843 -23.7786102295 15.8273181915
49.7155113220 -23.7360248566 15.6109580994
49.6676750183 -23.7115230560 15.4051666260
49.6521110535 -23.7024307251 15.2084360123
49.6558113098 -23.7025356293 15.0171394348
49.6672134399 -23.7063179016 14.8280277252
49.6779785156 -23.7097949982 14.6387395859
49.6819267273 -23.7100162506 14.4475078583
49.6748161316 -23.7049598694 14.2531042099
49.6550979614 -23.6938819885 14.0550603867
49.6256256104 -23.6781482697 13.8541746140
49.5947036743 -23.6617202759 13.6528196335
49.5735435486 -23.6499519348 13.4542350769
49.5715866089 -23.6473541260 13.2611761093
49.5945014954 -23.6566333771 13.0753297806
49.6449508667 -23.6790599823 12.8975191116
49.7211723328 -23.7137947083 12.7272882462
49.8134231567 -23.7561836243 12.5618381500
49.9048271179 -23.7981719971 12.3962545395
49.9794616699 -23.8321495056 12.2258558273
50.0303993225 -23.8548126221 12.0485687256
50.0601692200 -23.8673686981 11.8650932312
50.0752143860 -23.8728923798 11.6772899628
50.0811462402 -23.8740634918 11.4867944717
50.0820236206 -23.8728199005 11.2947940826
50.0820007324 -23.8711490631 11.1025180817
50.0864868164 -23.8716297150 10.9115762711
50.1005477905 -23.8766841888 10.7234973907
50.1249694824 -23.8866863251 10.5385332108
50.1539421082 -23.8988609314 10.3549604416
50.1785583496 -23.9089565277 10.1701040268
50.1936645508 -23.9145107269 9.9823999405
50.2012977600 -23.9164943695 9.7924432755
50.2086982727 -23.9183673859 9.6024169922
50.2252769470 -23.9246234894 9.4151802063
50.2617111206 -23.9403648376 9.2340049744
50.3290023804 -23.9708461761 9.0622911453
50.4344520569 -24.0195522308 8.9023342133
50.5767478943 -24.0858592987 8.7538099289
50.7458381653 -24.1649684906 8.6137046814
50.9280319214 -24.2503356934 8.4778528214
51.1103172302 -24.3357505798 8.3422660828
51.2811927795 -24.4157161713 8.2033863068
51.4313011169 -24.4857654572 8.0582885742
51.5561599731 -24.5437545776 7.9055371284
51.6586685181 -24.5910663605 7.7459826469
51.7482337952 -24.6321983337 7.5825195313
51.8354682922 -24.6722164154 7.4184365273
51.9253005981 -24.7134780884 7.2552771568
52.0139312744 -24.7541656494 7.0918512344
52.0919532776 -24.7897872925 6.9251961708
52.1508331299 -24.8162631989 6.7525968552
52.1876907349 -24.8322181702 6.5731039047
52.2055206299 -24.8390846252 6.3876228333
52.2099761963 -24.8395633698 6.1979093552
52.2060966492 -24.8360576630 6.0055394173
52.1968803406 -24.8300037384 5.8114523888
52.1831130981 -24.8217735291 5.6158881187
52.1633110046 -24.8106613159 5.4183630943
52.1338996887 -24.7949562073 5.2177171707
52.0907974243 -24.7727108002 5.0126185417
52.0324974060 -24.7432022095 4.8025546074
51.9621696472 -24.7079467773 4.5885157585
51.8868103027 -24.6702842712 4.3727436066
51.8155326843 -24.6345748901 4.1581840515
51.7594337463 -24.6061153412 3.9484496117
51.7308044434 -24.5907802582 3.7475745678
51.7391242981 -24.5930995941 3.5587074757
51.7862739563 -24.6139736176 3.3825385571
51.8654251099 -24.6501388550 3.2169098854
51.9642486572 -24.6957073212 3.0578379631
52.0692710876 -24.7442359924 2.9009282589
52.1684341431 -24.7899684906 2.7422204018
52.2520637512 -24.8282775879 2.5785031319
52.3137512207 -24.8561038971 2.4076266289
52.3509521484 -24.8722267151 2.2286984921
52.3638458252 -24.8767375946 2.0417325497
52.3539657593 -24.8703613281 1.8471864462
52.3249626160 -24.8548488617 1.6462340355
52.2840538025 -24.8336448669 1.4412511587
52.2399826050 -24.8109302521 1.2351427078
52.1980781555 -24.7892494202 1.0296912193
52.1576881409 -24.7682933807 0.8246833086
52.1147804260 -24.7461338043 0.6187615395
52.0666427612 -24.7214717865 0.4110030532
52.0144004822 -24.6948471069 0.2017803639
-17.7048950195 -43.2871475220 90.5421142578
-17.7063388824 -43.2910804749 90.3503112793
-17.7083511353 -43.2962532043 90.1585464478
-17.7122879028 -43.3056259155 89.9669189453
-17.7194042206 -43.3219337463 89.7755279541
-17.7300720215 -43.3459892273 89.5844268799
-17.7435855865 -43.3762588501 89.3935623169
-17.7590560913 -43.4107894897 89.2028884888
-17.7765102386 -43.4496536255 89.0124130249
-17.7967014313 -43.4944839478 88.8222045898
-17.8193893433 -43.5447616577 88.6322631836
-17.8419742584 -43.5948181152 88.4423675537
-17.8603363037 -43.6356620789 88.2521667480
-17.8709259033 -43.6595458984 88.0613403320
-17.8716735840 -43.6619606018 87.8696594238
-17.8610286713 -43.6395187378 87.6769409180
-17.8369998932 -43.5878753662 87.4829483032
-17.7982139587 -43.5040473938 87.2875061035
-17.7473106384 -43.3937797546 87.0907821655
-17.6938800812 -43.2779998779 86.8936538696
-17.6531257629 -43.1898765564 86.6976089478
-17.6398582458 -43.1617164612 86.5041656494
-17.6617336273 -43.2102203369 86.3142242432
-17.7152996063 -43.3278617859 86.1275939941
-17.7871780396 -43.4854545593 85.9430160522
-17.8616275787 -43.6486511230 85.7589187622
-17.9297294617 -43.7980003357 85.5743560791
-17.9916610718 -43.9338874817 85.3893203735
-18.0508022308 -44.0636901855 85.2041625977
-18.1074523926 -44.1880531311 85.0188903809
-18.1581726074 -44.2994842529 84.8331069946
-18.1991920471 -44.3897476196 84.6463699341
-18.2293148041 -44.4562377930 84.4584732056
-18.2499103546 -44.5019531250 84.2695465088
-18.2630004883 -44.5312881470 84.0797805786
-18.2698898315 -44.5470962524 83.8893051147
-18.2716369629 -44.5516929626 83.6982116699
-18.2700443268 -44.5489959717 83.5066986084
-18.2673873901 -44.5439796448 83.3150482178
-18.2650794983 -44.5397262573 83.1234283447
-18.2628707886 -44.5356903076 82.9318008423
-18.2594184875 -44.5289382935 82.7400054932
-18.2536754608 -44.5171890259 82.5478897095
-18.2461948395 -44.5016517639 82.3555221558
-18.2394752502 -44.4877777100 82.1632232666
-18.2369098663 -44.4829597473 81.9714660645
-18.2414436340 -44.4936332703 81.7806625366
-18.2558250427 -44.5257873535 81.5912246704
-18.2833309174 -44.5865669250 81.4036560059
-18.3254318237 -44.6791877747 81.2182312012
-18.3776397705 -44.7938575745 81.0343704224
-18.4300804138 -44.9090309143 80.8506851196
-18.4744300842 -45.0065536499 80.6659774780
-18.5100383759 -45.0850067139 80.4801025391
-18.5430946350 -45.1578941345 80.2939529419
-18.5804214478 -45.2400970459 80.1085281372
-18.6235446930 -45.3349418640 79.9240951538
-18.6677074432 -45.4320564270 79.7399368286
-18.7061214447 -45.5166282654 79.5550231934
-18.7349433899 -45.5802764893 79.3687133789
-18.7545375824 -45.6237983704 79.1810226440
-18.7673759460 -45.6525840759 78.9923171997
-18.7758827209 -45.6719131470 78.8029403687
-18.7819499969 -45.6859283447 78.6131820679
-18.7872428894 -45.6982498169 78.4233169556
-18.7927970886 -45.7111473083 78.2334976196
-18.7978496552 -45.7229461670 78.0436096191
-18.7998828888 -45.7281608582 77.8532180786
-18.7972087860 -45.7231025696 77.6620254517
-18.7916679382 -45.7117958069 77.4703292847
-18.7879047394 -45.7043647766 77.2789154053
-18.7899322510 -45.7095642090 77.0884933472
-18.7989673615 -45.7300529480 76.8993072510
-18.8138961792 -45.7633972168 76.7111740112
-18.8329639435 -45.8057670593 76.5238265991
-18.8555583954 -45.8558235168 76.3371658325
-18.8831748962 -45.9168434143 76.1514739990
-18.9184474945 -45.9945602417 75.9672622681
-18.9625968933 -46.0916366577 75.7847824097
-19.0134754181 -46.2033882141 75.6036911011
-19.0661182404 -46.3189926147 75.4230728149
-19.1155719757 -46.4276390076 75.2419967651
-19.1598453522 -46.5249862671 75.0600814819
-19.2005176544 -46.6144752502 74.8775939941
-19.2400951385 -46.7015762329 74.6950073242
-19.2783603668 -46.7858161926 74.5122833252
-19.3113975525 -46.8586502075 74.3286361694
-19.3339653015 -46.9086532593 74.1430053711
-19.3423194885 -46.9276504517 73.9545974731
-19.3354606628 -46.9134635925 73.7631454468
-19.3156585693 -46.8710479736 73.5690460205
-19.2885036469 -46.8125953674 73.3733749390
-19.2609367371 -46.7532424927 73.1775360107
-19.2378768921 -46.7037239075 72.9825363159
-19.2205696106 -46.6667518616 72.7886657715
-19.2079048157 -46.6399040222 72.5957107544
-19.1985721588 -46.6203269958 72.4034118652
-19.1921062469 -46.6069984436 72.2116928101
-19.1887931824 -46.6005477905 72.0206222534
-19.1893024445 -46.6024398804 71.8303604126
-19.1945114136 -46.6145744324 71.6411209106
-19.2055606842 -46.6394538879 71.4531707764
-19.2238864899 -46.6801986694 71.2668457031
-19.2505493164 -46.7391281128 71.0824203491
-19.2849998474 -46.8150444031 70.8998107910
-19.3245506287 -46.9020843506 70.7184524536
-19.3654403687 -46.9920425415 70.5374984741
-19.4043407440 -47.0776596069 70.3562164307
-19.4388446808 -47.1536941528 70.1740264893
-19.4674034119 -47.2167549133 69.9905624390
-19.4895801544 -47.2658958435 69.8056869507
-19.5060176849 -47.3025207520 69.6195373535
-19.5175971985 -47.3285522461 69.4322814941
-19.5246753693 -47.3447647095 69.2439804077
-19.5271472931 -47.3509330750 69.0546035767
-19.5248794556 -47.3467636108 68.8640823364
-19.5176906586 -47.3318557739 68.6723632813
-19.5050373077 -47.3050346375 68.4792861938
-19.4864082336 -47.2651863098 68.2846984863
-19.4628009796 -47.2144699097 68.0888290405
-19.4378318787 -47.1607894897 67.8925399780
-19.4166145325 -47.1152954102 67.6971054077
-19.4031066895 -47.0866050720 67.5035324097
-19.3987102509 -47.0777969360 67.3122100830
-19.4033260345 -47.0886383057 67.1231536865
-19.4170227051 -47.1192855835 66.9364166260
-19.4402408600 -47.1707000732 66.7521591187
-19.4724769592 -47.2417793274 66.5702896118
-19.5113754272 -47.3273887634 66.3902435303
-19.5535640717 -47.4201774597 66.2111587524
-19.5960845947 -47.5136833191 66.0322875977
-19.6366310120 -47.6028900146 65.8530120850
-19.6731014252 -47.6832008362 65.6727676392
-19.7039012909 -47.7511444092 65.4911117554
-19.7288494110 -47.8063278198 65.3079757690
-19.7492332458 -47.8515586853 65.1236724854
-19.7665958405 -47.8901977539 64.9385986328
-19.7814083099 -47.9232788086 64.7528762817
-19.7929916382 -47.9493141174 64.5663070679
-19.8005561829 -47.9665832520 64.3786468506
-19.8040924072 -47.9750709534 64.1898956299
-19.8043003082 -47.9762954712 64.0002136230
-19.8019142151 -47.9718666077 63.8097991943
-19.7969512939 -47.9618186951 63.6186408997
-19.7880134583 -47.9431037903 63.4263381958
-19.7722663879 -47.9095344543 63.2320556641
-19.7473449707 -47.8559570313 63.0350952148
-19.7151603699 -47.7865486145 62.8359565735
-19.6840076447 -47.7193870544 62.6370162964
-19.6649379730 -47.6785697937 62.4414901733
-19.6643238068 -47.6780090332 62.2513008118
-19.6799278259 -47.7128143311 62.0658721924
-19.7042045593 -47.7665328979 61.8830451965
-19.7304534912 -47.8245506287 61.7008705139
-19.7554359436 -47.8798027039 61.5183906555
-19.7778396606 -47.9294357300 61.3352050781
-19.7967090607 -47.9713592529 61.1510124207
-19.8119544983 -48.0053787231 60.9657707214
-19.8248443604 -48.0342636108 60.7798538208
-19.8367366791 -48.0609741211 60.5936622620
-19.8477230072 -48.0857048035 60.4072189331
-19.8570861816 -48.1068992615 60.2202987671
-19.8646907806 -48.1242561340 60.0328559875
-19.8714866638 -48.1398506165 59.8451766968
-19.8787269592 -48.1564140320 59.6576499939
-19.8866004944 -48.1743583679 59.4703369141
-19.8935546875 -48.1902999878 59.2827491760
-19.8972053528 -48.1990356445 59.0941276550
-19.8961124420 -48.1974220276 58.9039916992
-19.8906593323 -48.1863059998 58.7124443054
-19.8824882507 -48.1692619324 58.5200004578
-19.8734607697 -48.1503524780 58.3272438049
-19.8650989532 -48.1328926086 58.1346740723
-19.8585186005 -48.1193199158 57.9426536560
-19.8545131683 -48.1113586426 57.7514495850
-19.8536014557 -48.1101455688 57.5612487793
-19.8560333252 -48.1162261963 57.3721504211
-19.8617725372 -48.1295127869 57.1841506958
-19.8704643250 -48.1492385864 56.9971504211
-19.8815097809 -48.1740989685 56.8109588623
-19.8943099976 -48.2027854919 56.6253890991
-19.9086971283 -48.2349357605 56.4403839111
-19.9255046844 -48.2723617554 56.2562446594
-19.9467506409 -48.3194656372 56.0736656189
-19.9744224548 -48.3805809021 55.8933486938
-20.0076179504 -48.4537391663 55.7150192261
-20.0402736664 -48.5257225037 55.5365905762
-20.0627117157 -48.5754241943 55.3546981812
-20.0668601990 -48.5852432251 55.1664733887
-20.0510787964 -48.5516052246 54.9712562561
-20.0209388733 -48.4866561890 54.7709197998
-19.9855575562 -48.4102783203 54.5686302185
-19.9518966675 -48.3376579285 54.3668403625
-19.9204502106 -48.2698631287 54.1657333374
-19.8854045868 -48.1942214966 53.9632339478
-19.8401889801 -48.0964050293 53.7569580078
-19.7857322693 -47.9784355164 53.5471992493
-19.7344455719 -47.8673820496 53.3384208679
-19.7039470673 -47.8016586304 53.1370620728
-19.7044200897 -47.8034667969 52.9469451904
-19.7318973541 -47.8641548157 52.7667465210
-19.7734508514 -47.9555358887 52.5918235779
-19.8168830872 -48.0510139465 52.4177131653
-19.8553524017 -48.1356697083 52.2418785095
-19.8864498138 -48.2042541504 52.0634002686
-19.9102764130 -48.2569808960 51.8822784424
-19.9282722473 -48.2969932556 51.6990280151
-19.9419441223 -48.3275794983 51.5141868591
-19.9517173767 -48.3496665955 51.3279037476
-19.9568500519 -48.3616371155 51.1398696899
-19.9564743042 -48.3615913391 50.9497375488
-19.9506454468 -48.3496551514 50.7575035095
-19.9405307770 -48.3283767700 50.5635910034
-19.9280128479 -48.3018608093 50.3687133789
-19.9151229858 -48.2745285034 50.1736412048
-19.9028511047 -48.2485466003 49.9787673950
-19.8895626068 -48.2203483582 49.7834510803
-19.8712387085 -48.1811714172 49.5861091614
-19.8448600769 -48.1244316101 49.3855285645
-19.8120155334 -48.0535964966 49.1822967529
-19.7787456512 -47.9818305969 48.9787902832
-19.7516078949 -47.9234390259 48.7776222229
-19.7339439392 -47.8857040405 48.5801658630
-19.7253932953 -47.8678398132 48.3863143921
-19.7241134644 -47.8658256531 48.1953620911
-19.7291049957 -47.8774833679 48.0069427490
-19.7409706116 -47.9041290283 47.8213272095
-19.7608985901 -47.9483566284 47.6390342712
-19.7885417938 -48.0094032288 47.4599494934
-19.8204040527 -48.0796470642 47.2826805115
-19.8507270813 -48.1465415955 47.1048660278
-19.8746299744 -48.1994323730 46.9244728088
-19.8904972076 -48.2348060608 46.7408065796
-19.8994789124 -48.2551612854 46.5543060303
-19.9032096863 -48.2640724182 46.3656272888
-19.9022254944 -48.2627029419 46.1749725342
-19.8959445953 -48.2497825623 45.9820709229
-19.8834419250 -48.2233047485 45.7865142822
-19.8638496399 -48.1813621521 45.5878982544
-19.8363132477 -48.1221046448 45.3858299255
-19.8008155823 -48.0454902649 45.1802673340
-19.7601375580 -47.9575805664 44.9723663330
-19.7207241058 -47.8724250793 44.7648811340
-19.6903190613 -47.8069152832 44.5611648560
-19.6737556458 -47.7715797424 44.3633537292
-19.6702423096 -47.7646980286 44.1711654663
-19.6741409302 -47.7739753723 43.9822006226
-19.6789970398 -47.7853393555 43.7936592102
-19.6822338104 -47.7931785583 43.6044120789
-19.6864624023 -47.8031730652 43.4156074524
-19.6957931519 -47.8242950439 43.2290649414
-19.7110385895 -47.8583068848 43.0451736450
-19.7289600372 -47.8981590271 42.8625144958
-19.7455387115 -47.9350814819 42.6793022156
-19.7588081360 -47.9647865295 42.4946441650
-19.7688503265 -47.9874572754 42.3085670471
-19.7763118744 -48.0045051575 42.1213493347
-19.7814273834 -48.0164337158 41.9330825806
-19.7839107513 -48.0226249695 41.7436256409
-19.7832050323 -48.0218658447 41.5527153015
-19.7786712646 -48.0127601624 41.3600425720
-19.7695446014 -47.9936370850 41.1652412415
-19.7548503876 -47.9623794556 40.9678344727
-19.7338752747 -47.9174346924 40.7674751282
-19.7072544098 -47.8601760864 40.5644264221
-19.6777744293 -47.7966842651 40.3599586487
-19.6499233246 -47.7367477417 40.1561584473
-19.6283683777 -47.6905326843 39.9552116394
-19.6161651611 -47.6647071838 39.7585906982
-19.6134376526 -47.6595420837 39.5663948059
-19.6175613403 -47.6693115234 39.3774223328
-19.6252651215 -47.6868820190 39.1901550293
-19.6347885132 -47.7084236145 39.0037689209
-19.6459732056 -47.7335853577 38.8181991577
-19.6585597992 -47.7618026733 38.6333274841
-19.6709022522 -47.7894897461 38.4483680725
-19.6806106567 -47.8114318848 38.2621688843
-19.6864910126 -47.8250312805 38.0741424561
-19.6898078918 -47.8330383301 37.8848838806
-19.6934795380 -47.8418235779 37.6958007813
-19.6997146606 -47.8561973572 37.5079727173
-19.7080783844 -47.8752059937 37.3211975098
-19.7156906128 -47.8925781250 37.1340713501
-19.7191505432 -47.9009017944 36.9449157715
-19.7163257599 -47.8955230713 36.7526626587
-19.7069644928 -47.8758926392 36.5571479797
-19.6921138763 -47.8442993164 36.3588752747
-19.6729164124 -47.8032302856 36.1583786011
-19.6498470306 -47.7537193298 35.9558830261
-19.6234531403 -47.6969604492 35.7516441345
-19.5957298279 -47.6373062134 35.5466499329
-19.5700683594 -47.5821456909 35.3426055908
-19.5495510101 -47.5382003784 35.1410789490
-19.5356864929 -47.5087547302 34.9428634644
-19.5286540985 -47.4942054749 34.7480735779
-19.5282630920 -47.4941368103 34.5566520691
-19.5345916748 -47.5087127686 34.3686599731
-19.5480747223 -47.5388793945 34.1843528748
-19.5688762665 -47.5850067139 34.0038528442
-19.5956535339 -47.6441612244 33.8264961243
-19.6248931885 -47.7086791992 33.6504898071
-19.6521186829 -47.7688026428 33.4735183716
-19.6741485596 -47.8176078796 33.2939109802
-19.6902389526 -47.8534622192 33.1112632751
-19.7013130188 -47.8783760071 32.9260215759
-19.7085762024 -47.8949928284 32.7388076782
-19.7127647400 -47.9048995972 32.5499839783
-19.7140464783 -47.9084739685 32.3596305847
-19.7120895386 -47.9049873352 32.1675567627
-19.7059955597 -47.8924865723 31.9732723236
-19.6943321228 -47.8678398132 31.7759895325
-19.6757049561 -47.8280143738 31.5749416351
-19.6498889923 -47.7725219727 31.3699741364
-19.6185932159 -47.7050819397 31.1619739532
-19.5851974487 -47.6330680847 30.9527416229
-19.5541553497 -47.5661849976 30.7446746826
-19.5305690765 -47.5155525208 30.5405483246
-19.5188350677 -47.4907569885 30.3427925110
-19.5200920105 -47.4942779541 30.1520767212
-19.5310001373 -47.5188331604 29.9666366577
-19.5458927155 -47.5520782471 29.7834072113
-19.5604095459 -47.5845031738 29.6000080109
-19.5731105804 -47.6129684448 29.4156455994
-19.5843830109 -47.6383209229 29.2305240631
-19.5946960449 -47.6615829468 29.0448989868
-19.6038303375 -47.6822700500 28.8586406708
-19.6111030579 -47.6989059448 28.6713657379
-19.6158618927 -47.7100601196 28.4827022552
-19.6176776886 -47.7147941589 28.2923946381
-19.6161308289 -47.7122077942 28.1001968384
-19.6104660034 -47.7006378174 27.9056682587
-19.5996665955 -47.6778793335 27.7082118988
-19.5833206177 -47.6430320740 27.5075759888
-19.5626010895 -47.5986557007 27.3043994904
-19.5400714874 -47.5503273010 27.1001224518
-19.5180263519 -47.5030555725 26.8960456848
-19.4967727661 -47.4575119019 26.6923484802
-19.4744892120 -47.4097251892 26.4879913330
-19.4490108490 -47.3549728394 26.2817192078
-19.4203243256 -47.2932319641 26.0735111237
-19.3917045593 -47.2316322327 25.8652496338
-19.3681335449 -47.1810417175 25.6598224640
-19.3533573151 -47.1496162415 25.4594326019
-19.3484077454 -47.1396102905 25.2647209167
-19.3526153564 -47.1495666504 25.0753402710
-19.3652954102 -47.1779861450 24.8909301758
-19.3860511780 -47.2240066528 24.7112979889
-19.4136161804 -47.2848701477 24.5357341766
-19.4449176788 -47.3538742065 24.3624515533
-19.4758205414 -47.4220123291 24.1890220642
-19.5027885437 -47.4815711975 24.0133419037
-19.5238094330 -47.5281677246 23.8341960907
-19.5383090973 -47.5605545044 23.6512165070
-19.5468120575 -47.5798683167 23.4646873474
-19.5503597260 -47.5883827209 23.2752037048
-19.5494365692 -47.5871543884 23.0830364227
-19.5430488586 -47.5740127563 22.8875656128
-19.5289859772 -47.5441436768 22.6874294281
-19.5056953430 -47.4941635132 22.4816551208
-19.4745311737 -47.4270210266 22.2710208893
-19.4401626587 -47.3529014587 22.0583362579
-19.4082698822 -47.2841720581 21.8470516205
-19.3825874329 -47.2289848328 21.6394634247
-19.3639717102 -47.1891937256 21.4361228943
-19.3515567780 -47.1629180908 21.2365322113
-19.3441772461 -47.1476173401 21.0400009155
-19.3409214020 -47.1413078308 20.8459873199
-19.3410663605 -47.1424064636 20.6540641785
-19.3439846039 -47.1495475769 20.4638538361
-19.3491592407 -47.1616096497 20.2750530243
-19.3562240601 -47.1777915955 20.0874385834
-19.3649349213 -47.1975593567 19.9008674622
-19.3751068115 -47.2205123901 19.7152328491
-19.3866157532 -47.2463798523 19.5304622650
-19.3993301392 -47.2748718262 19.3464775085
-19.4128284454 -47.3050727844 19.1630210876
-19.4258594513 -47.3342552185 18.9792995453
-19.4361629486 -47.3574943542 18.7938823700
-19.4412479401 -47.3693618774 18.6051712036
-19.4396820068 -47.3667297363 18.4122257233
-19.4315242767 -47.3497352600 18.2150573730
-19.4174690247 -47.3198890686 18.0140800476
-19.3979988098 -47.2782402039 17.8095760345
-19.3737831116 -47.2262496948 17.6019515991
-19.3465194702 -47.1676139832 17.3922805786
-19.3184337616 -47.1071929932 17.1819896698
-19.2907695770 -47.0476837158 16.9718780518
-19.2634849548 -46.9890098572 16.7619228363
-19.2370281219 -46.9321327209 16.5524177551
-19.2140674591 -46.8828811646 16.3451080322
-19.1988620758 -46.8505287170 16.1427917480
-19.1946430206 -46.8421211243 15.9476299286
-19.2017459869 -46.8583831787 15.7598857880
-19.2179775238 -46.8945388794 15.5781707764
-19.2402191162 -46.9437942505 15.4004650116
-19.2652606964 -46.9991531372 15.2246732712
-19.2895603180 -47.0528945923 15.0484580994
-19.3094940186 -47.0971183777 14.8694067001
-19.3230495453 -47.1274452209 14.6861591339
-19.3312892914 -47.1461868286 14.4993963242
-19.3373870850 -47.1602592468 14.3112163544
-19.3437023163 -47.1748085022 14.1231956482
-19.3496685028 -47.1885910034 13.9349508286
-19.3521995544 -47.1948928833 13.7444019318
-19.3477993011 -47.1860885620 13.5491743088
-19.3344402313 -47.1577568054 13.3478603363
-19.3122673035 -47.1102256775 13.1405220032
-19.2834758759 -47.0482673645 12.9286079407
-19.2517795563 -46.9799804688 12.7146196365
-19.2215328217 -46.9148521423 12.5015201569
-19.1964530945 -46.8609848022 12.2918577194
-19.1785907745 -46.8228454590 12.0870628357
-19.1683139801 -46.8012351990 11.8874206543
-19.1651134491 -46.7950477600 11.6926174164
-19.1684494019 -46.8031044006 11.5023097992
-19.1782035828 -46.8251457214 11.3164472580
-19.1946697235 -46.8618125916 11.1352624893
-19.2179546356 -46.9133377075 10.9588584900
-19.2469215393 -46.9772491455 10.7864780426
-19.2787475586 -47.0473861694 10.6161718369
-19.3098468781 -47.1159439087 10.4454479218
-19.3373680115 -47.1766967773 10.2723016739
-19.3597621918 -47.2262840271 10.0956306458
-19.3765392303 -47.2636260986 9.9150638580
-19.3880252838 -47.2894401550 9.7308082581
-19.3951396942 -47.3057289124 9.5434885025
-19.3988628387 -47.3146286011 9.3537807465
-19.3997554779 -47.3173561096 9.1620664597
-19.3979415894 -47.3141899109 8.9684209824
-19.3934936523 -47.3052825928 8.7728843689
-19.3865013123 -47.2908325195 8.5755100250
-19.3762359619 -47.2692451477 8.3757610321
-19.3601341248 -47.2349433899 8.1717853546
-19.3345127106 -47.1798973083 7.9609069824
-19.2972373962 -47.0994606018 7.7415432930
-19.2497577667 -46.9967880249 7.5146903992
-19.1963596344 -46.8812217712 7.2834010124
-19.1417160034 -46.7629356384 7.0510387421
-19.0892868042 -46.6494789124 6.8201141357
-19.0415668488 -46.5462837219 6.5924539566
-19.0011100769 -46.4589157104 6.3699426651
-18.9705200195 -46.3930473328 6.1545181274
-18.9511852264 -46.3517036438 5.9472432137
-18.9424762726 -46.3335189819 5.7477073669
-18.9425468445 -46.3344612122 5.5545992851
-18.9498367310 -46.3511314392 5.3668069839
-18.9637908936 -46.3823280334 5.1839561462
-18.9842243195 -46.4276390076 5.0059385300
-19.0098857880 -46.4843406677 4.8318543434
-19.0377597809 -46.5458641052 4.6594867706
-19.0642642975 -46.6044006348 4.4861750603
-19.0873394012 -46.6554679871 4.3103771210
-19.1071090698 -46.6993331909 4.1321697235
-19.1244525909 -46.7379112244 3.9521958828
-19.1393051147 -46.7710609436 3.7703971863
-19.1504344940 -46.7961006165 3.5858347416
-19.1562366486 -46.8095283508 3.3972802162
-19.1551017761 -46.8078422546 3.2034938335
-19.1452102661 -46.7870788574 3.0030679703
-19.1248607635 -46.7435264587 2.7946696281
-19.0935249329 -46.6760368347 2.5778501034
-19.0524940491 -46.5874252319 2.3535425663
-19.0043525696 -46.4833183289 2.1236763000
-18.9520492554 -46.3701438904 1.8904746771
-18.8983898163 -46.2540206909 1.6560688019
-18.8457012177 -46.1400070190 1.4222360849
-18.7953796387 -46.0311546326 1.1900591850
-18.7478771210 -45.9284439087 0.9598958492
-18.7035331726 -45.8326187134 0.7320200801
-18.6637439728 -45.7467155457 0.5075271130
-18.6312274933 -45.6766548157 0.2885455191
-18.6088562012 -45.6287078857 0.0773411617
19.2381572723 -27.8728618622 90.8316040039
19.2452449799 -27.8800106049 90.6306152344
19.2597198486 -27.8974075317 90.4298400879
19.2801342010 -27.9230422974 90.2292480469
19.3059387207 -27.9561576843 90.0288467407
19.3361148834 -27.9953384399 89.8286132813
19.3669872284 -28.0354843140 89.6284561157
19.3922328949 -28.0678234100 89.4281692505
19.4064483643 -28.0848636627 89.2275466919
19.4092121124 -28.0860137939 89.0265426636
19.4048557281 -28.0772838593 88.8252792358
19.3981552124 -28.0653057098 88.6239166260
19.3909626007 -28.0526390076 88.4225006104
19.3825092316 -28.0382270813 88.2210159302
19.3715400696 -28.0203247070 88.0193939209
19.3576583862 -27.9983768463 87.8176269531
19.3413410187 -27.9730510712 87.6157150269
19.3231334686 -27.9451026917 87.4136734009
19.3023796082 -27.9136180878 87.2114715576
19.2766628265 -27.8752498627 87.0089950562
19.2442188263 -27.8275432587 86.8061447144
19.2104015350 -27.7779312134 86.6031494141
19.1931743622 -27.7513408661 86.4008636475
19.2174320221 -27.7823085785 86.2005691528
19.2969799042 -27.8900032043 86.0030670166
19.4210433960 -28.0594654083 85.8079833984
19.5620193481 -28.2524013519 85.6140213013
19.6962814331 -28.4360275269 85.4199752808
19.8151245117 -28.5982570648 85.2253646851
19.9195613861 -28.7404975891 85.0301895142
20.0116367340 -28.8655910492 84.8345184326
20.0914630890 -28.9736862183 84.6383285522
20.1580066681 -29.0633506775 84.4415206909
20.2104740143 -29.1334819794 84.2440032959
20.2510414124 -29.1871032715 84.0458602905
20.2875518799 -29.2350959778 83.8475418091
20.3304595947 -29.2919654846 83.6496887207
20.3831768036 -29.3624477386 83.4525299072
20.4347343445 -29.4313259125 83.2553863525
20.4644718170 -29.4699211121 83.0569152832
20.4567680359 -29.4565544128 82.8560104370
20.4133205414 -29.3935813904 82.6526718140
20.3519248962 -29.3056964874 82.4480056763
20.2925624847 -29.2206325531 82.2433395386
20.2433032990 -29.1495895386 82.0392532349
20.1989974976 -29.0854206085 81.8354110718
20.1531085968 -29.0190525055 81.6313476563
20.1107730865 -28.9576148987 81.4274368286
20.0901546478 -28.9263172150 81.2250518799
20.1098861694 -28.9510231018 81.0256500244
20.1749897003 -29.0387020111 80.8297576904
20.2749538422 -29.1747684479 80.6366806030
20.3929653168 -29.3358879089 80.4452209473
20.5145587921 -29.5019836426 80.2542800903
20.6290855408 -29.6582717896 80.0630035400
20.7279491425 -29.7928199768 79.8706665039
20.8052368164 -29.8974246979 79.6767349243
20.8600883484 -29.9708900452 79.4810791016
20.8968048096 -30.0191841125 79.2839813232
20.9225540161 -30.0522537231 79.0860061646
20.9456806183 -30.0816841125 78.8878479004
20.9749774933 -30.1196784973 78.6902618408
21.0165653229 -30.1747379303 78.4938125610
21.0674552917 -30.2427101135 78.2982788086
21.1124210358 -30.3024578094 78.1022949219
21.1319828033 -30.3269443512 77.9040603638
21.1176662445 -30.3043994904 77.7027053833
21.0793552399 -30.2485466003 77.4990463257
21.0364131927 -30.1862640381 77.2948608398
21.0015830994 -30.1352424622 77.0913543701
20.9726238251 -30.0923652649 76.8883361816
20.9371604919 -30.0404605865 76.6846084595
20.8855228424 -29.9661026001 76.4791870117
20.8219242096 -29.8751354218 76.2724533081
20.7655906677 -29.7942523956 76.0663146973
20.7399959564 -29.7560424805 75.8631820679
20.7589550018 -29.7796878815 75.6645889282
20.8217048645 -29.8641300201 75.4705886841
20.9180374146 -29.9951953888 75.2802352905
21.0331668854 -30.1523628235 75.0920639038
21.1488037109 -30.3102340698 74.9041671753
21.2486763000 -30.4462261200 74.7147979736
21.3294963837 -30.5557632446 74.5235290527
21.4032077789 -30.6554355621 74.3316345215
21.4830684662 -30.7636489868 74.1405639648
21.5676879883 -30.8784694672 73.9501800537
21.6413173676 -30.9780349731 73.7587127686
21.6887073517 -31.0411682129 73.5643768311
21.7072525024 -31.0642490387 73.3667907715
21.7063102722 -31.0602760315 73.1669616699
21.6983833313 -31.0466041565 72.9663009644
21.6915092468 -31.0343933105 72.7657318115
21.6876277924 -31.0263385773 72.5654983521
21.6853389740 -31.0204944611 72.3654403687
21.6830615997 -31.0146656036 72.1653594971
21.6803474426 -31.0082283020 71.9652099609
21.6777877808 -31.0020084381 71.7650604248
21.6768150330 -30.9979896545 71.5650939941
21.6797904968 -30.9994525909 71.3656082153
21.6900310516 -31.0110054016 71.1670379639
21.7108936310 -31.0373096466 70.9698410034
21.7439079285 -31.0804882050 70.7742309570
21.7875690460 -31.1384506226 70.5800628662
21.8381614685 -31.2060432434 70.3868789673
21.8914623260 -31.2773952484 70.1941528320
21.9436721802 -31.3472347260 70.0013656616
21.9919242859 -31.4115791321 69.8081512451
22.0342521667 -31.4676933289 69.6142196655
22.0679225922 -31.5117912292 69.4191894531
22.0881423950 -31.5372085571 69.2223739624
22.0907611847 -31.5381793976 69.0231475830
22.0770568848 -31.5164852142 68.8216552734
22.0543670654 -31.4823074341 68.6188507080
22.0314483643 -31.4478149414 68.4159622192
22.0141429901 -31.4211158752 68.2138137817
22.0051059723 -31.4058971405 68.0127944946
22.0060729980 -31.4045753479 67.8131942749
22.0200958252 -31.4213848114 67.6154785156
22.0523757935 -31.4635524750 67.4204559326
22.1086463928 -31.5390415192 67.2290191650
22.1909484863 -31.6506881714 67.0415496826
22.2942199707 -31.7914600372 66.8573684692
22.4078998566 -31.9466915131 66.6749572754
22.5213851929 -32.1016578674 66.4927368164
22.6275539398 -32.2464637756 66.3096237183
22.7215099335 -32.3743057251 66.1248397827
22.7977771759 -32.4775848389 65.9375076294
22.8505744934 -32.5482673645 65.7466583252
22.8778934479 -32.5835533142 65.5519180298
22.8849830627 -32.5907478333 65.3540344238
22.8825263977 -32.5846786499 65.1546401978
22.8808803558 -32.5797348022 64.9553604126
22.8862705231 -32.5845680237 64.7571868896
22.9016284943 -32.6032447815 64.5606307983
22.9288597107 -32.6384162903 64.3660278320
22.9690322876 -32.6915664673 64.1735839844
23.0206222534 -32.7605743408 63.9831008911
23.0793819427 -32.8395423889 63.7938957214
23.1421031952 -32.9240188599 63.6054649353
23.2108592987 -33.0168800354 63.4181594849
23.2919464111 -33.1268730164 63.2330703735
23.3899803162 -33.2604103088 63.0510177612
23.5037822723 -33.4158554077 62.8718528748
23.6274986267 -33.5850791931 62.6946182251
23.7537746429 -33.7578582764 62.5180664063
23.8759193420 -33.9249000549 62.3410415649
23.9891433716 -34.0795555115 62.1626968384
24.0908584595 -34.2182235718 61.9825439453
24.1795082092 -34.3387451172 61.8002738953
24.2533721924 -34.4387245178 61.6155395508
24.3113002777 -34.5165634155 61.4280853271
24.3546714783 -34.5741806030 61.2381134033
24.3878097534 -34.6175842285 61.0463638306
24.4153938293 -34.6532669067 60.8536567688
24.4386634827 -34.6829605103 60.6602058411
24.4546127319 -34.7024803162 60.4654388428
24.4602489471 -34.7076721191 60.2687797546
24.4582901001 -34.7023124695 60.0707015991
24.4581451416 -34.6994743347 59.8729476929
24.4712562561 -34.7150497437 59.6776847839
24.5057506561 -34.7603416443 59.4864883423
24.5643482208 -34.8391227722 59.2999458313
24.6450252533 -34.9485855103 59.1177444458
24.7425346375 -35.0814361572 58.9389419556
24.8503684998 -35.2286376953 58.7623291016
24.9631481171 -35.3827133179 58.5868911743
25.0777320862 -35.5393028259 58.4120254517
25.1916370392 -35.6949501038 58.2372512817
25.3005332947 -35.8436393738 58.0617065430
25.3985157013 -35.9771652222 57.8842086792
25.4818763733 -36.0903739929 57.7039718628
25.5524768829 -36.1858558655 57.5213356018
25.6164302826 -36.2721023560 57.3374862671
25.6786365509 -36.3559226990 57.1534042358
25.7381782532 -36.4360389709 56.9688949585
25.7890548706 -36.5041198730 56.7827186584
25.8256931305 -36.5524101257 56.5937004089
25.8480186462 -36.5808143616 56.4017829895
25.8620376587 -36.5976715088 56.2081680298
25.8767032623 -36.6154289246 56.0147056580
25.9003200531 -36.6456298828 55.8231430054
25.9384841919 -36.6960449219 55.6346931458
25.9941349030 -36.7707633972 55.4500198364
26.0692768097 -36.8725738525 55.2696113586
26.1656455994 -37.0038871765 55.0938949585
26.2823886871 -37.1635169983 54.9227523804
26.4135551453 -37.3431968689 54.7549629211
26.5495052338 -37.5295295715 54.5884742737
26.6806831360 -37.7092323303 54.4212112427
26.7992420197 -37.8713989258 54.2514343262
26.8987426758 -38.0070838928 54.0776901245
26.9755058289 -38.1111640930 53.8990974426
27.0313472748 -38.1861686707 53.7159919739
27.0739841461 -38.2428245544 53.5300407410
27.1140136719 -38.2958526611 53.3435783386
27.1606636047 -38.3580856323 53.1586799622
27.2183151245 -38.4356117249 52.9763603210
27.2847576141 -38.5253562927 52.7961502075
27.3521671295 -38.6164474487 52.6162910461
27.4113235474 -38.6960716248 52.4346580505
27.4569702148 -38.7569160461 52.2500152588
27.4904632568 -38.8008689880 52.0626411438
27.5184097290 -38.8371124268 51.8740272522
27.5497570038 -38.8780822754 51.6862564087
27.5934581757 -38.9362258911 51.5014419556
27.6565341949 -39.0213050842 51.3212814331
27.7421092987 -39.1376609802 51.1465721130
27.8482742310 -39.2826385498 50.9769325256
27.9687557220 -39.4475250244 50.8109245300
28.0952796936 -39.6208114624 50.6466064453
28.2202606201 -39.7919578552 50.4821662903
28.3379669189 -39.9529953003 50.3162117004
28.4438991547 -40.0976638794 50.1476211548
28.5340595245 -40.2204132080 49.9753837585
28.6051330566 -40.3166275024 49.7986373901
28.6551742554 -40.3836059570 49.6168441772
28.6842956543 -40.4215011597 49.4299621582
28.6952266693 -40.4341087341 49.2386131287
28.6934833527 -40.4290924072 49.0441093445
28.6862869263 -40.4165000916 48.8482246399
28.6798095703 -40.4049034119 48.6524925232
28.6768131256 -40.3981475830 48.4576148987
28.6775684357 -40.3966064453 48.2636718750
28.6837749481 -40.4026451111 48.0711059570
28.7014923096 -40.4246864319 47.8814849854
28.7388477325 -40.4740333557 47.6969337463
28.7986717224 -40.5546226501 47.5182380676
28.8733272552 -40.6558303833 47.3434944153
28.9497756958 -40.7595367432 47.1693611145
29.0215778351 -40.8567810059 46.9941596985
29.0947780609 -40.9559745789 46.8194618225
29.1812248230 -41.0735893250 46.6483879089
29.2870311737 -41.2181205750 46.4825935364
29.4074211121 -41.3829383850 46.3208732605
29.5310573578 -41.5522689819 46.1602516174
29.6477870941 -41.7120018005 45.9980316162
29.7526016235 -41.8551673889 45.8328437805
29.8445720673 -41.9804763794 45.6644058228
29.9243927002 -42.0888938904 45.4928627014
29.9933681488 -42.1822319031 45.3185272217
30.0531654358 -42.2628097534 45.1418266296
30.1055870056 -42.3331298828 44.9632225037
30.1527366638 -42.3961219788 44.7832679749
30.1963348389 -42.4541740417 44.6024208069
30.2340297699 -42.5040206909 44.4200210571
30.2558040619 -42.5317306519 44.2332687378
30.2475738525 -42.5177116394 44.0381927490
30.2020092010 -42.4517745972 43.8326492310
30.1264400482 -42.3441047668 43.6185798645
30.0408020020 -42.2224349976 43.4015045166
29.9700565338 -42.1214714050 43.1884498596
29.9364166260 -42.0721092224 42.9857673645
29.9504680634 -42.0890731812 42.7965812683
30.0050125122 -42.1623497009 42.6189842224
30.0814876556 -42.2661323547 42.4477844238
30.1655712128 -42.3804969788 42.2789192200
30.2545146942 -42.5016250610 42.1116180420
30.3501491547 -42.6320610046 41.9464340210
30.4498195648 -42.7681083679 41.7826080322
30.5458717346 -42.8991279602 41.6179237366
30.6306133270 -43.0144233704 41.4501075745
30.6994113922 -43.1075401306 41.2777709961
30.7503662109 -43.1758422852 41.1002960205
30.7835330963 -43.2194061279 40.9176483154
30.8014068604 -43.2416954041 40.7305107117
30.8089714050 -43.2496490479 40.5403213501
30.8115863800 -43.2507171631 40.3486595154
30.8124675751 -43.2493743896 40.1564674377
30.8123264313 -43.2466125488 39.9639587402
30.8107280731 -43.2418174744 39.7709960938
30.8072147369 -43.2343635559 39.5774383545
30.8015537262 -43.2239189148 39.3832054138
30.7936973572 -43.2104225159 39.1882781982
30.7838497162 -43.1941528320 38.9927139282
30.7725791931 -43.1759033203 38.7966804504
30.7608203888 -43.1569786072 38.6004600525
30.7499942780 -43.1393470764 38.4044914246
30.7425422668 -43.1264076233 38.2095375061
30.7429161072 -43.1243591309 38.0169982910
30.7579612732 -43.1427154541 37.8290328979
30.7945365906 -43.1910247803 37.6478462219
30.8545303345 -43.2719154358 37.4740982056
30.9320316315 -43.3771629333 37.3059959412
31.0170898438 -43.4929237366 37.1404342651
31.1024570465 -43.6091117859 36.9751358032
31.1855697632 -43.7221717834 36.8092842102
31.2652091980 -43.8303985596 36.6424827576
31.3385982513 -43.9299354553 36.4738273621
31.4017028809 -44.0151634216 36.3020019531
31.4508132935 -44.0809249878 36.1257705688
31.4840717316 -44.1246337891 35.9444885254
31.5028686523 -44.1482238770 35.7585639954
31.5116996765 -44.1579437256 35.5694122314
31.5153884888 -44.1605148315 35.3785820007
31.5162220001 -44.1591148376 35.1868133545
31.5138301849 -44.1532211304 34.9939727783
31.5071125031 -44.1413116455 34.7996826172
31.4957370758 -44.1229209900 34.6038246155
31.4803886414 -44.0989990234 34.4066085815
31.4624633789 -44.0714950562 34.2084884644
31.4439716339 -44.0432014465 34.0101318359
31.4276046753 -44.0178642273 33.8124351501
31.4154357910 -43.9983634949 33.6161079407
31.4057407379 -43.9823074341 33.4205818176
31.3927421570 -43.9616546631 33.2238998413
31.3741397858 -43.9332046509 33.0252799988
31.3592491150 -43.9099159241 32.8278694153
31.3651103973 -43.9155044556 32.6375160217
31.4032421112 -43.9659996033 32.4582252502
31.4717254639 -44.0587272644 32.2894477844
31.5571765900 -44.1750717163 32.1266517639
31.6411437988 -44.2893486023 31.9635105133
31.7083187103 -44.3802680969 31.7947025299
31.7536144257 -44.4407348633 31.6184043884
31.7820663452 -44.4777641296 31.4363079071
31.8020915985 -44.5030708313 31.2513084412
31.8197002411 -44.5250129700 31.0654888153
31.8374061584 -44.5470924377 30.8797283173
31.8552379608 -44.5693435669 30.6940364838
31.8712749481 -44.5890998840 30.5077362061
31.8820724487 -44.6015625000 30.3195934296
31.8841838837 -44.6019401550 30.1283645630
31.8763504028 -44.5884780884 29.9335727692
31.8605461121 -44.5639190674 29.7358951569
31.8408985138 -44.5340118408 29.5367908478
31.8217506409 -44.5047988892 29.3378143311
31.8068256378 -44.4814605713 29.1403141022
31.7995796204 -44.4688110352 28.9455547333
31.8028049469 -44.4707374573 28.7545776367
31.8165512085 -44.4873046875 28.5674343109
31.8366489410 -44.5127143860 28.3826332092
31.8566722870 -44.5380172729 28.1978321075
31.8720912933 -44.5569152832 28.0113697052
31.8824424744 -44.5687561035 27.8230552673
31.8900737762 -44.5768165588 27.6337451935
31.8980522156 -44.5853538513 27.4445667267
31.9094696045 -44.5986824036 27.2566738129
31.9276390076 -44.6214103699 27.0713138580
31.9552326202 -44.6572532654 26.8895034790
31.9919433594 -44.7057876587 26.7111625671
32.0330963135 -44.7605094910 26.5345573425
32.0716629028 -44.8116264343 26.3570499420
32.1023521423 -44.8517837524 26.1766300201
32.1237449646 -44.8789978027 25.9927349091
32.1370353699 -44.8949356079 25.8057918549
32.1437950134 -44.9017829895 25.6163711548
32.1449661255 -44.9008560181 25.4248161316
32.1410446167 -44.8928337097 25.2312984467
32.1323394775 -44.8781509399 25.0359191895
32.1187248230 -44.8566360474 24.8386173248
32.0988922119 -44.8264656067 24.6388702393
32.0697364807 -44.7833099365 24.4354553223
32.0273628235 -44.7217559814 24.2268276215
31.9706974030 -44.6403045654 24.0125293732
31.9053268433 -44.5467338562 23.7946968079
31.8428001404 -44.4571151733 23.5778312683
31.7944145203 -44.3871879578 23.3663806915
31.7652626038 -44.3440322876 23.1623954773
31.7544231415 -44.3263740540 22.9655723572
31.7597560883 -44.3312263489 22.7751197815
31.7810993195 -44.3583717346 22.5910263062
31.8188114166 -44.4083061218 22.4134845734
31.8702735901 -44.4773864746 22.2414989471
31.9285697937 -44.5559806824 22.0723438263
31.9847602844 -44.6316452026 21.9024543762
32.0317077637 -44.6944465637 21.7289505005
32.0665702820 -44.7404174805 21.5506572723
32.0903854370 -44.7710075378 21.3679561615
32.1057777405 -44.7898712158 21.1818790436
32.1149253845 -44.8000450134 20.9932823181
32.1190185547 -44.8031768799 20.8026332855
32.1185493469 -44.7999572754 20.6101169586
32.1135406494 -44.7904167175 20.4157276154
32.1033134460 -44.7736091614 20.2191715240
32.0859451294 -44.7468566895 20.0196418762
32.0579948425 -44.7053680420 19.8156948090
32.0156478882 -44.6438331604 19.6057205200
31.9581279755 -44.5611686707 19.3893508911
31.8912906647 -44.4655303955 19.1689720154
31.8271884918 -44.3736953735 18.9495811462
31.7786331177 -44.3035087585 18.7365455627
31.7535915375 -44.2660636902 18.5332508087
31.7538776398 -44.2638893127 18.3405323029
31.7771358490 -44.2937049866 18.1574802399
31.8193264008 -44.3498802185 17.9824562073
31.8766174316 -44.4270935059 17.8139019012
31.9453849792 -44.5202865601 17.6503257751
32.0199050903 -44.6214904785 17.4893283844
32.0915718079 -44.7187271118 17.3272590637
32.1529464722 -44.8016242981 17.1609249115
32.2026977539 -44.8683471680 16.9897308350
32.2451820374 -44.9249458313 16.8155040741
32.2847137451 -44.9774284363 16.6400852203
32.3209877014 -45.0253829956 16.4633293152
32.3500175476 -45.0632438660 16.2835044861
32.3684310913 -45.0863189697 16.0991210938
32.3760681152 -45.0943870544 15.9100809097
32.3747978210 -45.0900535583 15.7171630859
32.3656845093 -45.0747947693 15.5208034515
32.3472023010 -45.0464859009 15.3203105927
32.3161430359 -45.0006523132 15.1142444611
32.2713050842 -44.9356384277 14.9020404816
32.2174720764 -44.8580894470 14.6857614517
32.1652984619 -44.7828483582 14.4700927734
32.1263504028 -44.7260246277 14.2601623535
