5.9523653984 39.9990196228 18.9011707306
5.9567608833 40.0111389160 18.7047710419
5.9625697136 40.0313148499 18.5104904175
5.9699993134 40.0607376099 18.3186569214
5.9787774086 40.0978469849 18.1288795471
5.9880957603 40.1380348206 17.9399528503
5.9968910217 40.1752471924 17.7502746582
6.0043478012 40.2048301697 17.5585994720
6.0101833344 40.2251701355 17.3644886017
6.0145726204 40.2372627258 17.1681842804
6.0179133415 40.2433776855 16.9702796936
6.0205373764 40.2454032898 16.7712726593
6.0222678185 40.2423286438 16.5708808899
6.0221114159 40.2284965515 16.3675689697
6.0189857483 40.1977272034 16.1596431732
6.0135641098 40.1538581848 15.9481105804
6.0092396736 40.1162414551 15.7382087708
6.0100793839 40.1080780029 15.5362710953
6.0172772408 40.1361846924 15.3442153931
6.0282020569 40.1855545044 15.1580057144
6.0392456055 40.2356033325 14.9720325470
6.0491929054 40.2794036865 14.7843914032
6.0596208572 40.3259468079 14.5975513458
6.0723910332 40.3858566284 14.4144525528
6.0872201920 40.4575233459 14.2346744537
6.1016960144 40.5271720886 14.0544176102
6.1130948067 40.5792732239 13.8693513870
6.1198072433 40.6046295166 13.6768798828
6.1215481758 40.6016197205 13.4764947891
6.1190776825 40.5745735168 13.2693557739
6.1138720512 40.5319099426 13.0577812195
6.1077718735 40.4841384888 12.8446998596
6.1027512550 40.4425239563 12.6332798004
6.1006598473 40.4176254272 12.4265222549
6.1027359962 40.4165153503 12.2264623642
6.1091041565 40.4398994446 12.0333499908
6.1185774803 40.4810180664 11.8453054428
6.1289696693 40.5273818970 11.6587982178
6.1380186081 40.5660820007 11.4701442719
6.1444931030 40.5900840759 11.2773132324
6.1485819817 40.6004638672 11.0805854797
6.1513218880 40.6031417847 10.8816385269
6.1537747383 40.6041831970 10.6822080612
6.1566228867 40.6074790955 10.4834194183
6.1602206230 40.6150550842 10.2858619690
6.1648697853 40.6286354065 10.0900478363
6.1711540222 40.6515541077 9.8969573975
6.1801471710 40.6899490356 9.7084016800
6.1931114197 40.7510261536 9.5265207291
6.2104477882 40.8370780945 9.3520298004
6.2306246758 40.9393615723 9.1824083328
6.2504220009 41.0394897461 9.0122709274
6.2667231560 41.1196479797 8.8363561630
6.2782626152 41.1726150513 8.6524848938
6.2859735489 41.2037048340 8.4621849060
6.2924079895 41.2275085449 8.2697458267
6.3010697365 41.2640380859 8.0811138153
6.3151307106 41.3314208984 7.9017257690
6.3352465630 41.4334068298 7.7327613831
6.3584175110 41.5528602600 7.5691528320
6.3798832893 41.6625747681 7.4027609825
6.3965625763 41.7449455261 7.2282652855
6.4087567329 41.8016891479 7.0461325645
6.4192285538 41.8485946655 6.8610839844
6.4311857224 41.9039916992 6.6786575317
6.4464387894 41.9782295227 6.5020112991
6.4642891884 42.0673217773 6.3299684525
6.4819312096 42.1552276611 6.1576662064
6.4964027405 42.2250175476 5.9799289703
6.5064601898 42.2695770264 5.7945413589
6.5127429962 42.2925605774 5.6025757790
6.5165352821 42.3013038635 5.4062485695
6.5185489655 42.2998809814 5.2067847252
6.5184807777 42.2865524292 5.0036292076
6.5152211189 42.2549743652 4.7947936058
6.5074825287 42.1977767944 4.5779576302
6.4947576523 42.1120643616 4.3521699905
6.4782443047 42.0046768188 4.1195073128
6.4609766006 41.8929634094 3.8853411674
6.4466681480 41.7981681824 3.6563069820
6.4378609657 41.7348251343 3.4369950294
6.4348587990 41.7046813965 3.2280135155
6.4362912178 41.6998939514 3.0269615650
6.4406585693 41.7118988037 2.8311846256
6.4475383759 41.7382774353 2.6399528980
6.4576807022 41.7833175659 2.4546523094
6.4719853401 41.8521728516 2.2769546509
6.4899201393 41.9418029785 2.1059398651
6.5085077286 42.0351715088 1.9362200499
6.5232315063 42.1064453125 1.7595525980
6.5309519768 42.1376495361 1.5701454878
6.5324788094 42.1334152222 1.3694041967
6.5319910049 42.1176490784 1.1649394035
6.5337424278 42.1146965027 0.9645659924
6.5393977165 42.1340866089 0.7713805437
6.5481157303 42.1710014343 0.5838732719
6.5584435463 42.2171325684 0.3993844092
6.5699472427 42.2700004578 0.2171281576
6.5834875107 42.3345260620 0.0387185365
-29.4216079712 23.1909637451 81.0203552246
-29.4258365631 23.1950111389 80.8215408325
-29.4344081879 23.2026958466 80.6230163574
-29.4461021423 23.2129936218 80.4247131348
-29.4579906464 23.2234535217 80.2264328003
-29.4656543732 23.2303752899 80.0278549194
-29.4645824432 23.2299880981 79.8286590576
-29.4530220032 23.2208232880 79.6286849976
-29.4349746704 23.2062301636 79.4282150269
-29.4203586578 23.1945056915 79.2279510498
-29.4214763641 23.1959514618 79.0288314819
-29.4481277466 23.2187690735 78.8316268921
-29.5030937195 23.2652797699 78.6366119385
-29.5787639618 23.3291225433 78.4432601929
-29.6577033997 23.3956985474 78.2502670288
-29.7184944153 23.4470882416 78.0559692383
-29.7434902191 23.4685173035 77.8589096069
-29.7251510620 23.4536781311 77.6584091187
-29.6707630157 23.4086685181 77.4549560547
-29.6022415161 23.3518314362 77.2502517700
-29.5458717346 23.3051643372 77.0464248657
-29.5171222687 23.2816123962 76.8448028564
-29.5141124725 23.2796039581 76.6452865601
-29.5244274139 23.2887477875 76.4468841553
-29.5359458923 23.2988986969 76.2485885620
-29.5422019958 23.3046436310 76.0498428345
-29.5417823792 23.3048019409 75.8505096436
-29.5359687805 23.3004474640 75.6506958008
-29.5271472931 23.2935752869 75.4505996704
-29.5180358887 23.2864608765 75.2504425049
-29.5111751556 23.2812290192 75.0504684448
-29.5086593628 23.2796344757 74.8508682251
-29.5124359131 23.2833061218 74.6518249512
-29.5251979828 23.2944965363 74.4536132813
-29.5507698059 23.3164081573 74.2566070557
-29.5917530060 23.3512172699 74.0610733032
-29.6441936493 23.3956146240 73.8666915894
-29.6942863464 23.4380474091 73.6721496582
-29.7235298157 23.4630317688 73.4756622314
-29.7209453583 23.4613780975 73.2761077881
-29.6925468445 23.4381237030 73.0740127563
-29.6596889496 23.4111347198 72.8714218140
-29.6465358734 23.4006385803 72.6707229614
-29.6648826599 23.4165019989 72.4731674194
-29.7072982788 23.4525108337 72.2780532837
-29.7539501190 23.4920616150 72.0834350586
-29.7865676880 23.5198688507 71.8874359131
-29.7974720001 23.5295047760 71.6892242432
-29.7890129089 23.5229358673 71.4889984131
-29.7684478760 23.5062351227 71.2874755859
-29.7435226440 23.4858875275 71.0854415894
-29.7199516296 23.4666748047 70.8835067749
-29.7003936768 23.4508171082 70.6819534302
-29.6845760345 23.4380912781 70.4807662964
-29.6701030731 23.4264888763 70.2796859741
-29.6533718109 23.4129981995 70.0783233643
-29.6310081482 23.3947944641 69.8763046265
-29.6019878387 23.3710193634 69.6734924316
-29.5693645477 23.3442306519 69.4702224731
-29.5397777557 23.3199825287 69.2672271729
-29.5202274323 23.3041343689 69.0653228760
-29.5143756866 23.2997474670 68.8649368286
-29.5212211609 23.3059864044 68.6660003662
-29.5364818573 23.3192710876 68.4680404663
-29.5548496246 23.3351516724 68.2704620361
-29.5719432831 23.3499679565 68.0727386475
-29.5855941772 23.3619022369 67.8746337891
-29.5959110260 23.3710479736 67.6761322021
-29.6042480469 23.3785362244 67.4774093628
-29.6123542786 23.3858318329 67.2786483765
-29.6229248047 23.3951873779 67.0801925659
-29.6413326263 23.4111042023 66.8827056885
-29.6763305664 23.4409008026 66.6872711182
-29.7361164093 23.4914417267 66.4949569702
-29.8199100494 23.5620746613 66.3057250977
-29.9131183624 23.6405830383 66.1177902222
-29.9943733215 23.7090892792 65.9284820557
-30.0495529175 23.7557735443 65.7359771729
-30.0787944794 23.7807540894 65.5402221680
-30.0917110443 23.7920742035 65.3424072266
-30.0988845825 23.7985877991 65.1438598633
-30.1070804596 23.8059577942 64.9454421997
-30.1182308197 23.8157978058 64.7474136353
-30.1299686432 23.8261318207 64.5494613647
-30.1373500824 23.8328189850 64.3509445190
-30.1355361938 23.8318119049 64.1512069702
-30.1221389771 23.8211135864 63.9498939514
-30.0979137421 23.8013515472 63.7470893860
-30.0653667450 23.7746295929 63.5431022644
-30.0264129639 23.7425441742 63.3381805420
-29.9815940857 23.7055511475 63.1323814392
-29.9325103760 23.6649894714 62.9259071350
-29.8851051331 23.6258335114 62.7195816040
-29.8491210938 23.5962352753 62.5147628784
-29.8328380585 23.5831222534 62.3126449585
-29.8381938934 23.5881156921 62.1135444641
-29.8613452911 23.6079998016 61.9169731140
-29.8969974518 23.6383438110 61.7222099304
-29.9408130646 23.6755180359 61.5286636353
-29.9882583618 23.7157306671 61.3356971741
-30.0335044861 23.7541027069 61.1424751282
-30.0710144043 23.7859992981 60.9481849670
-30.0980739594 23.8091545105 60.7524070740
-30.1152610779 23.8240470886 60.5552024841
-30.1249027252 23.8326263428 60.3568992615
-30.1295509338 23.8370265961 60.1578483582
-30.1313781738 23.8390674591 59.9583740234
-30.1320247650 23.8401203156 59.7587127686
-30.1324977875 23.8410263062 59.5590171814
-30.1332111359 23.8421363831 59.3593444824
-30.1342582703 23.8435249329 59.1597137451
-30.1359138489 23.8454208374 58.9601669312
-30.1391811371 23.8486652374 58.7608566284
-30.1456909180 23.8546257019 58.5620498657
-30.1563282013 23.8640365601 58.3638801575
-30.1695537567 23.8756160736 58.1661262512
-30.1815357208 23.8861522675 57.9681854248
-30.1883163452 23.8923377991 57.7694244385
-30.1879024506 23.8925037384 57.5695190430
-30.1807880402 23.8870620728 57.3685302734
-30.1696434021 23.8782501221 57.1668663025
-30.1588306427 23.8697128296 56.9652290344
-30.1531867981 23.8655033112 56.7644004822
-30.1560363770 23.8683986664 56.5649414063
-30.1676025391 23.8785896301 56.3669052124
-30.1850910187 23.8937339783 56.1698493958
-30.2044925690 23.9104804993 55.9731292725
-30.2228622437 23.9263610840 55.7762527466
-30.2394123077 23.9407196045 55.5790939331
-30.2550220490 23.9542942047 55.3817901611
-30.2710742950 23.9682369232 55.1845741272
-30.2886600494 23.9834632874 54.9876289368
-30.3084392548 24.0005226135 54.7910766602
-30.3306980133 24.0196590424 54.5949707031
-30.3553600311 24.0408058167 54.3992958069
-30.3821144104 24.0637016296 54.2040138245
-30.4106369019 24.0880794525 54.0090675354
-30.4399604797 24.1131248474 53.8142967224
-30.4668350220 24.1361236572 53.6191291809
-30.4852867126 24.1520709991 53.4225120544
-30.4896678925 24.1562500000 53.2234268188
-30.4794998169 24.1482543945 53.0217552185
-30.4608249664 24.1331424713 52.8185386658
-30.4418220520 24.1177539825 52.6152229309
-30.4268760681 24.1057605743 52.4125938416
-30.4147319794 24.0961112976 52.2104377747
-30.4013404846 24.0854206085 52.0080223083
-30.3840141296 24.0714359283 51.8048591614
-30.3638954163 24.0551166534 51.6011466980
-30.3457412720 24.0404396057 51.3977508545
-30.3353137970 24.0322284698 51.1957397461
-30.3357582092 24.0331115723 50.9957199097
-30.3452930450 24.0416011810 50.7973785400
-30.3582630157 24.0529651642 50.5996818542
-30.3691005707 24.0625438690 50.4015960693
-30.3759822845 24.0688152313 50.2027664185
-30.3811359406 24.0736408234 50.0036125183
-30.3877868652 24.0797157288 49.8047409058
-30.3969116211 24.0878620148 49.6063385010
-30.4068870544 24.0967216492 49.4081001282
-30.4160919189 24.1049346924 49.2097206116
-30.4256725311 24.1134624481 49.0114135742
-30.4396438599 24.1256637573 48.8139648438
-30.4621276855 24.1449871063 48.6181831360
-30.4939727783 24.1721439362 48.4242591858
-30.5312232971 24.2038192749 48.2314338684
-30.5667285919 24.2340373993 48.0383110046
-30.5940628052 24.2574176788 47.8436164856
-30.6109428406 24.2720527649 47.6468734741
-30.6192054749 24.2794780731 47.4484252930
-30.6210708618 24.2815513611 47.2486991882
-30.6155242920 24.2774238586 47.0474739075
-30.5988502502 24.2639865875 46.8439826965
-30.5687313080 24.2393016815 46.6377258301
-30.5277023315 24.2054882050 46.4291915894
-30.4828510284 24.1684780121 46.2197990417
-30.4425334930 24.1352596283 46.0112533569
-30.4130344391 24.1110935211 45.8048591614
-30.3973255157 24.0984649658 45.6012573242
-30.3960285187 24.0978927612 45.4006080627
-30.4099941254 24.1100902557 45.2031250000
-30.4424018860 24.1377162933 45.0095062256
-30.4967899323 24.1837291718 44.8205413818
-30.5704917908 24.2459011078 44.6357154846
-30.6501903534 24.3130893707 44.4522628784
-30.7170677185 24.3695507050 44.2662048340
-30.7583198547 24.4045753479 44.0747833252
-30.7734928131 24.4177799225 43.8778381348
-30.7705020905 24.4157905579 43.6770133972
-30.7569484711 24.4049644470 43.4738922119
-30.7346897125 24.3868560791 43.2688598633
-30.7014465332 24.3595581055 43.0613975525
-30.6573772430 24.3232040405 42.8515129089
-30.6097106934 24.2838401794 42.6407623291
-30.5696048737 24.2508010864 42.4315834045
-30.5442600250 24.2301139832 42.2255744934
-30.5330028534 24.2212085724 42.0226287842
-30.5303306580 24.2194881439 41.8215560913
-30.5310306549 24.2205848694 41.6212196350
-30.5325355530 24.2223587036 41.4210510254
-30.5345096588 24.2245216370 41.2209777832
-30.5376300812 24.2276458740 41.0211524963
-30.5428066254 24.2324905396 40.8217849731
-30.5508384705 24.2397232056 40.6230621338
-30.5620441437 24.2496109009 40.4250602722
-30.5755653381 24.2614364624 40.2275962830
-30.5890884399 24.2732620239 40.0301399231
-30.5998153687 24.2827491760 39.8320503235
-30.6061115265 24.2885303497 39.6329460144
-30.6081790924 24.2907714844 39.4328613281
-30.6073265076 24.2905731201 39.2320938110
-30.6049499512 24.2890987396 39.0309562683
-30.6021175385 24.2872428894 38.8296966553
-30.5996971130 24.2857322693 38.6285209656
-30.5985298157 24.2852687836 38.4276199341
-30.5995540619 24.2866401672 38.2272262573
-30.6040477753 24.2909126282 38.0276412964
-30.6139640808 24.2997226715 37.8293418884
-30.6317977905 24.3151531219 37.6329307556
-30.6594982147 24.3388404846 37.4388961792
-30.6967849731 24.3705444336 37.2471923828
-30.7401466370 24.4073314667 37.0569992065
-30.7837562561 24.4443244934 36.8669242859
-30.8221111298 24.4769229889 36.6756324768
-30.8525676727 24.5029125214 36.4824714661
-30.8758277893 24.5228843689 36.2875900269
-30.8946723938 24.5391616821 36.0916557312
-30.9129543304 24.5549678802 35.8955993652
-30.9356708527 24.5744838715 35.7006530762
-30.9683780670 24.6023578644 35.5082015991
-31.0143756866 24.6413478851 35.3190803528
-31.0711479187 24.6893501282 35.1327018738
-31.1300849915 24.7391643524 34.9469375610
-31.1808776855 24.7821655273 34.7592201233
-31.2169876099 24.8128833771 34.5678863525
-31.2373504639 24.8304309845 34.3726348877
-31.2436656952 24.8362274170 34.1738548279
-31.2369613647 24.8311328888 33.9717750549
-31.2173957825 24.8152790070 33.7664070129
-31.1873340607 24.7906455994 33.5583190918
-31.1536464691 24.7629814148 33.3492431641
-31.1255435944 24.7399864197 33.1415367126
-31.1094017029 24.7269973755 32.9368515015
-31.1057395935 24.7244472504 32.7353477478
-31.1108036041 24.7291965485 32.5360870361
-31.1200485229 24.7374439240 32.3379096985
-31.1303176880 24.7465476990 32.1400032043
-31.1402950287 24.7554054260 31.9420223236
-31.1501083374 24.7641296387 31.7440052032
-31.1608695984 24.7736434937 31.5462379456
-31.1745510101 24.7856006622 31.3492488861
-31.1936836243 24.8021183014 31.1537094116
-31.2201175690 24.8247432709 30.9601268768
-31.2537555695 24.8533935547 30.7684898376
-31.2928428650 24.8866004944 30.5783500671
-31.3354396820 24.9227447510 30.3891983032
-31.3804359436 24.9608955383 30.2007465363
-31.4274234772 25.0007114410 30.0128917694
-31.4756622314 25.0415725708 29.8254375458
-31.5223083496 25.0811042786 29.6376171112
-31.5613002777 25.1142311096 29.4477806091
-31.5849132538 25.1344947815 29.2538032532
-31.5877323151 25.1373653412 29.0541744232
-31.5699043274 25.1229686737 28.8488807678
-31.5370864868 25.0960311890 28.6394290924
-31.4974899292 25.0634231567 28.4280471802
-31.4586944580 25.0314884186 28.2168102264
-31.4264526367 25.0050334930 28.0073165894
-31.4049148560 24.9875335693 27.8007354736
-31.3967876434 24.9812488556 27.5978469849
-31.4036922455 24.9875373840 27.3991355896
-31.4267883301 25.0073699951 27.2049598694
-31.4657402039 25.0404644012 27.0152702332
-31.5158386230 25.0828800201 26.8287696838
-31.5669994354 25.1261844635 26.6426391602
-31.6076145172 25.1606693268 26.4535865784
-31.6305541992 25.1803703308 26.2595653534
-31.6361522675 25.1855659485 26.0606231689
-31.6302299500 25.1811256409 25.8583850861
-31.6191234589 25.1723499298 25.6546401978
-31.6055088043 25.1614761353 25.4501457214
-31.5884265900 25.1477031708 25.2446174622
-31.5674419403 25.1306648254 25.0379238129
-31.5461864471 25.1133995056 24.8311042786
-31.5309314728 25.1011562347 24.6259860992
-31.5258388519 25.0974102020 24.4237918854
-31.5304622650 25.1017894745 24.2244186401
-31.5415916443 25.1116123199 24.0269451141
-31.5566806793 25.1247463226 23.8306427002
-31.5761699677 25.1415615082 23.6356487274
-31.6044178009 25.1657028198 23.4432621002
-31.6488265991 25.2033576965 23.2556953430
-31.7153511047 25.2595119476 23.0747547150
-31.8013515472 25.3319530487 22.8997097015
-31.8927059174 25.4088726044 22.7263870239
-31.9710235596 25.4748878479 22.5492954254
-32.0256462097 25.5210876465 22.3652038574
-32.0589828491 25.5494804382 22.1747817993
-32.0820503235 25.5692863464 21.9813022614
-32.1068153381 25.5905113220 21.7883605957
-32.1407279968 25.6193904877 21.5982227325
-32.1842613220 25.6563110352 21.4110527039
-32.2316474915 25.6964550018 21.2251148224
-32.2751197815 25.7333278656 21.0380458832
-32.3099365234 25.7629585266 20.8483791351
-32.3360862732 25.7853431702 20.6560955048
-32.3557929993 25.8023395538 20.4618530273
-32.3695144653 25.8143253326 20.2657833099
-32.3734092712 25.8180961609 20.0666809082
-32.3598785400 25.8072929382 19.8621597290
-32.3223953247 25.7764587402 19.6501502991
-32.2633285522 25.7275695801 19.4313335419
-32.1973876953 25.6729373932 19.2102603912
-32.1442680359 25.6290225983 18.9930915833
-32.1162376404 25.6060943604 18.7837181091
-32.1141700745 25.6048793793 18.5824737549
-32.1351013184 25.6228981018 18.3884830475
-32.1805610657 25.6614303589 18.2022876740
-32.2549972534 25.7241973877 18.0253601074
-32.3555755615 25.8088245392 17.8568611145
-32.4654579163 25.9012355804 17.6914844513
-32.5603675842 25.9811210632 17.5214767456
-32.6223487854 26.0334701538 17.3410453796
-32.6455497742 26.0533866882 17.1482257843
-32.6305160522 26.0413284302 16.9431018829
-32.5790977478 25.9988403320 16.7261829376
-32.4982528687 25.9317417145 16.4996318817
-32.4051933289 25.8544273376 16.2689743042
-32.3222007751 25.7855358124 16.0414352417
-32.2638359070 25.7372398376 15.8217916489
-32.2302284241 25.7096462250 15.6101446152
-32.2119407654 25.6948661804 15.4034576416
-32.1989860535 25.6845474243 15.1984844208
-32.1862983704 25.6744499207 14.9935655594
-32.1747055054 25.6652698517 14.7889776230
-32.1695899963 25.6615047455 14.5865039825
-32.1787376404 25.6696701050 14.3887472153
-32.2096099854 25.6960010529 14.1982231140
-32.2655448914 25.7432918549 14.0160980225
-32.3423156738 25.8080081940 13.8410186768
-32.4285964966 25.8806762695 13.6692371368
-32.5110664368 25.9501571655 13.4963016510
-32.5803833008 26.0086402893 13.3190565109
-32.6339035034 26.0539093018 13.1365756989
-32.6740264893 26.0879764557 12.9496364594
-32.7040214539 26.1135730743 12.7593135834
-32.7252731323 26.1318607330 12.5660552979
-32.7384185791 26.1433658600 12.3700551987
-32.7453575134 26.1496829987 12.1719455719
-32.7487564087 26.1530399323 11.9726238251
-32.7500762939 26.1546535492 11.7725801468
-32.7490921021 26.1543445587 11.5717363358
-32.7452774048 26.1516685486 11.3699035645
-32.7393188477 26.1471996307 11.1673107147
-32.7335395813 26.1428813934 10.9647598267
-32.7309608459 26.1412372589 10.7632989883
-32.7341232300 26.1443939209 10.5638198853
-32.7450370789 26.1540355682 10.3670377731
-32.7658081055 26.1719169617 10.1737070084
-32.7981758118 26.1994991302 9.9844617844
-32.8416786194 26.2363910675 9.7991666794
-32.8922080994 26.2791595459 9.6164016724
-32.9430351257 26.3221778870 9.4338111877
-32.9882507324 26.3605022430 9.2493066788
-33.0259017944 26.3924980164 9.0621805191
-33.0577926636 26.4196796417 8.8730583191
-33.0860939026 26.4438591003 8.6826972961
-33.1103324890 26.4646396637 8.4909210205
-33.1278228760 26.4797801971 8.2967586517
-33.1366615295 26.4876823425 8.0995121002
-33.1378822327 26.4892196655 7.8995332718
-33.1348037720 26.4871578217 7.6979961395
-33.1307830811 26.4843101501 7.4961028099
-33.1278457642 26.4823646545 7.2945818901
-33.1268463135 26.4820423126 7.0937485695
-33.1282882690 26.4837627411 6.8937883377
-33.1332855225 26.4884529114 6.6951117516
-33.1449584961 26.4987297058 6.4988679886
-33.1698341370 26.5200443268 6.3074560165
-33.2166519165 26.5597038269 6.1241097450
-33.2904281616 26.6219081879 5.9507250786
-33.3849105835 26.7014274597 5.7850651741
-33.4820022583 26.7831268311 5.6205062866
-33.5619049072 26.8504543304 5.4497394562
-33.6152114868 26.8955421448 5.2692399025
-33.6456069946 26.9214725494 5.0803108215
-33.6630935669 26.9366035461 4.8866157532
-33.6765289307 26.9483528137 4.6914291382
-33.6905975342 26.9606285095 4.4964885712
-33.7053565979 26.9734821320 4.3018164635
-33.7162666321 26.9831180573 4.1057124138
-33.7161903381 26.9835662842 3.9054844379
-33.7005653381 26.9710140228 3.6993877888
-33.6722030640 26.9478130341 3.4884457588
-33.6406364441 26.9219303131 3.2762336731
-33.6161003113 26.9019279480 3.0666255951
-33.6037330627 26.8920974731 2.8615887165
-33.6025466919 26.8916168213 2.6607778072
-33.6088027954 26.8973636627 2.4627938271
-33.6202507019 26.9074497223 2.2667927742
-33.6388931274 26.9235496521 2.0735542774
-33.6711578369 26.9510402679 1.8855639696
-33.7238273621 26.9955940247 1.7054648399
-33.7964286804 27.0568122864 1.5331214666
-33.8767356873 27.1244735718 1.3638600111
-33.9464988708 27.1833152771 1.1906328201
-33.9934234619 27.2230644226 1.0086469650
-34.0178756714 27.2440242767 0.8179898262
-34.0298843384 27.2545757294 0.6225111485
-34.0421981812 27.2653865814 0.4271605015
-34.0650024414 27.2849655151 0.2359203100
-34.1035728455 27.3177299500 0.0508853793
15.6785039902 33.2895889282 80.9059295654
15.6712779999 33.2713394165 80.7070770264
15.6587591171 33.2431678772 80.5075073242
15.6451940536 33.2130355835 80.3077545166
15.6330156326 33.1855010986 80.1081237793
15.6225662231 33.1612052917 79.9086685181
15.6133918762 33.1393013000 79.7093429565
15.6057186127 33.1202087402 79.5101699829
15.6007976532 33.1062774658 79.3113250732
15.5994672775 33.0990753174 79.1129455566
15.6001977921 33.0957374573 78.9148330688
15.5993461609 33.0894317627 78.7164764404
15.5941238403 33.0749320984 78.5174789429
15.5850973129 33.0532989502 78.3179168701
15.5756216049 33.0308227539 78.1182479858
15.5693206787 33.0142936707 77.9189910889
15.5682048798 33.0074920654 77.7204589844
15.5722923279 33.0104446411 77.5226669312
15.5801439285 33.0204544067 77.3254318237
15.5898275375 33.0339012146 77.1284637451
15.5998983383 33.0480728149 76.9315719604
15.6097583771 33.0618515015 76.7346496582
15.6191062927 33.0746688843 76.5376586914
15.6273841858 33.0854759216 76.3405075073
15.6340188980 33.0932044983 76.1430969238
15.6390228271 33.0978775024 75.9454345703
15.6431102753 33.1008300781 75.7476196289
15.6473579407 33.1040802002 75.5498199463
15.6527910233 33.1095542908 75.3522033691
15.6597347260 33.1178627014 75.1548385620
15.6669216156 33.1266288757 74.9575042725
15.6716260910 33.1307373047 74.7597579956
15.6719226837 33.1265754700 74.5612716675
15.6690044403 33.1163902283 74.3622283936
15.6662302017 33.1064682007 74.1631774902
15.6657676697 33.1008834839 73.9645004272
15.6672687531 33.0989837646 73.7661361694
15.6696252823 33.0986862183 73.5679168701
15.6725587845 33.0994682312 73.3697738647
15.6762571335 33.1016883850 73.1717605591
15.6804609299 33.1048545837 72.9738311768
15.6843233109 33.1073799133 72.7758255005
15.6868209839 33.1073455811 72.5775756836
15.6872463226 33.1034240723 72.3789291382
15.6857948303 33.0959815979 72.1799163818
15.6839714050 33.0878410339 71.9808197021
15.6838951111 33.0829772949 71.7820205688
15.6862983704 33.0827636719 71.5836715698
15.6889820099 33.0830764771 71.3853607178
15.6880006790 33.0765113831 71.1863403320
15.6812658310 33.0591545105 70.9861984253
15.6716623306 33.0364112854 70.7854690552
15.6665029526 33.0220069885 70.5855560303
15.6729001999 33.0292854309 70.3878707886
15.6927404404 33.0617866516 70.1928176880
15.7221260071 33.1121978760 69.9996948242
15.7551708221 33.1694755554 69.8073577881
15.7871160507 33.2246932983 69.6148681641
15.8146581650 33.2716522217 69.4215621948
15.8360805511 33.3071250916 69.2270584106
15.8520193100 33.3323097229 69.0314788818
15.8648214340 33.3516120911 68.8352737427
15.8764371872 33.3686866760 68.6388397217
15.8871250153 33.3840217590 68.4422225952
15.8961572647 33.3962478638 68.2452697754
15.9034061432 33.4051284790 68.0479431152
15.9101266861 33.4130172729 67.8505020142
15.9185333252 33.4240684509 67.6534271240
15.9307556152 33.4422836304 67.4571685791
15.9478445053 33.4696311951 67.2619857788
15.9690542221 33.5047149658 67.0677261353
15.9918260574 33.5427322388 66.8738479614
16.0128402710 33.5774497986 66.6796264648
16.0295276642 33.6040458679 66.4844741821
16.0408115387 33.6205024719 66.2881469727
16.0466690063 33.6267738342 66.0906066895
16.0473937988 33.6234092712 65.8919067383
16.0436096191 33.6115837097 65.6921691895
16.0369567871 33.5943717957 65.4917373657
16.0303783417 33.5772972107 65.2912902832
16.0271396637 33.5664939880 65.0915832520
16.0291137695 33.5654754639 64.8930587769
16.0356636047 33.5730438232 64.6955871582
16.0439605713 33.5838890076 64.4985351563
16.0504684448 33.5913810730 64.3010559082
16.0523471832 33.5901832581 64.1024703979
16.0476818085 33.5766944885 63.9023132324
16.0349826813 33.5481262207 63.7001838684
16.0136852264 33.5034141541 63.4959220886
15.9857892990 33.4463119507 63.2899780273
15.9564065933 33.3864173889 63.0835800171
15.9313335419 33.3346099854 62.8781394958
15.9132213593 33.2958717346 62.6743392944
15.8999843597 33.2662849426 62.4716835022
15.8871059418 33.2373657227 62.2690620422
15.8716592789 33.2036285400 62.0657424927
15.8543109894 33.1663169861 61.8618812561
15.8380708694 33.1310844421 61.6582336426
15.8260231018 33.1037216187 61.4555969238
15.8205890656 33.0887794495 61.2546081543
15.8247814178 33.0919113159 61.0560684204
15.8433904648 33.1221122742 60.8612632751
15.8810529709 33.1880950928 60.6714591980
15.9369735718 33.2883644104 60.4865226746
16.0015392303 33.4048690796 60.3039970398
16.0604000092 33.5106658936 60.1201133728
16.1030464172 33.5860176086 59.9320526123
16.1267795563 33.6258544922 59.7390289307
16.1328773499 33.6325721741 59.5413093567
16.1211853027 33.6058769226 59.3387756348
16.0903797150 33.5432853699 59.1310043335
16.0440273285 33.4514961243 58.9188880920
15.9947023392 33.3541183472 58.7058105469
15.9587965012 33.2819366455 58.4962844849
15.9454689026 33.2521629333 58.2928924561
15.9516019821 33.2589378357 58.0948600769
15.9681262970 33.2852287292 57.8997344971
15.9893007278 33.3202590942 57.7059364319
16.0144901276 33.3628273010 57.5133132935
16.0431747437 33.4119644165 57.3217277527
16.0720901489 33.4615364075 57.1302680969
16.0975208282 33.5045623779 56.9378700256
16.1173954010 33.5371513367 56.7439193726
16.1307659149 33.5575294495 56.5481262207
16.1377029419 33.5658187866 56.3504829407
16.1401214600 33.5656166077 56.1515197754
16.1408977509 33.5623321533 55.9520606995
16.1415805817 33.5588722229 55.7525596619
16.1415882111 33.5541458130 55.5528411865
16.1399555206 33.5463333130 55.3526153564
16.1379737854 33.5378684998 55.1522636414
16.1400642395 33.5370445251 54.9531059265
16.1511535645 33.5531349182 54.7566490173
16.1723194122 33.5881576538 54.5632476807
16.1987094879 33.6329956055 54.3714714050
16.2218322754 33.6716918945 54.1787528992
16.2346668243 33.6910667419 53.9829216003
16.2360458374 33.6889114380 53.7835807800
16.2308692932 33.6744384766 53.5821952820
16.2259349823 33.6604232788 53.3808517456
16.2246589661 33.6532783508 53.1806182861
16.2246608734 33.6485366821 52.9807662964
16.2199382782 33.6349143982 52.7794036865
16.2057399750 33.6034851074 52.5750160217
16.1821517944 33.5544128418 52.3675956726
16.1537246704 33.4962425232 52.1585464478
16.1262168884 33.4397964478 51.9496994019
16.1035861969 33.3925170898 51.7423248291
16.0871410370 33.3568572998 51.5368652344
16.0766334534 33.3323554993 51.3332672119
16.0718116760 33.3185386658 51.1314735413
16.0729866028 33.3159904480 50.9316024780
16.0798892975 33.3242034912 50.7335968018
16.0899810791 33.3384170532 50.5366439819
16.0987968445 33.3502273560 50.3392753601
16.1032276154 33.3537979126 50.1404533386
16.1050415039 33.3524513245 49.9407539368
16.1108875275 33.3586807251 49.7423896790
16.1277694702 33.3856544495 49.5477294922
16.1577587128 33.4372634888 49.3575210571
16.1973609924 33.5069465637 49.1706352234
16.2420673370 33.5862236023 48.9855690002
16.2903060913 33.6721420288 48.8018112183
16.3424491882 33.7654037476 48.6195068359
16.3973865509 33.8639221191 48.4382820129
16.4513015747 33.9605255127 48.2568359375
16.4992637634 34.0459365845 48.0734481812
16.5373992920 34.1128768921 47.8867530823
16.5642585754 34.1586189270 47.6961936951
16.5811023712 34.1855354309 47.5021743774
16.5910987854 34.1995811462 47.3057708740
16.5977954865 34.2074241638 47.1082077026
16.6038074493 34.2139778137 46.9103965759
16.6103916168 34.2216072083 46.7127914429
16.6179828644 34.2311286926 46.5155410767
16.6273193359 34.2439346313 46.3189201355
16.6402931213 34.2635765076 46.1236190796
16.6593017578 34.2945671082 45.9305152893
16.6849670410 34.3380775452 45.7398605347
16.7145385742 34.3889274597 45.5506820679
16.7434406281 34.4385223389 45.3613166809
16.7685451508 34.4809799194 45.1706199646
16.7893753052 34.5154037476 44.9783935547
16.8064708710 34.5428009033 44.7848243713
16.8198585510 34.5632247925 44.5899047852
16.8292922974 34.5762176514 44.3935279846
16.8350105286 34.5822257996 44.1957702637
16.8376045227 34.5823516846 43.9968338013
16.8369846344 34.5764427185 43.7966804504
16.8310565948 34.5605430603 43.5944938660
16.8144569397 34.5245742798 43.3882255554
16.7788867950 34.4529304504 43.1746711731
16.7174835205 34.3326988220 42.9511299133
16.6326045990 34.1683082581 42.7184028625
16.5396881104 33.9888000488 42.4823341370
16.4600353241 33.8342285156 42.2511177063
16.4074077606 33.7304801941 42.0301361084
16.3817672729 33.6774902344 41.8194885254
16.3744773865 33.6590080261 41.6159133911
16.3771495819 33.6592674255 41.4161987305
16.3867759705 33.6726036072 41.2192039490
16.4070682526 33.7060050964 41.0264205933
16.4472961426 33.7769050598 40.8415641785
16.5166282654 33.9025535583 40.6683464050
16.6141071320 34.0811538696 40.5065116882
16.7230873108 34.2813949585 40.3495178223
16.8192958832 34.4576187134 40.1876792908
16.8869285583 34.5800857544 40.0145835876
16.9266376495 34.6500358582 39.8303756714
16.9498958588 34.6890335083 39.6395950317
16.9690685272 34.7203445435 39.4471931458
16.9921531677 34.7590217590 39.2564239502
17.0223865509 34.8111457825 39.0686225891
17.0594635010 34.8761482239 38.8836936951
17.1007537842 34.9490776062 38.7005805969
17.1420822144 35.0220832825 38.5175743103
17.1783103943 35.0854949951 38.3325500488
17.2046985626 35.1303901672 38.1435089111
17.2188396454 35.1522483826 37.9494132996
17.2214622498 35.1524314880 37.7505111694
17.2155437469 35.1365470886 37.5480079651
17.2052440643 35.1124153137 37.3436279297
17.1952705383 35.0888938904 37.1393356323
17.1898574829 35.0739593506 36.9369354248
17.1915473938 35.0723838806 36.7375183105
17.2002906799 35.0840835571 36.5410995483
17.2123012543 35.1019325256 36.3460845947
17.2186222076 35.1090736389 36.1486396790
17.2060279846 35.0806159973 35.9430427551
17.1632556915 34.9953689575 35.7243461609
17.0906581879 34.8539886475 35.4925842285
17.0047607422 34.6875762939 35.2548217773
16.9309463501 34.5438957214 35.0220756531
16.8901500702 34.4623489380 34.8035621643
16.8921070099 34.4612693787 34.6036911011
16.9363479614 34.5397644043 34.4224243164
17.0124206543 34.6781730652 34.2553215027
17.0993385315 34.8369979858 34.0932121277
17.1725540161 34.9700431824 33.9252281189
17.2167778015 35.0485191345 33.7444992065
17.2317600250 35.0719604492 33.5507965088
17.2262935638 35.0569114685 33.3479423523
17.2093200684 35.0201988220 33.1398735046
17.1864070892 34.9723091125 32.9290657043
17.1611251831 34.9199562073 32.7170982361
17.1377105713 34.8711204529 32.5058975220
17.1231803894 34.8390007019 32.2986526489
17.1267948151 34.8410415649 32.0996398926
17.1551456451 34.8896408081 31.9119453430
17.2054958344 34.9796600342 31.7344169617
17.2641983032 35.0854110718 31.5608558655
17.3140888214 35.1745681763 31.3833618164
17.3449707031 35.2279472351 31.1971759796
17.3570384979 35.2459030151 31.0023059845
17.3554439545 35.2381401062 30.8010826111
17.3438949585 35.2116355896 30.5951786041
17.3235740662 35.1686134338 30.3851127625
17.2960090637 35.1119499207 30.1715641022
17.2650070190 35.0488128662 29.9563007355
17.2355976105 34.9886741638 29.7416877747
17.2117099762 34.9389266968 29.5295944214
17.1949386597 34.9025764465 29.3208007813
17.1848716736 34.8788528442 29.1151428223
17.1802444458 34.8653678894 28.9120407104
17.1802864075 34.8606719971 28.7111473083
17.1860809326 34.8668136597 28.5130023956
17.2017364502 34.8915214539 28.3196125031
17.2344226837 34.9482994080 28.1344871521
17.2913818359 35.0507926941 27.9612121582
17.3735313416 35.2007217407 27.8003311157
17.4702110291 35.3780212402 27.6467475891
17.5619068146 35.5459403992 27.4909667969
17.6310005188 35.6713027954 27.3243274689
17.6714096069 35.7426414490 27.1437397003
17.6887798309 35.7705955505 26.9518756866
17.6930370331 35.7738533020 26.7535495758
17.6914043427 35.7660179138 26.5522937775
17.6867160797 35.7524261475 26.3494949341
17.6795215607 35.7341156006 26.1454124451
17.6701393127 35.7116813660 25.9401988983
17.6589603424 35.6858596802 25.7340354919
17.6463584900 35.6573600769 25.5271091461
17.6335525513 35.6284713745 25.3200263977
17.6230239868 35.6038742065 25.1140403748
17.6167640686 35.5873184204 24.9101715088
17.6140556335 35.5774497986 24.7080707550
17.6119251251 35.5686683655 24.5062389374
17.6079463959 35.5564041138 24.3034381866
17.6021232605 35.5406646729 24.0996608734
17.5964126587 35.5251350403 23.8959064484
17.5936641693 35.5151901245 23.6936435699
17.5975666046 35.5177688599 23.4947910309
17.6121387482 35.5404510498 23.3014564514
17.6392726898 35.5867996216 23.1146678925
17.6765766144 35.6523094177 22.9332294464
17.7186355591 35.7267799377 22.7543563843
17.7604331970 35.8007621765 22.5754432678
17.7990665436 35.8687782288 22.3949623108
17.8327236176 35.9274253845 22.2119503021
17.8595294952 35.9731636047 22.0253963470
17.8781127930 36.0034141541 21.8345470428
17.8890609741 36.0192756653 21.6396808624
17.8951358795 36.0259552002 21.4422340393
17.8997249603 36.0298347473 21.2439918518
17.9052181244 36.0354194641 21.0462265015
17.9129543304 36.0452308655 20.8496570587
17.9244613647 36.0621490479 20.6551170349
17.9423065186 36.0910072327 20.4640026093
17.9690361023 36.1366119385 20.2777137756
18.0044994354 36.1986732483 20.0962066650
18.0445213318 36.2693290710 19.9172515869
18.0835037231 36.3380279541 19.7378196716
18.1185836792 36.3993721008 19.5563468933
18.1501789093 36.4541549683 19.3730468750
18.1781425476 36.5020942688 19.1878242493
18.1985263824 36.5357437134 18.9984912872
18.2055606842 36.5442428589 18.8018436432
18.1979103088 36.5250587463 18.5970859528
18.1827201843 36.4916648865 18.3881130219
18.1720085144 36.4667091370 18.1815662384
18.1743412018 36.4663429260 17.9822273254
18.1904945374 36.4920234680 17.7905826569
18.2160415649 36.5354118347 17.6042156219
18.2455654144 36.5862998962 17.4201297760
18.2744998932 36.6360702515 17.2357711792
18.2997169495 36.6788406372 17.0493812561
18.3199748993 36.7122688293 16.8602409363
18.3358764648 36.7374763489 16.6686706543
18.3500785828 36.7594833374 16.4761619568
18.3672142029 36.7870254517 16.2853412628
18.3907966614 36.8267173767 16.0982208252
18.4188270569 36.8747978210 15.9136896133
18.4444694519 36.9183769226 15.7278470993
18.4622554779 36.9471473694 15.5375461578
18.4722213745 36.9611701965 15.3427724838
18.4775123596 36.9663848877 15.1453113556
18.4793529510 36.9650917053 14.9458494186
18.4750709534 36.9522552490 14.7428245544
18.4619998932 36.9228439331 14.5346622467
18.4448051453 36.8856620789 14.3240432739
18.4375858307 36.8672866821 14.1191806793
18.4542064667 36.8938560486 13.9282283783
18.4953517914 36.9666748047 13.7516870499
18.5482635498 37.0616760254 13.5821561813
18.5993366241 37.1532173157 13.4116678238
18.6436233521 37.2319641113 13.2372922897
18.6822605133 37.3000564575 13.0596742630
18.7151546478 37.3573265076 12.8787355423
18.7388858795 37.3973159790 12.6924180984
18.7507324219 37.4148979187 12.4990634918
18.7531433105 37.4146842957 12.3000831604
18.7536125183 37.4108047485 12.0999269485
18.7597675323 37.4176559448 11.9031667709
18.7742977142 37.4402961731 11.7114419937
18.7945060730 37.4736442566 11.5231618881
18.8157863617 37.5090179443 11.3355655670
18.8346099854 37.5397567749 11.1465206146
18.8492546082 37.5626182556 10.9549713135
18.8596324921 37.5774345398 10.7608470917
18.8670253754 37.5866127014 10.5649108887
18.8734931946 37.5940513611 10.3684110641
18.8811740875 37.6037788391 10.1726522446
18.8917980194 37.6190528870 9.9787015915
18.9064044952 37.6418457031 9.7872133255
18.9255485535 37.6731948853 9.5985441208
18.9501266479 37.7147941589 9.4132661819
18.9818401337 37.7698593140 9.2324581146
19.0219440460 37.8407478333 9.0569257736
19.0688686371 37.9245071411 8.8857297897
19.1172580719 38.0110321045 8.7155561447
19.1597309113 38.0863990784 8.5417995453
19.1902046204 38.1391296387 8.3606243134
19.2061576843 38.1644668579 8.1703977585
19.2084197998 38.1639785767 7.9715833664
19.1995944977 38.1425743103 7.7657656670
19.1834144592 38.1072883606 7.5552563667
19.1658210754 38.0693435669 7.3437900543
19.1557998657 38.0456771851 7.1370601654
19.1625900269 38.0537261963 6.9409756660
19.1892738342 38.0993118286 6.7575702667
19.2291297913 38.1697540283 6.5826330185
19.2704067230 38.2428741455 6.4086947441
19.3052253723 38.3038177490 6.2307095528
19.3338527679 38.3530769348 6.0488200188
19.3623523712 38.4020957947 5.8669080734
19.3975543976 38.4637603760 5.6893815994
19.4417610168 38.5424232483 5.5177602768
19.4884471893 38.6257705688 5.3478498459
19.5215454102 38.6834754944 5.1692190170
19.5208168030 38.6773414612 4.9686322212
19.4724349976 38.5812911987 4.7369308472
19.3800010681 38.4020957947 4.4762682915
19.2670497894 38.1841812134 4.2018876076
19.1650161743 37.9868545532 3.9343447685
19.0946178436 37.8492317200 3.6873192787
19.0575733185 37.7745513916 3.4620757103
19.0435981750 37.7434043884 3.2519545555
19.0417709351 37.7351799011 3.0498192310
19.0461444855 37.7386627197 2.8517749310
19.0555610657 37.7516632080 2.6570758820
19.0718917847 37.7777137756 2.4669914246
19.0986804962 37.8235054016 2.2839157581
19.1397190094 37.8961906433 2.1104283333
19.1971874237 37.9998931885 1.9480518103
19.2707252502 38.1339302063 1.7966102362
19.3581809998 38.2942466736 1.6547224522
19.4552402496 38.4726905823 1.5195355415
19.5518836975 38.6503601074 1.3843168020
19.6315040588 38.7958984375 1.2378149033
19.6793270111 38.8814201355 1.0699299574
19.6936187744 38.9036407471 0.8793519139
19.6864891052 38.8854255676 0.6741949916
19.6738109589 38.8567314148 0.4652097225
19.6660003662 38.8372268677 0.2595005929
19.6669101715 38.8341865540 0.0597309247
-20.6716213226 30.9178047180 81.2057418823
-20.6815414429 30.9343738556 81.0074615479
-20.6999034882 30.9644145966 80.8100204468
-20.7230854034 31.0021476746 80.6130828857
-20.7464828491 31.0402221680 80.4162063599
-20.7659759521 31.0720672607 80.2189788818
-20.7791309357 31.0937976837 80.0211410522
-20.7854309082 31.1045875549 79.8226089478
-20.7862129211 31.1065731049 79.6235046387
-20.7848014832 31.1050586700 79.4241638184
-20.7858791351 31.1075134277 79.2250671387
-20.7934169769 31.1202793121 79.0266647339
-20.8084964752 31.1450805664 78.8290863037
-20.8289909363 31.1785221100 78.6321258545
-20.8513164520 31.2148876190 78.4354019165
-20.8727283478 31.2497940063 78.2386245728
-20.8923206329 31.2817955017 78.0416717529
-20.9099273682 31.3106288910 77.8445205688
-20.9236965179 31.3333396912 77.6469573975
-20.9282875061 31.3414001465 77.4483413696
-20.9160137177 31.3225498199 77.2477416992
-20.8829898834 31.2705879211 77.0446319580
-20.8375186920 31.1987628937 76.8399353027
-20.8004302979 31.1403141022 76.6361465454
-20.7905216217 31.1252422333 76.4355850220
-20.8073978424 31.1529083252 76.2383041382
-20.8325710297 31.1938152313 76.0420837402
-20.8482704163 31.2196083069 75.8447189331
-20.8512344360 31.2250747681 75.6457595825
-20.8484001160 31.2212886810 75.4460525513
-20.8451709747 31.2168731689 75.2462768555
-20.8410186768 31.2109832764 75.0463638306
-20.8333435059 31.1994724274 74.8459701538
-20.8217334747 31.1816844940 74.6450195313
-20.8082809448 31.1609535217 74.4437866211
-20.7954978943 31.1412963867 74.2426071167
-20.7848281860 31.1250057220 74.0416717529
-20.7765750885 31.1125755310 73.8410339355
-20.7705249786 31.1036586761 73.6406707764
-20.7665348053 31.0980281830 73.4405670166
-20.7649459839 31.0962314606 73.2407836914
-20.7666702271 31.0997200012 73.0414505005
-20.7726669312 31.1100273132 72.8427276611
-20.7836418152 31.1282787323 72.6447219849
-20.8009662628 31.1566638947 72.4476470947
-20.8274803162 31.1997089386 72.2519454956
-20.8650951385 31.2604675293 72.0579299927
-20.9105529785 31.3337402344 71.8651504517
-20.9551868439 31.4057006836 71.6723403931
-20.9897117615 31.4615268707 71.4780960083
-21.0078792572 31.4912548065 71.2814331055
-21.0060100555 31.4890098572 71.0817337036
-20.9827346802 31.4526081085 70.8787307739
-20.9416961670 31.3878631592 70.6728973389
-20.8928737640 31.3106975555 70.4657440186
-20.8482303619 31.2401981354 70.2591247559
-20.8151035309 31.1880798340 70.0542221069
-20.7939701080 31.1550960541 69.8511505127
-20.7815132141 31.1359596252 69.6494216919
-20.7745990753 31.1256656647 69.4485397339
-20.7718257904 31.1219787598 69.2483139038
-20.7731151581 31.1247749329 69.0487365723
-20.7790355682 31.1349620819 68.8499221802
-20.7907371521 31.1543731689 68.6520690918
-20.8103961945 31.1864795685 68.4555664063
-20.8412952423 31.2365207672 68.2609939575
-20.8862094879 31.3089256287 68.0688629150
-20.9439849854 31.4018497467 67.8790206909
-21.0071868896 31.5034332275 67.6902313232
-21.0644226074 31.5954933167 67.5005493164
-21.1065292358 31.6634178162 67.3083343506
-21.1311187744 31.7033920288 67.1131362915
-21.1417407990 31.7210769653 66.9155120850
-21.1437549591 31.7250289917 66.7163619995
-21.1410655975 31.7214756012 66.5163726807
-21.1352863312 31.7129898071 66.3158035278
-21.1263465881 31.6994647980 66.1146392822
-21.1132678986 31.6793346405 65.9126892090
-21.0946426392 31.6503562927 65.7096786499
-21.0695667267 31.6110839844 65.5054244995
-21.0398883820 31.5644683838 65.3002471924
-21.0120925903 31.5208606720 65.0953445435
-20.9952831268 31.4947776794 64.8924331665
-20.9952239990 31.4954223633 64.6926422119
-21.0097789764 31.5193843842 64.4956207275
-21.0303535461 31.5529518127 64.2997741699
-21.0479888916 31.5818271637 64.1033935547
-21.0584640503 31.5992794037 63.9056625366
-21.0626049042 31.6066246033 63.7067031860
-21.0635089874 31.6088066101 63.5071105957
-21.0646915436 31.6114330292 63.3075637817
-21.0695419312 31.6199092865 63.1087341309
-21.0803489685 31.6378917694 62.9110946655
-21.0972366333 31.6655731201 62.7146873474
-21.1183223724 31.6999530792 62.5191535950
-21.1410560608 31.7369651794 62.3239898682
-21.1635112762 31.7735309601 62.1288108826
-21.1842975616 31.8074340820 61.9333305359
-21.2017269135 31.8359794617 61.7371902466
-21.2141857147 31.8565940857 61.5400505066
-21.2216434479 31.8692321777 61.3418846130
-21.2261791229 31.8772068024 61.1431121826
-21.2306766510 31.8851203918 60.9443321228
-21.2369651794 31.8958930969 60.7459259033
-21.2449741364 31.9094104767 60.5478935242
-21.2534103394 31.9236068726 60.3499603271
-21.2612895966 31.9369163513 60.1519126892
-21.2688579559 31.9497318268 59.9538078308
-21.2770366669 31.9635200500 59.7558364868
-21.2861480713 31.9787921906 59.5580787659
-21.2953319550 31.9941844940 59.3603477478
-21.3029994965 32.0071563721 59.1622924805
-21.3075962067 32.0152282715 58.9635581970
-21.3082561493 32.0170211792 58.7639465332
-21.3051910400 32.0128707886 58.5634880066
-21.2991256714 32.0039291382 58.3623352051
-21.2897567749 31.9897251129 58.1604080200
-21.2750759125 31.9670410156 57.9572410583
-21.2530097961 31.9325771332 57.7523345947
-21.2242336273 31.8874073029 57.5458221436
-21.1931915283 31.8386230469 57.3387145996
-21.1659317017 31.7958736420 57.1324005127
-21.1465835571 31.7657451630 56.9278602600
-21.1355457306 31.7488746643 56.7252159119
-21.1304435730 31.7414760590 56.5239334106
-21.1283035278 31.7388019562 56.3233337402
-21.1271781921 31.7377452850 56.1229553223
-21.1268844604 31.7380180359 55.9227638245
-21.1293697357 31.7427234650 55.7232284546
-21.1385135651 31.7580509186 55.5252952576
-21.1583557129 31.7904472351 55.3299674988
-21.1898136139 31.8413734436 55.1375045776
-21.2286148071 31.9040126801 54.9469032288
-21.2672386169 31.9663696289 54.7563323975
-21.2993412018 32.0183219910 54.5642242432
-21.3223838806 32.0558242798 54.3699340820
-21.3371448517 32.0801086426 54.1736145020
-21.3461608887 32.0952339172 53.9758796692
-21.3526363373 32.1063041687 53.7775154114
-21.3597679138 32.1184196472 53.5793190002
-21.3702754974 32.1359214783 53.3819885254
-21.3857822418 32.1613998413 53.1859436035
-21.4060058594 32.1944046021 52.9911308289
-21.4284801483 32.2309951782 52.7969322205
-21.4498519897 32.2658271790 52.6024894714
-21.4681663513 32.2957839966 52.4072914124
-21.4840373993 32.3218421936 52.2114830017
-21.4994754791 32.3472099304 52.0155906677
-21.5154991150 32.3735084534 51.8198738098
-21.5309448242 32.3988914490 51.6240310669
-21.5436916351 32.4199638367 51.4274940491
-21.5526657104 32.4350204468 51.2299690247
-21.5581760406 32.4445495605 51.0315284729
-21.5606250763 32.4491920471 50.8322639465
-21.5596961975 32.4484519958 50.6320838928
-21.5547428131 32.4412879944 50.4308013916
-21.5450458527 32.4265594482 50.2282028198
-21.5298709869 32.4030914307 50.0240745544
-21.5095596313 32.3714332581 49.8184890747
-21.4869518280 32.3361053467 49.6122169495
-21.4665756226 32.3043403625 49.4064941406
-21.4519977570 32.2818298340 49.2023315430
-21.4446945190 32.2709197998 49.0001487732
-21.4456310272 32.2731513977 48.8002510071
-21.4567699432 32.2916641235 48.6032104492
-21.4796848297 32.3289527893 48.4095115662
-21.5123729706 32.3818397522 48.2186279297
-21.5482883453 32.4398689270 48.0287246704
-21.5795555115 32.4904861450 47.8375625610
-21.6014823914 32.5262031555 47.6437797546
-21.6140804291 32.5470390320 47.4473495483
-21.6200904846 32.5573654175 47.2490272522
-21.6223602295 32.5617256165 47.0496253967
-21.6226749420 32.5629692078 46.8496437073
-21.6218910217 32.5624580383 46.6493339539
-21.6204261780 32.5608596802 46.4488067627
-21.6186027527 32.5586929321 46.2481613159
-21.6167907715 32.5565414429 46.0475044250
-21.6154403687 32.5551300049 45.8469696045
-21.6150798798 32.5552978516 45.6467170715
-21.6162509918 32.5579032898 45.4469108582
-21.6194000244 32.5636672974 45.2476882935
-21.6248035431 32.5730247498 45.0491447449
-21.6325454712 32.5861167908 44.8513107300
-21.6424961090 32.6027297974 44.6541519165
-21.6540527344 32.6219024658 44.4574966431
-21.6656265259 32.6411056519 44.2608642578
-21.6745357513 32.6560554504 44.0634231567
-21.6780319214 32.6623725891 43.8643226624
-21.6750030518 32.6582832336 43.6631965637
-21.6666717529 32.6457328796 43.4604072571
-21.6553134918 32.6283569336 43.2566375732
-21.6423282623 32.6083831787 43.0523262024
-21.6277770996 32.5859146118 42.8474769592
-21.6118316650 32.5612220764 42.6421470642
-21.5961627960 32.5369682312 42.4368553162
-21.5833835602 32.5173263550 42.2324333191
-21.5751399994 32.5049209595 42.0294227600
-21.5710353851 32.4991149902 41.8277015686
-21.5693740845 32.4972038269 41.6267471313
-21.5688381195 32.4970932007 41.4261398315
-21.5696487427 32.4991264343 41.2259559631
-21.5732994080 32.5056915283 41.0266876221
-21.5810165405 32.5187416077 40.8287353516
-21.5924625397 32.5377388000 40.6320114136
-21.6059970856 32.5600700378 40.4359893799
-21.6201496124 32.5833816528 40.2401885986
-21.6351814270 32.6081008911 40.0447006226
