34.0517807007 -16.2153587341 70.6919860840
34.0724601746 -16.2288875580 70.4964218140
34.1078071594 -16.2502365112 70.3024139404
34.1520729065 -16.2763366699 70.1093826294
34.1994361877 -16.3040866852 69.9167327881
34.2452201843 -16.3309955597 69.7239685059
34.2855644226 -16.3550052643 69.5306701660
34.3166465759 -16.3740768433 69.3364181519
34.3347053528 -16.3862094879 69.1407699585
34.3375701904 -16.3902435303 68.9434738159
34.3262634277 -16.3867244720 68.7446060181
34.3049316406 -16.3778667450 68.5445938110
34.2787284851 -16.3664131165 68.3439941406
34.2513923645 -16.3543529510 68.1432189941
34.2249755859 -16.3427867889 67.9424972534
34.2017936707 -16.3329448700 67.7420883179
34.1855964661 -16.3268222809 67.5424423218
34.1797637939 -16.3262252808 67.3439559937
34.1844558716 -16.3312358856 67.1466674805
34.1962852478 -16.3400497437 66.9502105713
34.2107849121 -16.3502845764 66.7540740967
34.2245368958 -16.3601226807 66.5578613281
34.2353630066 -16.3684005737 66.3612976074
34.2417526245 -16.3743171692 66.1642150879
34.2430191040 -16.3775024414 65.9665069580
34.2399597168 -16.3783836365 65.7682723999
34.2351188660 -16.3783168793 65.5698013306
34.2321166992 -16.3792285919 65.3715286255
34.2344245911 -16.3829689026 65.1739044189
34.2443580627 -16.3907737732 64.9772109985
34.2625045776 -16.4029521942 64.7815475464
34.2873840332 -16.4187164307 64.5867385864
34.3158035278 -16.4363651276 64.3923950195
34.3442077637 -16.4540081024 64.1980819702
34.3701820374 -16.4703559875 64.0034942627
34.3926582336 -16.4848384857 63.8084716797
34.4107856750 -16.4970073700 63.6129150391
34.4226989746 -16.5058631897 63.4165649414
34.4257850647 -16.5100193024 63.2190704346
34.4189987183 -16.5089149475 63.0202713013
34.4048309326 -16.5038795471 62.8204803467
34.3883094788 -16.4975929260 62.6203422546
34.3739128113 -16.4924392700 62.4204559326
34.3637046814 -16.4895133972 62.2210922241
34.3577690125 -16.4888668060 62.0222816467
34.3554153442 -16.4901237488 61.8239326477
34.3555908203 -16.4927310944 61.6259155273
34.3568000793 -16.4958896637 61.4280281067
34.3570556641 -16.4985389709 61.2299957275
34.3542556763 -16.4995613098 61.0315322876
34.3468933105 -16.4981536865 60.8324165344
34.3351097107 -16.4943923950 60.6326599121
34.3217353821 -16.4897861481 60.4326553345
34.3119468689 -16.4870872498 60.2331237793
34.3105010986 -16.4888305664 60.0347480774
34.3185272217 -16.4956207275 59.8377075195
34.3331756592 -16.5059356689 59.6416168213
34.3503341675 -16.5175876617 59.4458923340
34.3674049377 -16.5291919708 59.2501678467
34.3839683533 -16.5405273438 59.0543861389
34.4009437561 -16.5520801544 58.8586730957
34.4191703796 -16.5642986298 58.6631546021
34.4378509521 -16.5767612457 58.4677162170
34.4540901184 -16.5879211426 58.2719345093
34.4645385742 -16.5960006714 58.0752983093
34.4680671692 -16.6003932953 57.8776321411
34.4666671753 -16.6021633148 57.6792182922
34.4642219543 -16.6033763885 57.4806289673
34.4646949768 -16.6061439514 57.2824707031
34.4708862305 -16.6119556427 57.0851707458
34.4831161499 -16.6209831238 56.8887939453
34.4981727600 -16.6315116882 56.6928558350
34.5094528198 -16.6400337219 56.4963455200
34.5091438293 -16.6423854828 56.2980346680
34.4922866821 -16.6359291077 56.0971336365
34.4611320496 -16.6218605042 55.8939552307
34.4252204895 -16.6052627563 55.6899719238
34.3947944641 -16.5915832520 55.4867935181
34.3735008240 -16.5827655792 55.2850074768
34.3590927124 -16.5776157379 55.0842781067
34.3507347107 -16.5756855011 54.8844871521
34.3528518677 -16.5793304443 54.6863594055
34.3706130981 -16.5913028717 54.4907493591
34.4035034180 -16.6113281250 54.2976112366
34.4453926086 -16.6361408234 54.1059761047
34.4896926880 -16.6622371674 53.9147834778
34.5321731567 -16.6873626709 53.7233428955
34.5698738098 -16.7099456787 53.5311622620
34.6006584167 -16.7288455963 53.3378753662
34.6249465942 -16.7442874908 53.1435356140
34.6463699341 -16.7582073212 52.9487380981
34.6693572998 -16.7729587555 52.7542228699
34.6952934265 -16.7892761230 52.5602264404
34.7207145691 -16.8053245544 52.3661651611
34.7391281128 -16.8176383972 52.1709365845
34.7446098328 -16.8230724335 51.9735145569
34.7343101501 -16.8201103210 51.7733726501
34.7095336914 -16.8094425201 51.5707130432
34.6763000488 -16.7942790985 51.3665390015
34.6442947388 -16.7797660828 51.1625175476
34.6229705811 -16.7709388733 50.9603042603
34.6172142029 -16.7703952789 50.7607803345
34.6261482239 -16.7776679993 50.5638160706
34.6451797485 -16.7903118134 50.3686408997
34.6681861877 -16.8050727844 50.1741828918
34.6881179810 -16.8181972504 49.9791984558
34.6983718872 -16.8261718750 49.7825012207
34.6967430115 -16.8278255463 49.5836715698
34.6881713867 -16.8257846832 49.3835754395
34.6815567017 -16.8247852325 49.1838073730
34.6839256287 -16.8285655975 48.9856529236
34.6987457275 -16.8389682770 48.7897605896
34.7276000977 -16.8568401337 48.5964469910
34.7693367004 -16.8815631866 48.4055328369
34.8167839050 -16.9093208313 48.2157173157
34.8576126099 -16.9335594177 48.0247306824
34.8804740906 -16.9482402802 47.8304519653
34.8801155090 -16.9505691528 47.6318550110
34.8585166931 -16.9415988922 47.4292678833
34.8246116638 -16.9260845184 47.2243194580
34.7920417786 -16.9112815857 47.0195655823
34.7720642090 -16.9031772614 46.8171386719
34.7659530640 -16.9024467468 46.6173095703
34.7656288147 -16.9047946930 46.4185638428
34.7619819641 -16.9053783417 46.2191696167
34.7514381409 -16.9022903442 46.0184288025
34.7353439331 -16.8962535858 45.8165893555
34.7161026001 -16.8885421753 45.6141052246
34.6955528259 -16.8801364899 45.4113273621
34.6759986877 -16.8722591400 45.2087020874
34.6605186462 -16.8665504456 45.0068359375
34.6515731812 -16.8643169403 44.8062210083
34.6499938965 -16.8659992218 44.6070365906
34.6560478210 -16.8717441559 44.4093475342
34.6714134216 -16.8824386597 44.2135086060
34.6997871399 -16.9000511169 44.0202713013
34.7449417114 -16.9265861511 43.8304290771
34.8071594238 -16.9621944427 43.6440658569
34.8808097839 -17.0038795471 43.4600868225
34.9556503296 -17.0461978912 43.2764434814
35.0215644836 -17.0837669373 43.0910797119
35.0729370117 -17.1136035919 42.9028358459
35.1091880798 -17.1353988647 42.7115554810
35.1319770813 -17.1500377655 42.5175552368
35.1432762146 -17.1585674286 42.3212051392
35.1463890076 -17.1627445221 42.1231689453
35.1471862793 -17.1656894684 41.9246444702
35.1522750854 -17.1709175110 41.7270011902
35.1652145386 -17.1803169250 41.5309944153
35.1847534180 -17.1932258606 41.3363761902
35.2068290710 -17.2074832916 41.1423072815
35.2279434204 -17.2212314606 40.9480552673
35.2467460632 -17.2337474823 40.7533302307
35.2634849548 -17.2451667786 40.5581817627
35.2792167664 -17.2560520172 40.3628349304
35.2960548401 -17.2675247192 40.1677284241
35.3175506592 -17.2814712524 39.9736404419
35.3473014832 -17.2998085022 39.7813415527
35.3853950500 -17.3225784302 39.5908813477
35.4261512756 -17.3467636108 39.4010391235
35.4609298706 -17.3677711487 39.2099418640
35.4841384888 -17.3826274872 39.0163574219
35.4962806702 -17.3916034698 38.8203735352
35.5019187927 -17.3971195221 38.6229667664
35.5060386658 -17.4018306732 38.4252204895
35.5123519897 -17.4077072144 38.2279510498
35.5233192444 -17.4160575867 38.0317115784
35.5401878357 -17.4275436401 37.8367881775
35.5622711182 -17.4418010712 37.6430435181
35.5867004395 -17.4573040009 37.4498405457
35.6099281311 -17.4721717834 37.2563934326
35.6302642822 -17.4854984283 37.0623130798
35.6486244202 -17.4977760315 36.8678016663
35.6665000916 -17.5097980499 36.6731987000
35.6833839417 -17.5212898254 36.4783821106
35.6963539124 -17.5307044983 36.2826843262
35.7018928528 -17.5361671448 36.0852890015
35.6978187561 -17.5365257263 35.8856849670
35.6842193604 -17.5318202972 35.6838684082
35.6631584167 -17.5231513977 35.4802932739
35.6373481750 -17.5119571686 35.2755775452
35.6088981628 -17.4993629456 35.0701942444
35.5797386169 -17.4863929749 34.8645973206
35.5531120300 -17.4747695923 34.6595344543
35.5338783264 -17.4670715332 34.4561614990
35.5269660950 -17.4659252167 34.2556457520
35.5354766846 -17.4729709625 34.0587501526
35.5594215393 -17.4882164001 33.8655090332
35.5954132080 -17.5098609924 33.6751556396
35.6375274658 -17.5347595215 33.4862976074
35.6789436340 -17.5592861176 33.2973251343
35.7134666443 -17.5801506042 33.1067428589
35.7368621826 -17.5951023102 32.9135246277
35.7478828430 -17.6034793854 32.7173423767
35.7480278015 -17.6060810089 32.5185356140
35.7398681641 -17.6042690277 32.3176994324
35.7256317139 -17.5992317200 32.1153602600
35.7074928284 -17.5921192169 31.9120388031
35.6884269714 -17.5845146179 31.7084503174
35.6716728210 -17.5781421661 31.5053901672
35.6589393616 -17.5739021301 31.3032836914
35.6491813660 -17.5712451935 31.1018829346
35.6392745972 -17.5685081482 30.9004154205
35.6260452271 -17.5640087128 30.6980991364
35.6085433960 -17.5572376251 30.4946880341
35.5888557434 -17.5493068695 30.2906913757
35.5707473755 -17.5422172546 30.0870513916
35.5571784973 -17.5375366211 29.8845119476
35.5489959717 -17.5357170105 29.6833000183
35.5455131531 -17.5363960266 29.4832496643
35.5457153320 -17.5390300751 29.2841167450
35.5490188599 -17.5433120728 29.0857601166
35.5555915833 -17.5493316650 28.8882293701
35.5663642883 -17.5575790405 28.6917667389
35.5823936462 -17.5686225891 28.4966564178
35.6037139893 -17.5824699402 28.3029155731
35.6287498474 -17.5982952118 28.1101531982
35.6556892395 -17.6151275635 27.9179039001
35.6844863892 -17.6329460144 27.7261638641
35.7168655396 -17.6526679993 27.5353832245
35.7537269592 -17.6747684479 27.3458061218
35.7929153442 -17.6981048584 27.1568775177
35.8299903870 -17.7203178406 26.9674377441
35.8609542847 -17.7392845154 26.7764358521
35.8840332031 -17.7540664673 26.5833873749
35.8995361328 -17.7648239136 26.3883571625
35.9088821411 -17.7723140717 26.1917095184
35.9139556885 -17.7775344849 25.9939250946
35.9169769287 -17.7816638947 25.7955913544
35.9205856323 -17.7861061096 25.5974044800
35.9273643494 -17.7922325134 25.4000606537
35.9386596680 -17.8007583618 25.2039279938
35.9538269043 -17.8113365173 25.0088405609
35.9712677002 -17.8231239319 24.8143768311
35.9906539917 -17.8359413147 24.6204528809
36.0139541626 -17.8508396149 24.4276065826
36.0441322327 -17.8693866730 24.2366523743
36.0822525024 -17.8921489716 24.0478973389
36.1254158020 -17.9175891876 23.8605632782
36.1675491333 -17.9424800873 23.6729984283
36.2029418945 -17.9637928009 23.4836254120
36.2294464111 -17.9803886414 23.2918434143
36.2488021851 -17.9931888580 23.0981101990
36.2646255493 -18.0041141510 22.9034156799
36.2806167603 -18.0151290894 22.7087745667
36.2997627258 -18.0278167725 22.5150260925
36.3237876892 -18.0430927277 22.3226547241
36.3521652222 -18.0606822968 22.1315250397
36.3817596436 -18.0789146423 21.9407653809
36.4080734253 -18.0954074860 21.7491130829
36.4275932312 -18.1082916260 21.5555686951
36.4393119812 -18.1170368195 21.3598327637
36.4447212219 -18.1224327087 21.1623134613
36.4468574524 -18.1260929108 20.9638576508
36.4493370056 -18.1299343109 20.7654914856
36.4555702209 -18.1357688904 20.5681896210
36.4677696228 -18.1447696686 20.3725948334
36.4857101440 -18.1568164825 20.1786518097
36.5063362122 -18.1702861786 19.9854965210
36.5253410339 -18.1828994751 19.7918910980
36.5397491455 -18.1930713654 19.5969715118
36.5490760803 -18.2005462646 19.4005851746
36.5544738770 -18.2059383392 19.2030582428
36.5572776794 -18.2099514008 19.0047702789
36.5583457947 -18.2130451202 18.8059654236
36.5581855774 -18.2154865265 18.6067924500
36.5572395325 -18.2175121307 18.4073753357
36.5561332703 -18.2194519043 18.2078952789
36.5559005737 -18.2218570709 18.0086631775
36.5582771301 -18.2256450653 17.8101882935
36.5657119751 -18.2321166992 17.6132030487
36.5806732178 -18.2425823212 17.4184570313
36.6043128967 -18.2576522827 17.2263069153
36.6355628967 -18.2767562866 17.0364494324
36.6716041565 -18.2984046936 16.8480625153
36.7090301514 -18.3207855225 16.6601314545
36.7445068359 -18.3421325684 16.4716548920
36.7752914429 -18.3609886169 16.2817993164
36.8001480103 -18.3767013550 16.0901870728
36.8200035095 -18.3897628784 15.8970813751
36.8377952576 -18.4017276764 15.7033653259
36.8579330444 -18.4149360657 15.5103769302
36.8852310181 -18.4319419861 15.3195905685
36.9224586487 -18.4542121887 15.1318693161
36.9675598145 -18.4806613922 14.9466066360
37.0136756897 -18.5076484680 14.7617073059
37.0529365540 -18.5309982300 14.5747509003
37.0807571411 -18.5482788086 14.3843050003
37.0970726013 -18.5594577789 14.1903247833
37.1047592163 -18.5660610199 13.9936780930
37.1075248718 -18.5700531006 13.7954998016
37.1085052490 -18.5730991364 13.5967559814
37.1096343994 -18.5762233734 13.3980484009
37.1116790771 -18.5798358917 13.1996173859
37.1146392822 -18.5839309692 13.0014629364
37.1182708740 -18.5883808136 12.8035125732
37.1226081848 -18.5932083130 12.6057786942
37.1284599304 -18.5988388062 12.4085168839
37.1377410889 -18.6062870026 12.2123374939
37.1533927917 -18.6171131134 12.0181827545
37.1786804199 -18.6330490112 11.8271055222
37.2157211304 -18.6552181244 11.6398019791
37.2633209229 -18.6829833984 11.4559154510
37.3154640198 -18.7131576538 11.2735414505
37.3626899719 -18.7407245636 11.0896520615
37.3964920044 -18.7611713409 10.9014959335
37.4130210876 -18.7724609375 10.7078046799
37.4130325317 -18.7749919891 10.5087842941
37.3993721008 -18.7702770233 10.3053216934
37.3754577637 -18.7601222992 10.0984954834
37.3451995850 -18.7466068268 9.8895587921
37.3126564026 -18.7318820953 9.6798200607
37.2813034058 -18.7177886963 9.4704113007
37.2545471191 -18.7061309814 9.2624502182
37.2369117737 -18.6993103027 9.0574350357
37.2333297729 -18.6999397278 8.8570060730
37.2462921143 -18.7093410492 8.6620187759
37.2742042542 -18.7266635895 8.4719772339
37.3128433228 -18.7496757507 8.2855195999
37.3579177856 -18.7760982513 8.1012430191
37.4059295654 -18.8040771484 7.9179954529
37.4536781311 -18.8319129944 7.7347164154
37.4982795715 -18.8580818176 7.5504446030
37.5381698608 -18.8817539215 7.3646464348
37.5738182068 -18.9031753540 7.1774692535
37.6069412231 -18.9232578278 6.9894828796
37.6384963989 -18.9425106049 6.8010044098
37.6673583984 -18.9603328705 6.6116480827
37.6911926270 -18.9754924774 6.4206194878
37.7085800171 -18.9872341156 6.2274265289
37.7200164795 -18.9958209991 6.0322227478
37.7270812988 -19.0020923615 5.8355345726
37.7311477661 -19.0067749023 5.6378202438
37.7328987122 -19.0102291107 5.4393072128
37.7327041626 -19.0126533508 5.2401170731
37.7311820984 -19.0143737793 5.0404586792
37.7295989990 -19.0160617828 4.8407640457
37.7299842834 -19.0187931061 4.6417341232
37.7349205017 -19.0239372253 4.4442672729
37.7467803955 -19.0327472687 4.2491927147
37.7666015625 -19.0457782745 4.0568895340
37.7935295105 -19.0625762939 3.8670747280
37.8252410889 -19.0819053650 3.6789541245
37.8586883545 -19.1021556854 3.4914748669
37.8905868530 -19.1215858459 3.3034892082
37.9183883667 -19.1388416290 3.1140990257
37.9419097900 -19.1538314819 2.9232335091
37.9639854431 -19.1680564880 2.7318801880
37.9891204834 -19.1838989258 2.5416257381
38.0212860107 -19.2034664154 2.3538827896
38.0620613098 -19.2275962830 2.1692266464
38.1095771790 -19.2552967072 1.9870126247
38.1588172913 -19.2839088440 1.8054679632
38.2035598755 -19.3101387024 1.6223783493
38.2389869690 -19.3314323425 1.4360123873
38.2632560730 -19.3468151093 1.2456895113
38.2774353027 -19.3568515778 1.0517691374
38.2842979431 -19.3630123138 0.8552268744
38.2865104675 -19.3667087555 0.6570057869
38.2850952148 -19.3684864044 0.4574666619
38.2803382874 -19.3684921265 0.2567040920
38.2755088806 -19.3684597015 0.0558958091
27.4908447266 -25.9091281891 80.3721618652
27.5036239624 -25.9255771637 80.1763000488
27.5240211487 -25.9499359131 79.9811325073
27.5437431335 -25.9735927582 79.7859268188
27.5594177246 -25.9930477142 79.5903854370
27.5726985931 -26.0100154877 79.3946304321
27.5858612061 -26.0268611908 79.1988830566
27.5986194611 -26.0432872772 79.0031127930
27.6089572906 -26.0572013855 78.8071289063
27.6155452728 -26.0672187805 78.6107864380
27.6186695099 -26.0736446381 78.4141159058
27.6195354462 -26.0777244568 78.2172241211
27.6193447113 -26.0807056427 78.0202178955
27.6189594269 -26.0834865570 77.8231811523
27.6189174652 -26.0866241455 77.6261672974
27.6196022034 -26.0905170441 77.4292144775
27.6213703156 -26.0955314636 77.2323608398
27.6242733002 -26.1017265320 77.0356216431
27.6274738312 -26.1082324982 76.8389053345
27.6291751862 -26.1131801605 76.6420288086
27.6273975372 -26.1145172119 76.4447784424
27.6209697723 -26.1110267639 76.2470169067
27.6102676392 -26.1030998230 76.0487747192
27.5975627899 -26.0930938721 75.8502960205
27.5860538483 -26.0843315125 75.6519012451
27.5777454376 -26.0788917542 75.4538345337
27.5725250244 -26.0766563416 75.2560806274
27.5695877075 -26.0767917633 75.0585632324
27.5690402985 -26.0794086456 74.8613052368
27.5714263916 -26.0850677490 74.6643600464
27.5760364532 -26.0930385590 74.4676589966
27.5806751251 -26.1010360718 74.2709655762
27.5833072662 -26.1069526672 74.0740356445
27.5834541321 -26.1102905273 73.8768081665
27.5819168091 -26.1118793488 73.6793746948
27.5797576904 -26.1128234863 73.4818496704
27.5778923035 -26.1140727997 73.2843475342
27.5773868561 -26.1167354584 73.0869979858
27.5797271729 -26.1223487854 72.8899841309
27.5864295959 -26.1324901581 72.6934890747
27.5980529785 -26.1477375031 72.4976119995
27.6137142181 -26.1671752930 72.3022384644
27.6320858002 -26.1894245148 72.1072235107
27.6529750824 -26.2142868042 71.9125518799
27.6773986816 -26.2428169250 71.7183532715
27.7056980133 -26.2753677368 71.5246887207
27.7356967926 -26.3096790314 71.3312759399
27.7625045776 -26.3406810760 71.1374969482
27.7794723511 -26.3614711761 70.9424667358
27.7797927856 -26.3649883270 70.7452774048
27.7596683502 -26.3472919464 70.5453643799
27.7220764160 -26.3114738464 70.3430786133
27.6770172119 -26.2679080963 70.1397171021
27.6362972260 -26.2288475037 69.9368438721
27.6072425842 -26.2018890381 69.7354736328
27.5910243988 -26.1882514954 69.5357971191
27.5857982635 -26.1860179901 69.3376007080
27.5903396606 -26.1939182281 69.1407318115
27.6049118042 -26.2122268677 68.9452590942
27.6292533875 -26.2406673431 68.7511825562
27.6601562500 -26.2759151459 68.5580596924
27.6915206909 -26.3116416931 68.3650512695
27.7173461914 -26.3416213989 68.1712951660
27.7347946167 -26.3629093170 67.9763641357
27.7445621490 -26.3762302399 67.7803421021
27.7489929199 -26.3840160370 67.5835494995
27.7502384186 -26.3884963989 67.3862915039
27.7496128082 -26.3910350800 67.1887435913
27.7477779388 -26.3923187256 66.9910049438
27.7450428009 -26.3926715851 66.7931213379
27.7415714264 -26.3922595978 66.5951080322
27.7374858856 -26.3912105560 66.3969802856
27.7329158783 -26.3896579742 66.1987686157
27.7280025482 -26.3877525330 66.0004806519
27.7228355408 -26.3855819702 65.8021392822
27.7172927856 -26.3830223083 65.6037139893
27.7108592987 -26.3795394897 65.4051284790
27.7027053833 -26.3742733002 65.2062530518
27.6924343109 -26.3668098450 65.0070190430
27.6812896729 -26.3584442139 64.8076171875
27.6723442078 -26.3523559570 64.6085357666
27.6685009003 -26.3515625000 64.4102478027
27.6699810028 -26.3562908173 64.2127990723
27.6742725372 -26.3639335632 64.0158004761
27.6786861420 -26.3717021942 63.8188133240
27.6824722290 -26.3788204193 63.6217231750
27.6866645813 -26.3863601685 63.4246978760
27.6925735474 -26.3956813812 63.2279510498
27.7005157471 -26.4071102142 63.0315437317
27.7093772888 -26.4194927216 62.8352966309
27.7173633575 -26.4309673309 62.6389045715
27.7235546112 -26.4405784607 62.4422111511
27.7285575867 -26.4489593506 62.2453193665
27.7333202362 -26.4570922852 62.0483818054
27.7379837036 -26.4651203156 61.8514289856
27.7428722382 -26.4733810425 61.6545104980
27.7501010895 -26.4840717316 61.4579963684
27.7627506256 -26.5003814697 61.2624320984
27.7822246552 -26.5237655640 61.0680809021
27.8072299957 -26.5528850555 60.8747329712
27.8350086212 -26.5848808289 60.6819076538
27.8624172211 -26.6164932251 60.4890594482
27.8859958649 -26.6441307068 60.2955589294
27.9024257660 -26.6643600464 60.1008071899
27.9097557068 -26.6751499176 59.9044227600
27.9078617096 -26.6763801575 59.7063636780
27.8976993561 -26.6690368652 59.5067749023
27.8805904388 -26.6544914246 59.3058815002
27.8588943481 -26.6351909637 59.1040992737
27.8371086121 -26.6158008575 58.9022521973
27.8209705353 -26.6022644043 58.7014083862
27.8139228821 -26.5981521606 58.5022277832
27.8143692017 -26.6018085480 58.3044357300
27.8171253204 -26.6078624725 58.1070671082
27.8176956177 -26.6116466522 57.9092826843
27.8149871826 -26.6120376587 57.7108612061
27.8106060028 -26.6106891632 57.5121002197
27.8063526154 -26.6094760895 57.3133468628
27.8025150299 -26.6086940765 57.1146545410
27.7979259491 -26.6071338654 56.9157981873
27.7913608551 -26.6035270691 56.7165374756
27.7831249237 -26.5981864929 56.5169258118
27.7754516602 -26.5934295654 56.3174018860
27.7713050842 -26.5923290253 56.1185493469
27.7731037140 -26.5973892212 55.9208641052
27.7827758789 -26.6106128693 55.7247467041
27.8021755219 -26.6339187622 55.5305938721
27.8320312500 -26.6680603027 55.3385772705
27.8701877594 -26.7108058929 55.1482849121
27.9112739563 -26.7565841675 54.9586486816
27.9486179352 -26.7984848022 54.7683143616
27.9772434235 -26.8313484192 54.5762405396
27.9956455231 -26.8536167145 54.3820991516
28.0052356720 -26.8667507172 54.1861495972
28.0085887909 -26.8734226227 53.9889106750
28.0083065033 -26.8763237000 53.7909049988
28.0068531036 -26.8780136108 53.5926437378
28.0066928864 -26.8810443878 53.3946418762
28.0101699829 -26.8878459930 53.1973991394
28.0187797546 -26.8999633789 53.0012435913
28.0319309235 -26.9167900085 52.8060646057
28.0464744568 -26.9350566864 52.6111946106
28.0582218170 -26.9504261017 52.4157409668
28.0643997192 -26.9600257874 52.2190933228
28.0647144318 -26.9635467529 52.0211677551
28.0602970123 -26.9621677399 51.8222045898
28.0521812439 -26.9569549561 51.6224060059
28.0407676697 -26.9483261108 51.4218597412
28.0261497498 -26.9363784790 51.2205734253
28.0083885193 -26.9211730957 51.0185546875
27.9877853394 -26.9030246735 50.8158569336
27.9657936096 -26.8834381104 50.6128005981
27.9458885193 -26.8660144806 50.4101638794
27.9329109192 -26.8557682037 50.2090415955
27.9312229156 -26.8572196960 50.0104408264
27.9430084229 -26.8726329803 49.8148880005
27.9670658112 -26.9007568359 49.6221504211
27.9985637665 -26.9365882874 49.4311485291
28.0311203003 -26.9735164642 49.2404403687
28.0604324341 -27.0070858002 49.0490264893
28.0861778259 -27.0369548798 48.8568305969
28.1105976105 -27.0654525757 48.6643600464
28.1356906891 -27.0946464539 48.4720840454
28.1615543365 -27.1246395111 48.2800216675
28.1867218018 -27.1539096832 48.0878295898
28.2091560364 -27.1803455353 47.8950309753
28.2264614105 -27.2014713287 47.7010421753
28.2359161377 -27.2144641876 47.5052032471
28.2358131409 -27.2175559998 47.3070869446
28.2273483276 -27.2119865417 47.1069488525
28.2144832611 -27.2018604279 46.9057273865
28.2015743256 -27.1916866302 46.7044601440
28.1913070679 -27.1842536926 46.5038032532
28.1844673157 -27.1803684235 46.3039474487
28.1807289124 -27.1796951294 46.1048316956
28.1793384552 -27.1814556122 45.9062728882
28.1794414520 -27.1847629547 45.7080688477
28.1803455353 -27.1888999939 45.5100517273
28.1817874908 -27.1935958862 45.3121566772
28.1841487885 -27.1992416382 45.1144866943
28.1884784698 -27.2069282532 44.9173011780
28.1963043213 -27.2182331085 44.7209892273
28.2089786530 -27.2345600128 44.5259017944
28.2266769409 -27.2560920715 44.3320999146
28.2479171753 -27.2812900543 44.1392135620
28.2705650330 -27.3079452515 43.9467163086
28.2938480377 -27.3352565765 43.7544136047
28.3195686340 -27.3650951385 43.5627632141
28.3511753082 -27.4010257721 43.3726654053
28.3907814026 -27.4452400208 43.1846809387
28.4359569550 -27.4952220917 42.9981994629
28.4794502258 -27.5434589386 42.8113517761
28.5130367279 -27.5814361572 42.6219863892
28.5321254730 -27.6044006348 42.4288787842
28.5365200043 -27.6121501923 42.2319297791
28.5275516510 -27.6060619354 42.0314559937
28.5061340332 -27.5870857239 41.8276634216
28.4743957520 -27.5574226379 41.6210784912
28.4378929138 -27.5228252411 41.4131546021
28.4038352966 -27.4907627106 41.2058105469
28.3761425018 -27.4652919769 41.0000991821
28.3534011841 -27.4449501038 40.7956619263
28.3325119019 -27.4265232086 40.5916671753
28.3133773804 -27.4099159241 40.3881034851
28.2994346619 -27.3986835480 40.1859054565
28.2943763733 -27.3966503143 39.9860954285
28.2989902496 -27.4046325684 39.7889099121
28.3106040955 -27.4198589325 39.5936431885
28.3249797821 -27.4379463196 39.3991508484
28.3388595581 -27.4555187225 39.2045364380
28.3512554169 -27.4715576172 39.0095252991
28.3631381989 -27.4870624542 38.8143844604
28.3764610291 -27.5040588379 38.6196556091
28.3931217194 -27.5245094299 38.4258728027
28.4139175415 -27.5492401123 38.2332725525
28.4379863739 -27.5773601532 38.0416221619
28.4633808136 -27.6068496704 37.8503799438
28.4882774353 -27.6358261108 37.6590309143
28.5118465424 -27.6634273529 37.4673423767
28.5344829559 -27.6900615692 37.2754173279
28.5576419830 -27.7172355652 37.0836715698
28.5835876465 -27.7472934723 36.8927574158
28.6151123047 -27.7831268311 36.7034873962
28.6543941498 -27.8269882202 36.5165100098
28.7003002167 -27.8777046204 36.3315162659
28.7466754913 -27.9289035797 36.1467285156
28.7850742340 -27.9718494415 35.9596862793
28.8101558685 -28.0010070801 35.7688064575
28.8218402863 -28.0163002014 35.5740242004
28.8223781586 -28.0200576782 35.3759689331
28.8124752045 -28.0130100250 35.1748199463
28.7908535004 -27.9938335419 34.9701652527
28.7572078705 -27.9622154236 34.7618865967
28.7149162292 -27.9216499329 34.5509567261
28.6703433990 -27.8787231445 34.3392562866
28.6298332214 -27.8400058746 34.1286811829
28.5976448059 -27.8099002838 33.9205284119
28.5756893158 -27.7903842926 33.7153968811
28.5637607574 -27.7812442780 33.5132484436
28.5598812103 -27.7804374695 33.3135147095
28.5611953735 -27.7850017548 33.1153450012
28.5651130676 -27.7922630310 32.9179611206
28.5700950623 -27.8006248474 32.7209014893
28.5758457184 -27.8097820282 32.5240783691
28.5829772949 -27.8203678131 32.3276786804
28.5923385620 -27.8332614899 32.1319694519
28.6044845581 -27.8490352631 31.9371299744
28.6199264526 -27.8682193756 31.7433280945
28.6396045685 -27.8917865753 31.5508651733
28.6641407013 -27.9203796387 31.3599472046
28.6920146942 -27.9524250031 31.1701107025
28.7193126678 -27.9838752747 30.9801330566
28.7425594330 -28.0111312866 30.7889137268
28.7620887756 -28.0345439911 30.5965518951
28.7822113037 -28.0585670471 30.4044036865
28.8074455261 -28.0878791809 30.2139072418
28.8381500244 -28.1228523254 30.0251941681
28.8696784973 -28.1586742401 29.8367881775
28.8955917358 -28.1886863708 29.6466274261
28.9113540649 -28.2081966400 29.4532337189
28.9154033661 -28.2155895233 29.2560768127
28.9086551666 -28.2118148804 29.0554199219
28.8946170807 -28.2004985809 28.8523712158
28.8797225952 -28.1882953644 28.6490097046
28.8714942932 -28.1829891205 28.4477844238
28.8744411469 -28.1892433167 28.2501945496
28.8871669769 -28.2056121826 28.0558109283
28.9038829803 -28.2261085510 27.8627529144
28.9192104340 -28.2451686859 27.6692562103
28.9316997528 -28.2612953186 27.4748382568
28.9429759979 -28.2761631012 27.2800273895
28.9544525146 -28.2912406921 27.0852947235
28.9660148621 -28.3064060211 26.8906002045
28.9775314331 -28.3215236664 26.6958999634
28.9902381897 -28.3378715515 26.5016117096
29.0059490204 -28.3573265076 26.3083457947
29.0252761841 -28.3805217743 26.1163177490
29.0469913483 -28.4061851501 25.9251232147
29.0691299438 -28.4322891235 25.7341003418
29.0903701782 -28.4574604034 25.5428028107
29.1100139618 -28.4809837341 25.3509883881
29.1270580292 -28.5018138885 25.1583080292
29.1401786804 -28.5185871124 24.9643039703
29.1488113403 -28.5307216644 24.7687702179
29.1534957886 -28.5387706757 24.5718784332
29.1548328400 -28.5433578491 24.3738288879
29.1527595520 -28.5444202423 24.1745872498
29.1474018097 -28.5420837402 23.9741897583
29.1404113770 -28.5380630493 23.7732048035
29.1349525452 -28.5356235504 23.5727291107
29.1342964172 -28.5381507874 23.3739166260
29.1404418945 -28.5477123260 23.1774787903
29.1534690857 -28.5643901825 22.9834671021
29.1718482971 -28.5866012573 22.7913570404
29.1938667297 -28.6125736237 22.6005573273
29.2191047668 -28.6418762207 22.4109306335
29.2480678558 -28.6750278473 22.2226638794
29.2801532745 -28.7114086151 22.0355529785
29.3122615814 -28.7478141785 21.8484992981
29.3395080566 -28.7791900635 21.6597499847
29.3573150635 -28.8008060455 21.4676456451
29.3635215759 -28.8104286194 21.2713832855
29.3594036102 -28.8093757629 21.0713920593
29.3490161896 -28.8018417358 20.8691120148
29.3371143341 -28.7927436829 20.6662521362
29.3270416260 -28.7855339050 20.4640254974
29.3199863434 -28.7814483643 20.2628707886
29.3157405853 -28.7802658081 20.0627212524
29.3138313293 -28.7814979553 19.8634071350
29.3142910004 -28.7851791382 19.6649513245
29.3180828094 -28.7923069000 19.4677143097
29.3272171021 -28.8049564362 19.2724475861
29.3440170288 -28.8255290985 19.0800266266
29.3692779541 -28.8548507690 18.8907661438
29.4005088806 -28.8903408051 18.7037658691
29.4322929382 -28.9264030457 18.5170173645
29.4590873718 -28.9573078156 18.3284492493
29.4781513214 -28.9802188873 18.1370201111
29.4902229309 -28.9959011078 17.9429855347
29.4980869293 -29.0072364807 17.7473793030
29.5048542023 -29.0174388885 17.5513610840
29.5131568909 -29.0292243958 17.3559246063
29.5250930786 -29.0447692871 17.1618747711
29.5421333313 -29.0655879974 16.9697761536
29.5646343231 -29.0920505524 16.7797813416
29.5915775299 -29.1231040955 16.5915145874
29.6211147308 -29.1568355560 16.4042816162
29.6513690948 -29.1913108826 16.2173671722
29.6807861328 -29.2249183655 16.0301742554
29.7083835602 -29.2566432953 15.8423223495
29.7342491150 -29.2865810394 15.6538410187
29.7593879700 -29.3157653809 15.4651136398
29.7843227386 -29.3447380066 15.2763414383
29.8079471588 -29.3723564148 15.0870952606
29.8283138275 -29.3966083527 14.8966083527
29.8446865082 -29.4167308807 14.7045841217
29.8585586548 -29.4342689514 14.5115985870
29.8725109100 -29.4518909454 14.3186588287
29.8881187439 -29.4712238312 14.1263866425
29.9048023224 -29.4916667938 13.9345579147
29.9205932617 -29.5111885071 13.7423944473
29.9340019226 -29.5282478333 13.5493040085
29.9453182220 -29.5431442261 13.3553943634
29.9564208984 -29.5578193665 13.1614103317
29.9693946838 -29.5744285583 12.9681835175
29.9849319458 -29.5936851501 12.7759962082
30.0016899109 -29.6142044067 12.5843172073
30.0173263550 -29.6335620880 12.3922071457
30.0303077698 -29.6501789093 12.1990432739
30.0407791138 -29.6642017365 12.0048780441
30.0499343872 -29.6768646240 11.8101882935
30.0589561462 -29.6893882751 11.6154489517
30.0685691833 -29.7025222778 11.4209575653
30.0793113708 -29.7168235779 11.2269325256
30.0919456482 -29.7330818176 11.0336904526
30.1074008942 -29.7522506714 10.8416175842
30.1261024475 -29.7747745514 10.6508951187
30.1474132538 -29.7999935150 10.4612703323
30.1698055267 -29.8263301849 10.2721204758
30.1913528442 -29.8517913818 10.0826501846
30.2099246979 -29.8741817474 9.8919773102
30.2234516144 -29.8913574219 9.6992321014
30.2305450439 -29.9018859863 9.5038223267
30.2309188843 -29.9054756165 9.3056116104
30.2253284454 -29.9029045105 9.1048984528
30.2155990601 -29.8960571289 8.9024286270
30.2046375275 -29.8879375458 8.6994132996
30.1956825256 -29.8818931580 8.4972114563
30.1910877228 -29.8803520203 8.2968215942
30.1919403076 -29.8844356537 8.0987148285
30.1987380981 -29.8946628571 7.9031167030
30.2118091583 -29.9113674164 7.7101836205
30.2307205200 -29.9341030121 7.5197482109
30.2537078857 -29.9610500336 7.3310751915
30.2783489227 -29.9897041321 7.1431393623
30.3028697968 -30.0182342529 6.9551868439
30.3265399933 -30.0458850861 6.7669034004
30.3491611481 -30.0724506378 6.5782017708
30.3710422516 -30.0982532501 6.3892121315
30.3933715820 -30.1245174408 6.2004451752
30.4175510406 -30.1526908875 6.0125093460
30.4438114166 -30.1830120087 5.8255095482
30.4709682465 -30.2142601013 5.6389365196
30.4974460602 -30.2448081970 5.4521079063
30.5217761993 -30.2731342316 5.2643785477
30.5422534943 -30.2974834442 5.0749988556
30.5573081970 -30.3162326813 4.8832693100
30.5667209625 -30.3291530609 4.6890783310
30.5721054077 -30.3379154205 4.4931211472
30.5761356354 -30.3452796936 4.2965650558
30.5816440582 -30.3541698456 4.1006603241
30.5914421082 -30.3674888611 3.9066536427
30.6083431244 -30.3881435394 3.7158071995
30.6345043182 -30.4183578491 3.5290980339
30.6698112488 -30.4580154419 3.3465030193
30.7105331421 -30.5032634735 3.1663794518
30.7500152588 -30.5472297668 2.9857656956
30.7816982269 -30.5831432343 2.8017168045
30.8021221161 -30.6074295044 2.6126561165
30.8115615845 -30.6203765869 2.4186770916
30.8126392365 -30.6246891022 2.2209315300
30.8090095520 -30.6241436005 2.0210497379
30.8049831390 -30.6231861115 1.8209698200
30.8048820496 -30.6262836456 1.6226545572
30.8116340637 -30.6364555359 1.4274449348
30.8261814117 -30.6546764374 1.2357897758
30.8486900330 -30.6811141968 1.0477858782
30.8797798157 -30.7164096832 0.8637395501
30.9199028015 -30.7610301971 0.6838817000
30.9675083160 -30.8133754730 0.5075247884
31.0181655884 -30.8688678741 0.3326490521
31.0664501190 -30.9219074249 0.1567608118
18.2769832611 -33.4150390625 80.5879211426
18.2680683136 -33.4017410278 80.3900375366
18.2553806305 -33.3806800842 80.1915969849
18.2423534393 -33.3589248657 79.9930648804
18.2313194275 -33.3412704468 79.7947769165
18.2236557007 -33.3305473328 79.5969238281
18.2202873230 -33.3286628723 79.3996734619
18.2213459015 -33.3358840942 79.2030563354
18.2259387970 -33.3503799438 79.0069580078
18.2329692841 -33.3698844910 78.8112335205
18.2419147491 -33.3933334351 78.6158142090
18.2524909973 -33.4201316833 78.4206542969
18.2641506195 -33.4491577148 78.2256851196
18.2765731812 -33.4797554016 78.0308609009
18.2898540497 -33.5121154785 77.8361968994
18.3033180237 -33.5448493958 77.6416015625
18.3149433136 -33.5738067627 77.4467315674
18.3228492737 -33.5951080322 77.2512893677
18.3268566132 -33.6083946228 77.0552291870
18.3282337189 -33.6162681580 76.8587417603
18.3283824921 -33.6216163635 76.6620483398
18.3280982971 -33.6260795593 76.4652709961
18.3276290894 -33.6301574707 76.2684631348
18.3269500732 -33.6338043213 76.0716018677
18.3258800507 -33.6366500854 75.8746643066
18.3240184784 -33.6378669739 75.6775817871
18.3206558228 -33.6359977722 75.4802246094
18.3150691986 -33.6295509338 75.2824554443
18.3071842194 -33.6183815002 75.0842590332
18.2980155945 -33.6045761108 74.8858032227
18.2892055511 -33.5915069580 74.6873779297
18.2820072174 -33.5817527771 74.4892120361
18.2767601013 -33.5760116577 74.2913742065
18.2732791901 -33.5739059448 74.0938339233
18.2715244293 -33.5753440857 73.8965988159
18.2718601227 -33.5810813904 73.6997451782
18.2746925354 -33.5919570923 73.5033569336
18.2797431946 -33.6073913574 73.3073883057
18.2856922150 -33.6246681213 73.1115951538
18.2907543182 -33.6401252747 72.9156417847
18.2937641144 -33.6513595581 72.7192993164
18.2946701050 -33.6582717896 72.5225448608
18.2941436768 -33.6622390747 72.3255004883
18.2929077148 -33.6647491455 72.1283035278
18.2914676666 -33.6668357849 71.9310607910
18.2901382446 -33.6691551208 71.7338256836
18.2891483307 -33.6721687317 71.5366516113
18.2886581421 -33.6762123108 71.3395614624
18.2888088226 -33.6815719604 71.1426010132
18.2898139954 -33.6886901855 70.9458007813
18.2920722961 -33.6983833313 70.7492675781
18.2961521149 -33.7118225098 70.5531082153
18.3025760651 -33.7300720215 70.3574523926
18.3113231659 -33.7531051636 70.1623001099
18.3212261200 -33.7785110474 69.9674148560
18.3297462463 -33.8010749817 69.7722473145
18.3337535858 -33.8143615723 69.5761184692
18.3311042786 -33.8139610291 69.3785400391
18.3220252991 -33.8003540039 69.1795272827
18.3093280792 -33.7793159485 68.9796905518
18.2972393036 -33.7595176697 68.7799377441
18.2896080017 -33.7488899231 68.5811386108
18.2886142731 -33.7519035339 68.3838119507
18.2943286896 -33.7686996460 68.1879959106
18.3048419952 -33.7953567505 67.9932937622
18.3168582916 -33.8250999451 67.7989501953
18.3269176483 -33.8508300781 67.6041793823
18.3327388763 -33.8678436279 67.4084472656
18.3336353302 -33.8747367859 67.2115707397
18.3299102783 -33.8721351624 67.0135955811
18.3223304749 -33.8616142273 66.8146972656
18.3124370575 -33.8463439941 66.6152114868
18.3028736115 -33.8317451477 66.4157638550
18.2964725494 -33.8236465454 66.2170486450
18.2943592072 -33.8243598938 66.0193557739
18.2948894501 -33.8305091858 65.8222885132
18.2946357727 -33.8350410461 65.6250152588
18.2905921936 -33.8317909241 65.4268035889
18.2818679810 -33.8189239502 65.2274093628
18.2698745728 -33.7993431091 65.0271682739
18.2571563721 -33.7782745361 64.8266983032
18.2459201813 -33.7602462769 64.6265640259
18.2373313904 -33.7476615906 64.4270553589
18.2318820953 -33.7415275574 64.2283248901
18.2300262451 -33.7427749634 64.0304870605
18.2322711945 -33.7524452209 63.8337020874
18.2385501862 -33.7704048157 63.6379623413
18.2476844788 -33.7942276001 63.4429779053
18.2577686310 -33.8200035095 63.2482643127
18.2673645020 -33.8447723389 63.0534400940
18.2763023376 -33.8681869507 62.8584632874
18.2854404449 -33.8920211792 62.6635551453
18.2957782745 -33.9183120728 62.4689903259
18.3079376221 -33.9483451843 62.2749366760
18.3224792480 -33.9832725525 62.0815582275
18.3399200439 -34.0241508484 61.8890037537
18.3593196869 -34.0690536499 61.6970291138
18.3766841888 -34.1097755432 61.5045433044
18.3858318329 -34.1336135864 61.3098182678
18.3821411133 -34.1310958862 61.1115379333
18.3663082123 -34.1036338806 60.9098358154
18.3447818756 -34.0644912720 60.7064781189
18.3262367249 -34.0314636230 60.5038986206
18.3167629242 -34.0170669556 60.3038330078
18.3178520203 -34.0243644714 60.1067504883
18.3279418945 -34.0501480103 59.9122505188
18.3444805145 -34.0891685486 59.7196350098
18.3643264771 -34.1349830627 59.5280151367
18.3837089539 -34.1798400879 59.3363113403
18.3993415833 -34.2169952393 59.1435546875
18.4098358154 -34.2436027527 58.9493255615
18.4157657623 -34.2608413696 58.7537651062
18.4184951782 -34.2714996338 58.5572624207
18.4191112518 -34.2778282166 58.3601303101
18.4181728363 -34.2809600830 58.1625251770
18.4158802032 -34.2813110352 57.9645042419
18.4121742249 -34.2787590027 57.7660369873
18.4067039490 -34.2725906372 57.5670127869
18.3990516663 -34.2619400024 57.3673019409
18.3892822266 -34.2469444275 57.1669082642
18.3782539368 -34.2293663025 56.9660911560
18.3669433594 -34.2112083435 56.7651481628
18.3553543091 -34.1924781799 56.5640754700
18.3424491882 -34.1710510254 56.3625488281
18.3276824951 -34.1458053589 56.1603965759
18.3126754761 -34.1200637817 55.9581146240
18.3008689880 -34.1008911133 55.7567977905
18.2950897217 -34.0940933228 55.5573616028
18.2954521179 -34.0999069214 55.3598670959
18.2998352051 -34.1139678955 55.1636581421
18.3059349060 -34.1315536499 54.9680099487
18.3123836517 -34.1498565674 54.7724838257
18.3183212280 -34.1671104431 54.5768013000
18.3231563568 -34.1821022034 54.3807678223
18.3273487091 -34.1957740784 54.1845283508
18.3325119019 -34.2114372253 53.9886131287
18.3396968842 -34.2312469482 53.7933769226
18.3477039337 -34.2527465820 53.5984268188
18.3538169861 -34.2703590393 53.4028587341
18.3561935425 -34.2803039551 53.2060432434
18.3552455902 -34.2834243774 53.0081062317
18.3530063629 -34.2838973999 52.8097229004
18.3516845703 -34.2862510681 52.6116371155
18.3525791168 -34.2931556702 52.4142951965
18.3556346893 -34.3044929504 52.2176895142
18.3597965240 -34.3180999756 52.0214653015
18.3641414642 -34.3320808411 51.8253097534
18.3687763214 -34.3466606140 51.6292610168
18.3744010925 -34.3632698059 51.4335594177
18.3811817169 -34.3822479248 51.2382736206
18.3884773254 -34.4022865295 51.0431823730
18.3955802917 -34.4219284058 50.8480339050
18.4023151398 -34.4408111572 50.6527671814
18.4088153839 -34.4592170715 50.4574279785
18.4147510529 -34.4764633179 50.2618980408
18.4188079834 -34.4898567200 50.0657043457
18.4190330505 -34.4953804016 49.8681335449
18.4138603210 -34.4898376465 49.6686019897
18.4031066895 -34.4728431702 49.4670181274
18.3883113861 -34.4475631714 49.2639236450
18.3723545074 -34.4198989868 49.0603561401
18.3584499359 -34.3964462280 48.8574867249
18.3489952087 -34.3821220398 48.6562118530
18.3450031281 -34.3790016174 48.4569244385
18.3463058472 -34.3867454529 48.2595901489
18.3519172668 -34.4033279419 48.0638580322
18.3600349426 -34.4250526428 47.8690719604
18.3681278229 -34.4467239380 47.6742935181
18.3737831116 -34.4633941650 47.4786071777
18.3759250641 -34.4728584290 47.2816009521
18.3753528595 -34.4767608643 47.0835571289
18.3743152618 -34.4797019958 46.8853302002
18.3758163452 -34.4878540039 46.6880607605
18.3827972412 -34.5072402954 46.4929008484
18.3967075348 -34.5408439636 46.3004264832
18.4161396027 -34.5857696533 46.1101264954
18.4372119904 -34.6340560913 45.9205131531
18.4559917450 -34.6776428223 45.7300567627
18.4708385468 -34.7131614685 45.5381011963
18.4827232361 -34.7426033020 45.3450202942
18.4936447144 -34.7700729370 45.1515808105
18.5047740936 -34.7979621887 44.9582519531
18.5158119202 -34.8256683350 44.7649078369
18.5258255005 -34.8512687683 44.5711784363
18.5342712402 -34.8736572266 44.3768424988
18.5410652161 -34.8926582336 44.1818618774
18.5461044312 -34.9080581665 43.9861831665
18.5492897034 -34.9196624756 43.7897605896
18.5508327484 -34.9278945923 43.5926704407
18.5509090424 -34.9331207275 43.3949775696
18.5488681793 -34.9340057373 43.1964149475
18.5430736542 -34.9271926880 42.9962959290
18.5318489075 -34.9092483521 42.7939109802
18.5147800446 -34.8793258667 42.5890731812
18.4931945801 -34.8401451111 42.3823051453
18.4695396423 -34.7967147827 42.1746025085
18.4462566376 -34.7540626526 41.9669799805
18.4252452850 -34.7160606384 41.7602348328
18.4085006714 -34.6868057251 41.5552177429
18.3994045258 -34.6732368469 41.3533744812
18.4027881622 -34.6852493286 41.1567802429
18.4223899841 -34.7305107117 40.9670829773
18.4570083618 -34.8065490723 40.7838363647
18.4990882874 -34.8978843689 40.6038780212
18.5383167267 -34.9833717346 40.4228057861
18.5675201416 -35.0483055115 40.2375183105
18.5854015350 -35.0900306702 40.0474166870
18.5946197510 -35.1139945984 39.8535995483
18.5985012054 -35.1270217896 39.6574821472
18.5994415283 -35.1340179443 39.4600791931
18.5989074707 -35.1379966736 39.2620315552
18.5978736877 -35.1409492493 39.0637512207
18.5970439911 -35.1443214417 38.8655509949
18.5969963074 -35.1492996216 38.6676864624
18.5983181000 -35.1570777893 38.4704208374
18.6016750336 -35.1690330505 38.2740554810
18.6075763702 -35.1861991882 38.0788307190
18.6157913208 -35.2081069946 37.8846511841
18.6250057220 -35.2320632935 37.6909370422
18.6333312988 -35.2541961670 37.4968414307
18.6393146515 -35.2715301514 37.3017005920
18.6424903870 -35.2831115723 37.1052970886
18.6430282593 -35.2892875671 36.9076919556
18.6411571503 -35.2905235291 36.7089805603
18.6370544434 -35.2871894836 36.5092353821
18.6312370300 -35.2803421021 36.3086814880
18.6247406006 -35.2721061707 36.1077880859
18.6185398102 -35.2644767761 35.9070091248
18.6126613617 -35.2575035095 35.7063522339
18.6060123444 -35.2489585876 35.5053100586
18.5973224640 -35.2362251282 35.3032875061
18.5864734650 -35.2190780640 35.1002235413
18.5751171112 -35.2008857727 34.8968811035
18.5658950806 -35.1870689392 34.6945037842
18.5609149933 -35.1819458008 34.4940986633
18.5608825684 -35.1869544983 34.2960128784
18.5656242371 -35.2017478943 34.1001930237
18.5752315521 -35.2265052795 33.9066963196
18.5904579163 -35.2627754211 33.7159042358
18.6123962402 -35.3127937317 33.5283699036
18.6421546936 -35.3788337708 33.3446578979
18.6800079346 -35.4614524841 33.1649246216
18.7234516144 -35.5555191040 32.9880027771
18.7663116455 -35.6483840942 32.8109092712
18.8014183044 -35.7253684998 32.6301612854
18.8248977661 -35.7785339355 32.4438285828
18.8376235962 -35.8096694946 32.2522850037
18.8429927826 -35.8257408142 32.0571594238
18.8441448212 -35.8331680298 31.8599605560
18.8429012299 -35.8356895447 31.6615753174
18.8401393890 -35.8351058960 31.4624271393
18.8364467621 -35.8326110840 31.2627983093
18.8325023651 -35.8296089172 31.0630264282
18.8293285370 -35.8281784058 30.8636207581
18.8283710480 -35.8312873840 30.6653099060
18.8313045502 -35.8423690796 30.4689426422
18.8393268585 -35.8638687134 30.2751445770
18.8522052765 -35.8953132629 30.0838146210
18.8678436279 -35.9324111938 29.8939151764
18.8830528259 -35.9686279297 29.7038345337
18.8950901031 -35.9983482361 29.5121726990
18.9028263092 -36.0192642212 29.3183364868
18.9068737030 -36.0326232910 29.1226234436
18.9090690613 -36.0421905518 28.9259624481
18.9120140076 -36.0532913208 28.7296867371
18.9186840057 -36.0720176697 28.5353374481
18.9313716888 -36.1030654907 28.3441200256
18.9498023987 -36.1458778381 28.1559181213
18.9700222015 -36.1923484802 27.9686965942
18.9859962463 -36.2301216125 27.7793025970
18.9932346344 -36.2500114441 27.5853672028
18.9913387299 -36.2511978149 27.3866405487
18.9835319519 -36.2402839661 27.1847858429
18.9741630554 -36.2261772156 26.9820728302
18.9663524628 -36.2152519226 26.7801513672
18.9611988068 -36.2097740173 26.5796127319
18.9584350586 -36.2091903687 26.3803253174
18.9573993683 -36.2121391296 26.1819458008
18.9575653076 -36.2175559998 25.9841995239
18.9585952759 -36.2247352600 25.7869091034
18.9602947235 -36.2332878113 25.5899753571
18.9628009796 -36.2434883118 25.3934745789
18.9669551849 -36.2570648193 25.1978645325
18.9744586945 -36.2774963379 25.0040798187
18.9871463776 -36.3085403442 24.8131313324
19.0054569244 -36.3510894775 24.6252803802
19.0274505615 -36.4011802673 24.4394931793
19.0499534607 -36.4523086548 24.2540397644
19.0709609985 -36.5003738403 24.0678215027
19.0908260345 -36.5461006165 23.8810253143
19.1110725403 -36.5926094055 23.6944885254
19.1321735382 -36.6408653259 23.5084781647
19.1521930695 -36.6869049072 23.3219184875
19.1673927307 -36.7230796814 23.1327190399
19.1745262146 -36.7427444458 22.9390506744
19.1732807159 -36.7452659607 22.7406959534
19.1669178009 -36.7373123169 22.5394535065
19.1606063843 -36.7294616699 22.3382167816
19.1586589813 -36.7305488586 22.1394157410
19.1624851227 -36.7434463501 21.9438724518
19.1704292297 -36.7647705078 21.7506694794
19.1793918610 -36.7881774902 21.5580615997
19.1868343353 -36.8084793091 21.3646049500
19.1917552948 -36.8236160278 21.1697177887
19.1946296692 -36.8345642090 20.9736652374
19.1972961426 -36.8450889587 20.7774925232
19.2025470734 -36.8609046936 20.5828094482
19.2125434875 -36.8864250183 20.3908748627
19.2268371582 -36.9207344055 20.2014503479
19.2423076630 -36.9574546814 20.0127429962
19.2555103302 -36.9895362854 19.8227539063
19.2650279999 -37.0140800476 19.6306438446
19.2717876434 -37.0329704285 19.4369373322
19.2778377533 -37.0504188538 19.2428302765
19.2853031158 -37.0707588196 19.0495624542
19.2960128784 -37.0977363586 18.8582210541
19.3112201691 -37.1339111328 18.6695594788
19.3308086395 -37.1790466309 18.4835300446
19.3525695801 -37.2286338806 18.2988376617
19.3728408813 -37.2751655579 18.1133155823
19.3887596130 -37.3127899170 17.9252452850
19.4004745483 -37.3418197632 17.7346992493
19.4111709595 -37.3687629700 17.5435695648
19.4246978760 -37.4014930725 17.3541641235
19.4427165985 -37.4434127808 17.1674957275
19.4634971619 -37.4909820557 16.9825401306
19.4830665588 -37.5360717773 16.7969017029
19.4977092743 -37.5710830688 16.6083240509
19.5058536530 -37.5928001404 16.4158287048
19.5080871582 -37.6024322510 16.2197456360
19.5061168671 -37.6034622192 16.0210914612
19.5022525787 -37.6006240845 15.8212652206
19.4995517731 -37.6001625061 15.6221332550
19.5013160706 -37.6088333130 15.4257335663
19.5096454620 -37.6309318542 15.2333803177
19.5243129730 -37.6659889221 15.0449628830
19.5430297852 -37.7093276978 14.8590888977
19.5626430511 -37.7544975281 14.6738185883
19.5803775787 -37.7958259583 14.4874277115
19.5945987701 -37.8299674988 14.2988862991
19.6048831940 -37.8560562134 14.1079168320
19.6115360260 -37.8747215271 13.9146909714
19.6150684357 -37.8870048523 13.7195177078
19.6161003113 -37.8941726685 13.5227699280
