-41.6623077393 6.3730397224 8.0004844666
-41.6907196045 6.3802771568 7.8097276688
-41.7242546082 6.3884115219 7.6205315590
-41.7676200867 6.3982648849 7.4343175888
-41.8242645264 6.4104418755 7.2521457672
-41.8908424377 6.4243564606 7.0730314255
-41.9570884705 6.4382114410 6.8938894272
-42.0125770569 6.4501838684 6.7115612030
-42.0533943176 6.4595890045 6.5248365402
-42.0829505920 6.4670233727 6.3347244263
-42.1083564758 6.4737315178 6.1433720589
-42.1363067627 6.4808840752 5.9528160095
-42.1701889038 6.4890751839 5.7641015053
-42.2093124390 6.4981813431 5.5770254135
-42.2506942749 6.5076832771 5.3906826973
-42.2920341492 6.5171766281 5.2043662071
-42.3328514099 6.5265784264 5.0179295540
-42.3731765747 6.5358934402 4.8313803673
-42.4121246338 6.5449676514 4.6444439888
-42.4487495422 6.5536341667 4.4568214417
-42.4841651917 6.5620899200 4.2688574791
-42.5221443176 6.5709929466 4.0817265511
-42.5671691895 6.5811276436 3.8968348503
-42.6218185425 6.5929446220 3.7150058746
-42.6852912903 6.6063041687 3.5360066891
-42.7532386780 6.6204447746 3.3584840298
-42.8188896179 6.6341829300 3.1803126335
-42.8756256104 6.6463613510 2.9993960857
-42.9197807312 6.6563405991 2.8145563602
-42.9525260925 6.6643252373 2.6261403561
-42.9804840088 6.6714720726 2.4362301826
-43.0128173828 6.6793832779 2.2477378845
-43.0532531738 6.6887102127 2.0618615150
-43.0939865112 6.6980891228 1.8761199713
-43.1212730408 6.7051177025 1.6861070395
-43.1282691956 6.7086005211 1.4895993471
-43.1201057434 6.7094335556 1.2882065773
-43.1072883606 6.7094540596 1.0852884054
-43.0977859497 6.7100534439 0.8834117651
-43.0952033997 6.7118630409 0.6837512255
-43.1009597778 6.7151293755 0.4867791235
-43.1161460876 6.7200436592 0.2928688824
-43.1417388916 6.7267751694 0.1023538858
-33.6545219421 15.8781900406 80.5354461670
-33.6449928284 15.8756113052 80.3373947144
-33.6322250366 15.8713073730 80.1390914917
-33.6220207214 15.8683681488 79.9409408569
-33.6188583374 15.8691883087 79.7432632446
-33.6254463196 15.8752069473 79.5462646484
-33.6421051025 15.8865976334 79.3499908447
-33.6658668518 15.9017782211 79.1542510986
-33.6908416748 15.9176054001 78.9586105347
-33.7102661133 15.9304704666 78.7625885010
-33.7194137573 15.9378566742 78.5658111572
-33.7178001404 15.9395008087 78.3682174683
-33.7092056274 15.9374227524 78.1700820923
-33.6997108459 15.9348669052 77.9718475342
-33.6951217651 15.9349250793 77.7739715576
-33.6990623474 15.9395341873 77.5767440796
-33.7120857239 15.9489860535 77.3802337646
-33.7314605713 15.9618253708 77.1842346191
-33.7520294189 15.9753007889 76.9883499146
-33.7684974670 15.9865884781 76.7921447754
-33.7779006958 15.9941101074 76.5953750610
-33.7801170349 15.9977998734 76.3980102539
-33.7761650085 15.9981994629 76.2001190186
-33.7664489746 15.9955244064 76.0017318726
-33.7507286072 15.9896507263 75.8028030396
-33.7294807434 15.9808273315 75.6033630371
-33.7047691345 15.9701595306 75.4035873413
-33.6795692444 15.9592323303 75.2037200928
-33.6565666199 15.9494752884 75.0040054321
-33.6381111145 15.9421453476 74.8046417236
-33.6267242432 15.9385833740 74.6058654785
-33.6240196228 15.9396524429 74.4078521729
-33.6288871765 15.9447574615 74.2105026245
-33.6376838684 15.9519557953 74.0135040283
-33.6467704773 15.9593124390 73.8165359497
-33.6544990540 15.9659423828 73.6194458008
-33.6609077454 15.9718675613 73.4222259521
-33.6664123535 15.9773130417 73.2249145508
-33.6711692810 15.9823598862 73.0275344849
-33.6753349304 15.9870901108 72.8300933838
-33.6796684265 15.9919118881 72.6326599121
-33.6857872009 15.9976854324 72.4353942871
-33.6954765320 16.0053615570 72.2384719849
-33.7091331482 16.0151500702 72.0419464111
-33.7247047424 16.0259628296 71.8456115723
-33.7386665344 16.0359153748 71.6491317749
-33.7483520508 16.0435886383 71.4522323608
-33.7533416748 16.0487613678 71.2548522949
-33.7549667358 16.0521373749 71.0571289063
-33.7550621033 16.0546989441 70.8592300415
-33.7552261353 16.0572986603 70.6613388062
-33.7565116882 16.0604953766 70.4635467529
-33.7593498230 16.0645179749 70.2659072876
-33.7636833191 16.0693397522 70.0684127808
-33.7692680359 16.0748310089 69.8710479736
-33.7758331299 16.0808410645 69.6737899780
-33.7830162048 16.0871810913 69.4765930176
-33.7902793884 16.0935649872 69.2793960571
-33.7969169617 16.0996150970 69.0821380615
-33.8021888733 16.1049365997 68.8847198486
-33.8055419922 16.1092357635 68.6870880127
-33.8068542480 16.1124458313 68.4892272949
-33.8065147400 16.1147785187 68.2911682129
-33.8051643372 16.1165733337 68.0929794312
-33.8031578064 16.1180152893 67.8947067261
-33.8000869751 16.1188945770 67.6962966919
-33.7945899963 16.1184787750 67.4975891113
-33.7845764160 16.1156558990 67.2983398438
-33.7683982849 16.1095523834 67.0983505249
-33.7469215393 16.1006202698 66.8977050781
-33.7248001099 16.0913505554 66.6969451904
-33.7091064453 16.0855026245 66.4969024658
-33.7057189941 16.0862140656 66.2982864380
-33.7164154053 16.0944271088 66.1013412476
-33.7384147644 16.1086654663 65.9057540894
-33.7659797668 16.1258659363 65.7108688354
-33.7926788330 16.1426048279 65.5158996582
-33.8135070801 16.1562156677 65.3202362061
-33.8261566162 16.1654701233 65.1235885620
-33.8310127258 16.1705722809 64.9259719849
-33.8301086426 16.1726074219 64.7276382446
-33.8260040283 16.1729354858 64.5288848877
-33.8210296631 16.1728019714 64.3300094604
-33.8168258667 16.1730785370 64.1312103271
-33.8140945435 16.1741390228 63.9325828552
-33.8127784729 16.1759548187 63.7341194153
-33.8126106262 16.1783828735 63.5357894897
-33.8135566711 16.1814022064 63.3375930786
-33.8159179688 16.1851768494 63.1395683289
-33.8200607300 16.1899013519 62.9417686462
-33.8259239197 16.1955413818 62.7441902161
-33.8326797485 16.2016563416 62.5467262268
-33.8387756348 16.2074203491 62.3491706848
-33.8425331116 16.2119388580 62.1513023376
-33.8430137634 16.2147121429 61.9529800415
-33.8406753540 16.2159843445 61.7542686462
-33.8373146057 16.2167129517 61.5554046631
-33.8352241516 16.2181167603 61.3566932678
-33.8360862732 16.2210941315 61.1583747864
-33.8402328491 16.2258224487 60.9604988098
-33.8465805054 16.2317199707 60.7629241943
-33.8532676697 16.2378005981 60.5653915405
-33.8586997986 16.2432117462 60.3676795959
-33.8623733521 16.2476863861 60.1697158813
-33.8649444580 16.2515735626 59.9715919495
-33.8672981262 16.2553462982 59.7734260559
-33.8694572449 16.2590160370 59.5752220154
-33.8709869385 16.2623481750 59.3769226074
-33.8726158142 16.2657356262 59.1786231995
-33.8765449524 16.2703475952 58.9806518555
-33.8838233948 16.2767410278 58.7831611633
-33.8917465210 16.2834796906 58.5857620239
-33.8949851990 16.2877235413 58.3876724243
-33.8897209167 16.2874412537 58.1883163452
-33.8766250610 16.2829895020 57.9877738953
-33.8603706360 16.2768554688 57.7867279053
-33.8472442627 16.2723884583 57.5861206055
-33.8428993225 16.2725963593 57.3868026733
-33.8508949280 16.2793731689 57.1893424988
-33.8724441528 16.2933673859 56.9939460754
-33.9068908691 16.3142261505 56.8005447388
-33.9515495300 16.3405227661 56.6087532043
-34.0006637573 16.3691883087 56.4176979065
-34.0452651978 16.3954505920 56.2260017395
-34.0754089355 16.4140167236 56.0321006775
-34.0849113464 16.4215946198 55.8349952698
-34.0761795044 16.4194679260 55.6350250244
-34.0600051880 16.4133796692 55.4338493347
-34.0485534668 16.4098052979 55.2333869934
-34.0477218628 16.4118804932 55.0345954895
-34.0557403564 16.4186706543 54.8372039795
-34.0674133301 16.4274063110 54.6404037476
-34.0786247253 16.4358940125 54.4435348511
-34.0879058838 16.4433555603 54.2463531494
-34.0957603455 16.4500560760 54.0489387512
-34.1037979126 16.4568557739 53.8515586853
-34.1142501831 16.4649391174 53.6545715332
-34.1291809082 16.4754085541 53.4583282471
-34.1488876343 16.4884166718 53.2628860474
-34.1704711914 16.5024261475 53.0677719116
-34.1883049011 16.5144367218 52.8720512390
-34.1972503662 16.5217189789 52.6748466492
-34.1967658997 16.5239849091 52.4760513306
-34.1915206909 16.5237140656 52.2764358521
-34.1872673035 16.5239734650 52.0769729614
-34.1870346069 16.5263710022 51.8781776428
-34.1917915344 16.5314235687 51.6802253723
-34.2023239136 16.5395507813 51.4832611084
-34.2178306580 16.5503273010 51.2871665955
-34.2338752747 16.5613861084 51.0911712646
-34.2445678711 16.5695972443 50.8942527771
-34.2471237183 16.5734786987 50.6959114075
-34.2432823181 16.5739593506 50.4964370728
-34.2373390198 16.5733184814 50.2965736389
-34.2338256836 16.5739746094 50.0971221924
-34.2363471985 16.5778369904 49.8987236023
-34.2469749451 16.5860157013 49.7017707825
-34.2659568787 16.5986385345 49.5063209534
-34.2913169861 16.6146545410 49.3120346069
-34.3189315796 16.6318664551 49.1181793213
-34.3438377380 16.6476421356 48.9238586426
-34.3623771667 16.6600284576 48.7284011841
-34.3732414246 16.6683292389 48.5315551758
-34.3770179749 16.6728630066 48.3334045410
-34.3752632141 16.6744537354 48.1342315674
-34.3698387146 16.6740894318 47.9343605042
-34.3625488281 16.6727352142 47.7341232300
-34.3548851013 16.6711845398 47.5337944031
-34.3478240967 16.6699523926 47.3335533142
-34.3416938782 16.6692161560 47.1334648132
-34.3361930847 16.6688156128 46.9334793091
-34.3305473328 16.6683368683 46.7334403992
-34.3236007690 16.6671657562 46.5331382751
-34.3135986328 16.6643733978 46.3322257996
-34.2976341248 16.6584072113 46.1301498413
-34.2715530396 16.6470623016 45.9260864258
-34.2321815491 16.6286487579 45.7194099426
-34.1819381714 16.6044540405 45.5105552673
-34.1316795349 16.5802536011 45.3016166687
-34.0970993042 16.5643901825 45.0956535339
-34.0902557373 16.5632781982 44.8950653076
-34.1136512756 16.5782489777 44.7004013062
-34.1612091064 16.6060695648 44.5105323792
-34.2233734131 16.6416549683 44.3236122131
-34.2908706665 16.6800765991 44.1378288269
-34.3554954529 16.7169685364 43.9515571594
-34.4106826782 16.7488422394 43.7634773254
-34.4533309937 16.7740478516 43.5729446411
-34.4842109680 16.7929935455 43.3800811768
-34.5056037903 16.8068943024 43.1853332520
-34.5190696716 16.8165817261 42.9889945984
-34.5258674622 16.8227233887 42.7913017273
-34.5281944275 16.8264865875 42.5926895142
-34.5288696289 16.8293704987 42.3937339783
-34.5301361084 16.8325729370 42.1948852539
-34.5335044861 16.8368873596 41.9964599609
-34.5403976440 16.8430805206 41.7987632751
-34.5521888733 16.8518772125 41.6020812988
-34.5690422058 16.8633632660 41.4064598083
-34.5890579224 16.8765316010 41.2115135193
-34.6091575623 16.8897438049 41.0166015625
-34.6270484924 16.9017829895 40.8212432861
-34.6423339844 16.9124355316 40.6253433228
-34.6560974121 16.9222793579 40.4291305542
-34.6701622009 16.9322834015 40.2329902649
-34.6866722107 16.9435863495 40.0373802185
-34.7070236206 16.9569320679 39.8426055908
-34.7291145325 16.9712028503 39.6482238770
-34.7451858521 16.9822711945 39.4525604248
-34.7450370789 16.9847202301 39.2533912659
-34.7247200012 16.9764480591 39.0498237610
-34.6917572021 16.9614543915 38.8434562683
-34.6600837708 16.9471473694 38.6373138428
-34.6404762268 16.9392528534 38.4337577820
-34.6362609863 16.9395427704 38.2335586548
-34.6455535889 16.9470119476 38.0363235474
-34.6650733948 16.9599132538 37.8413619995
-34.6926689148 16.9771099091 37.6482086182
-34.7276115417 16.9982109070 37.4567260742
-34.7682914734 17.0223560333 37.2665634155
-34.8097381592 17.0469131470 37.0766220093
-34.8449249268 17.0681400299 36.8853149414
-34.8689804077 17.0834541321 36.6915321350
-34.8816642761 17.0927219391 36.4951896667
-34.8859672546 17.0975360870 36.2969474792
-34.8854217529 17.0997753143 36.0975914001
-34.8826980591 17.1008548737 35.8977241516
-34.8795661926 17.1017189026 35.6977462769
-34.8772201538 17.1030025482 35.4979362488
-34.8765296936 17.1051635742 35.2984924316
-34.8781890869 17.1085739136 35.0995788574
-34.8828392029 17.1135749817 34.9013481140
-34.8911209106 17.1205043793 34.7039642334
-34.9036598206 17.1296977997 34.5075721741
-34.9211654663 17.1415271759 34.3123550415
-34.9446411133 17.1565284729 34.1185531616
-34.9752616882 17.1753273010 33.9264602661
-35.0134506226 17.1981449127 33.7361907959
-35.0576553345 17.2241611481 33.5473976135
-35.1042060852 17.2514209747 33.3592109680
-35.1486473083 17.2775592804 33.1705741882
-35.1875915527 17.3007755280 32.9806747437
-35.2196006775 17.3203105927 32.7891502380
-35.2446441650 17.3361415863 32.5959777832
-35.2629966736 17.3484191895 32.4012107849
-35.2748947144 17.3572673798 32.2048950195
-35.2812500000 17.3631725311 32.0072326660
-35.2846031189 17.3674793243 31.8088359833
-35.2893447876 17.3725261688 31.6107711792
-35.3007316589 17.3811054230 31.4143333435
-35.3225746155 17.3952350616 31.2204723358
-35.3545265198 17.4147338867 31.0291271210
-35.3912734985 17.4367809296 30.8390026093
-35.4255065918 17.4574928284 30.6482963562
-35.4528198242 17.4745254517 30.4559001923
-35.4739189148 17.4882602692 30.2619819641
-35.4923973083 17.5006027222 30.0674228668
-35.5107574463 17.5128822327 29.8728504181
-35.5284690857 17.5248146057 29.6781272888
-35.5432052612 17.5351696014 29.4826660156
-35.5533447266 17.5430831909 29.2860488892
-35.5589561462 17.5485897064 29.0882854462
-35.5607566833 17.5520744324 28.8895435333
-35.5587425232 17.5535335541 28.6898193359
-35.5523147583 17.5526466370 28.4889488220
-35.5417976379 17.5495910645 28.2870044708
-35.5295562744 17.5456180573 28.0845909119
-35.5189895630 17.5425376892 27.8825778961
-35.5122108459 17.5414657593 27.6815204620
-35.5089073181 17.5422401428 27.4813442230
-35.5072898865 17.5439128876 27.2815895081
-35.5056648254 17.5455780029 27.0818176270
-35.5032119751 17.5468063354 26.8818168640
-35.5000991821 17.5476837158 26.6816253662
-35.4972267151 17.5486888885 26.4814796448
-35.4957084656 17.5504131317 26.2816772461
-35.4963340759 17.5532760620 26.0824260712
-35.4994468689 17.5574588776 25.8838253021
-35.5053367615 17.5631179810 25.6859569550
-35.5148086548 17.5706768036 25.4890403748
-35.5294036865 17.5809574127 25.2934970856
-35.5508956909 17.5948963165 25.0998153687
-35.5802307129 17.6130008698 24.9082622528
-35.6171913147 17.6351547241 24.7187995911
-35.6613883972 17.6611480713 24.5313358307
-35.7128105164 17.6909751892 24.3458824158
-35.7700080872 17.7238693237 24.1620655060
-35.8279380798 17.7571506500 23.9785156250
-35.8792915344 17.7869396210 23.7932395935
-35.9189186096 17.8105030060 23.6048088074
-35.9469261169 17.8278980255 23.4132270813
-35.9680175781 17.8416233063 23.2197685242
-35.9884033203 17.8549728394 23.0261325836
-36.0121955872 17.8701286316 22.8334560394
-36.0391998291 17.8869895935 22.6416950226
-36.0652809143 17.9033622742 22.4497051239
-36.0847625732 17.9162311554 22.2558956146
-36.0928459167 17.9230499268 22.0589103699
-36.0874786377 17.9227294922 21.8581485748
-36.0711441040 17.9165878296 21.6542797089
-36.0517387390 17.9088191986 21.4495086670
-36.0407409668 17.9055118561 21.2470760345
-36.0487403870 17.9122867584 21.0500030518
-36.0808486938 17.9318561554 20.8597850800
-36.1344337463 17.9628219604 20.6757240295
-36.2004890442 18.0004043579 20.4952907562
-36.2683677673 18.0389556885 20.3154640198
-36.3311576843 18.0748023987 20.1342601776
-36.3875160217 18.1072368622 19.9512825012
-36.4387130737 18.1369304657 19.7668838501
-36.4845352173 18.1637725830 19.5809917450
-36.5224304199 18.1864070892 19.3928546906
-36.5494041443 18.2032470703 19.2015838623
-36.5634841919 18.2132453918 19.0065803528
-36.5641860962 18.2161426544 18.8076725006
-36.5533981323 18.2129459381 18.6053886414
-36.5360755920 18.2062835693 18.4011573792
-36.5188941956 18.1996936798 18.1969318390
-36.5080528259 18.1964702606 17.9945392609
-36.5085105896 18.1992416382 17.7954616547
-36.5236968994 18.2098255157 17.6007423401
-36.5535049438 18.2281665802 17.4103775024
-36.5925598145 18.2514152527 17.2228031158
-36.6323966980 18.2750759125 17.0355033875
-36.6663284302 18.2956066132 16.8464832306
-36.6920623779 18.3117847443 16.6550369263
-36.7104492188 18.3240661621 16.4614048004
-36.7234153748 18.3334712982 16.2661514282
-36.7333755493 18.3412818909 16.0699958801
-36.7435188293 18.3491897583 15.8738975525
-36.7575569153 18.3591632843 15.6789855957
-36.7787094116 18.3729114532 15.4862480164
-36.8090553284 18.3915348053 15.2963361740
-36.8500595093 18.4158115387 15.1097164154
-36.9032135010 18.4465332031 14.9268703461
-36.9689407349 18.4839210510 14.7479543686
-37.0440711975 18.5262966156 14.5720186234
-37.1210556030 18.5696506500 14.3967514038
-37.1911621094 18.6093597412 14.2194557190
-37.2497558594 18.6429615021 14.0386753082
-37.2988510132 18.6715221405 13.8550109863
-37.3445816040 18.6982994080 13.6703586578
-37.3919868469 18.7259635925 13.4862823486
-37.4413642883 18.7546749115 13.3028812408
-37.4883422852 18.7821102142 13.1187849045
-37.5267562866 18.8050041199 12.9320497513
-37.5526504517 18.8212585449 12.7414093018
-37.5675811768 18.8316993713 12.5473279953
-37.5787734985 18.8401565552 12.3520717621
-37.5949058533 18.8512344360 12.1583890915
-37.6204986572 18.8673286438 11.9677276611
-37.6536636353 18.8874359131 11.7795066833
-37.6885643005 18.9084644318 11.5918769836
-37.7197456360 18.9275207520 11.4030933380
-37.7449913025 18.9434280396 11.2124357224
-37.7656707764 18.9569149017 11.0203332901
-37.7852554321 18.9698219299 10.8278951645
-37.8070259094 18.9838848114 10.6361789703
-37.8320388794 18.9996700287 10.4455337524
-37.8586006165 19.0162754059 10.2554159164
-37.8839569092 19.0322399139 10.0649309158
-37.9068489075 19.0468978882 9.8736667633
-37.9281539917 19.0607128143 9.6819047928
-37.9488182068 19.0741920471 9.4899520874
-37.9677963257 19.0867748260 9.2974624634
-37.9829025269 19.0973052979 9.1037139893
-37.9938468933 19.1056270599 8.9086008072
-38.0034370422 19.1132335663 8.7130460739
-38.0150947571 19.1219348907 8.5181770325
-38.0294837952 19.1320838928 8.3242187500
-38.0444412231 19.1425342560 8.1304588318
-38.0580596924 19.1522750854 7.9362616539
-38.0713157654 19.1618232727 7.7419519424
-38.0881500244 19.1732673645 7.5488452911
-38.1134567261 19.1892051697 7.3585972786
-38.1502685547 19.2112388611 7.1722421646
-38.1974983215 19.2387924194 6.9894399643
-38.2502517700 19.2692737579 6.8085598946
-38.3026313782 19.2995548248 6.6276168823
-38.3502311707 19.3273048401 6.4451174736
-38.3905715942 19.3512039185 6.2602047920
-38.4227066040 19.3707561493 6.0725450516
-38.4473800659 19.3863506317 5.8823695183
-38.4667320251 19.3991279602 5.6903977394
-38.4831581116 19.4103527069 5.4974389076
-38.4982261658 19.4208583832 5.3040242195
-38.5125846863 19.4309883118 5.1103758812
-38.5265731812 19.4409198761 4.9166078568
-38.5408821106 19.4510231018 4.7229585648
-38.5570564270 19.4621143341 4.5299639702
-38.5773963928 19.4754104614 4.3384265900
-38.6038513184 19.4919490814 4.1490349770
-38.6364517212 19.5117435455 3.9618124962
-38.6727752686 19.5335102081 3.7759256363
-38.7092208862 19.5553417206 3.5901226997
-38.7432975769 19.5759162903 3.4035277367
-38.7752342224 19.5953559875 3.2162184715
-38.8076171875 19.6150321960 3.0291001797
-38.8430900574 19.6363468170 2.8431084156
-38.8823852539 19.6596851349 2.6585075855
-38.9245910645 19.6845645905 2.4749827385
-38.9687881470 19.7104988098 2.2922148705
-39.0144996643 19.7372322083 2.1100370884
-39.0604515076 19.7640953064 1.9279992580
-39.1036834717 19.7895145416 1.7450442314
-39.1404724121 19.8115234375 1.5598330498
-39.1685409546 19.8289089203 1.3715325594
-39.1887245178 19.8421173096 1.1804260015
-39.2048606873 19.8531818390 0.9878780246
-39.2222442627 19.8649082184 0.7957924604
-39.2460670471 19.8800449371 0.6060484648
-39.2801895142 19.9006366730 0.4200604558
-39.3258209229 19.9273242950 0.2382899374
-39.3806800842 19.9588985443 0.0599306226
-27.1842689514 25.5876235962 80.5426559448
-27.1808948517 25.5873050690 80.3451156616
-27.1769981384 25.5864448547 80.1474990845
-27.1747016907 25.5872440338 79.9500198364
-27.1764411926 25.5922374725 79.7528839111
-27.1825313568 25.6017456055 79.5561294556
-27.1902351379 25.6129302979 79.3595275879
-27.1958198547 25.6219139099 79.1627349854
-27.1979198456 25.6272792816 78.9656143188
-27.1989669800 25.6315536499 78.7683944702
-27.2030544281 25.6389827728 78.5714492798
-27.2123241425 25.6517925262 78.3749923706
-27.2256202698 25.6687812805 78.1789474487
-27.2400608063 25.6869602203 77.9830169678
-27.2527046204 25.7032718658 77.7869262695
-27.2607078552 25.7147655487 77.5903854370
-27.2613353729 25.7186050415 77.3931045532
-27.2531070709 25.7132492065 77.1949157715
-27.2369499207 25.6996631622 76.9958877563
-27.2159557343 25.6810588837 76.7963180542
-27.1941967010 25.6616592407 76.5966262817
-27.1755294800 25.6454696655 76.3972015381
-27.1627445221 25.6353874207 76.1983566284
-27.1572895050 25.6329154968 76.0002670288
-27.1595726013 25.6384735107 75.8029937744
-27.1690521240 25.6515026093 75.6064987183
-27.1836795807 25.6698741913 75.4105682373
-27.1997299194 25.6897220612 75.2148208618
-27.2133560181 25.7070541382 75.0188140869
-27.2228698730 25.7201175690 74.8223571777
-27.2291107178 25.7297840118 74.6255416870
-27.2333316803 25.7373542786 74.4284896851
-27.2352581024 25.7425422668 74.2311782837
-27.2335815430 25.7439918518 74.0334320068
-27.2279911041 25.7413806915 73.8352203369
-27.2202434540 25.7365303040 73.6367340088
-27.2130680084 25.7322731018 73.4382858276
-27.2080345154 25.7302398682 73.2400741577
-27.2047824860 25.7300567627 73.0420608521
-27.2024440765 25.7308216095 72.8441390991
-27.2012557983 25.7327785492 72.6463394165
-27.2023868561 25.7371444702 72.4488220215
-27.2066154480 25.7447242737 72.2516708374
-27.2137069702 25.7552757263 72.0548782349
-27.2228336334 25.7679386139 71.8583450317
-27.2328910828 25.7815647125 71.6619338989
-27.2423725128 25.7945957184 71.4654617310
-27.2496566772 25.8053474426 71.2687072754
-27.2537326813 25.8127670288 71.0715484619
-27.2545280457 25.8167858124 70.8739471436
-27.2526607513 25.8180389404 70.6759948730
-27.2490329742 25.8174667358 70.4777908325
-27.2445011139 25.8159580231 70.2794494629
-27.2395076752 25.8139705658 70.0810317993
-27.2339820862 25.8114318848 69.8825149536
-27.2279376984 25.8083534241 69.6839141846
-27.2222290039 25.8056240082 69.4853286743
-27.2183570862 25.8048000336 69.2869873047
-27.2170963287 25.8066864014 69.0889816284
-27.2175445557 25.8103466034 68.8912048340
-27.2176837921 25.8136844635 68.6933746338
-27.2156066895 25.8147258759 68.4952163696
-27.2103214264 25.8124370575 68.2965927124
-27.2021961212 25.8072032928 68.0975418091
-27.1930503845 25.8009109497 67.8983154297
-27.1853408813 25.7961082458 67.6992721558
-27.1808414459 25.7946376801 67.5006713867
-27.1802234650 25.7971935272 67.3026275635
-27.1837615967 25.8040599823 67.1051788330
-27.1917171478 25.8155078888 66.9083862305
-27.2035560608 25.8309860229 66.7121734619
-27.2171249390 25.8482570648 66.5162353516
-27.2292690277 25.8640499115 66.3200912476
-27.2375049591 25.8757896423 66.1233673096
-27.2409000397 25.8825073242 65.9259033203
-27.2394790649 25.8842296600 65.7276992798
-27.2332420349 25.8809585571 65.5287322998
-27.2219657898 25.8724594116 65.3289566040
-27.2060565948 25.8591556549 65.1284255981
-27.1878452301 25.8434658051 64.9274902344
-27.1719074249 25.8301353455 64.7268753052
-27.1632118225 25.8243141174 64.5273742676
-27.1640319824 25.8283653259 64.3293685913
-27.1725234985 25.8403701782 64.1325912476
-27.1844673157 25.8559570313 63.9363822937
-27.1964721680 25.8716068268 63.7401924133
-27.2078552246 25.8866100311 63.5439109802
-27.2202396393 25.9026527405 63.3478050232
-27.2357311249 25.9219169617 63.1522293091
-27.2548561096 25.9449501038 62.9572715759
-27.2755832672 25.9696445465 62.7626075745
-27.2944583893 25.9924144745 62.5676574707
-27.3091239929 26.0108222961 62.3720207214
-27.3199501038 26.0252494812 62.1757431030
-27.3292427063 26.0380840302 61.9792137146
-27.3389167786 26.0513134003 61.7827568054
-27.3488559723 26.0648174286 61.5863494873
-27.3573398590 26.0768127441 61.3896980286
-27.3628063202 26.0856819153 61.1925239563
-27.3650455475 26.0912036896 60.9947853088
-27.3650283813 26.0943832397 60.7966346741
-27.3640995026 26.0966205597 60.5983161926
-27.3634071350 26.0991020203 60.4000282288
-27.3635635376 26.1024627686 60.2018775940
-27.3643665314 26.1064968109 60.0038337708
-27.3646392822 26.1099777222 59.8056869507
-27.3626670837 26.1111354828 59.6071166992
-27.3576469421 26.1091308594 59.4079780579
-27.3511066437 26.1055507660 59.2085380554
-27.3461971283 26.1036624908 59.0093803406
-27.3448200226 26.1054344177 58.8108558655
-27.3463401794 26.1102123260 58.6128616333
-27.3502063751 26.1174221039 58.4152946472
-27.3587379456 26.1294689178 58.2186050415
-27.3754272461 26.1499729156 58.0234642029
-27.4004783630 26.1791419983 57.8299331665
-27.4292469025 26.2121658325 57.6371498108
-27.4553852081 26.2424640656 57.4439010620
-27.4748859406 26.2658786774 57.2494087219
-27.4872055054 26.2818489075 57.0535469055
-27.4938144684 26.2919006348 56.8565864563
-27.4967422485 26.2981376648 56.6589088440
-27.4987659454 26.3034362793 56.4610443115
-27.5043601990 26.3124351501 56.2638816833
-27.5187263489 26.3305282593 56.0684547424
-27.5437984467 26.3597145081 55.8751792908
-27.5749359131 26.3951911926 55.6831512451
-27.6032485962 26.4277362823 55.4906005859
-27.6219825745 26.4503555298 55.2961540222
-27.6302757263 26.4621505737 55.0996170044
-27.6314258575 26.4665431976 54.9016265869
-27.6292247772 26.4674625397 54.7029418945
-27.6260471344 26.4673690796 54.5040397644
-27.6229743958 26.4673881531 54.3051452637
-27.6205272675 26.4680519104 54.1063652039
-27.6190795898 26.4697532654 53.9077758789
-27.6188678741 26.4727344513 53.7094306946
-27.6197128296 26.4768123627 53.5112991333
-27.6207237244 26.4810619354 53.3131942749
-27.6202316284 26.4837551117 53.1147575378
-27.6163444519 26.4829292297 52.9155921936
-27.6081390381 26.4776287079 52.7154808044
-27.5965614319 26.4688339233 52.5146217346
-27.5839328766 26.4589519501 52.3135070801
-27.5723724365 26.4501762390 52.1125869751
-27.5627613068 26.4434204102 51.9120597839
-27.5550003052 26.4385833740 51.7119102478
-27.5487289429 26.4352893829 51.5120620728
-27.5436859131 26.4332695007 51.3124580383
-27.5397205353 26.4323654175 51.1130752563
-27.5367469788 26.4324913025 50.9138946533
-27.5347137451 26.4335880280 50.7149085999
-27.5335483551 26.4355869293 50.5161018372
-27.5331058502 26.4383354187 50.3174400330
-27.5331420898 26.4415779114 50.1188812256
-27.5333366394 26.4449863434 49.9203414917
-27.5333137512 26.4481697083 49.7217483521
-27.5326614380 26.4506988525 49.5229949951
-27.5310153961 26.4521999359 49.3240051270
-27.5284824371 26.4527835846 49.1247978210
-27.5264701843 26.4539070129 48.9256935120
-27.5282268524 26.4589328766 48.7274513245
-27.5376052856 26.4718570709 48.5309753418
-27.5560493469 26.4941711426 48.3366203308
-27.5806064606 26.5228176117 48.1437263489
-27.6054573059 26.5517692566 47.9509353638
-27.6251564026 26.5753822327 47.7569580078
-27.6361064911 26.5899333954 47.5609321594
-27.6360874176 26.5931205750 47.3623008728
-27.6240158081 26.5838241577 47.1607780457
-27.6007480621 26.5629291534 46.9565315247
-27.5700817108 26.5343704224 46.7504501343
-27.5389499664 26.5053348541 46.5441932678
-27.5157356262 26.4844989777 46.3397865295
-27.5067062378 26.4783554077 46.1387863159
-27.5133113861 26.4884071350 45.9415817261
-27.5327281952 26.5117282867 45.7475242615
-27.5601863861 26.5433788300 45.5554733276
-27.5903224945 26.5778007507 45.3641242981
-27.6177539825 26.6094207764 45.1721458435
-27.6385211945 26.6341400146 44.9785499573
-27.6516094208 26.6509037018 44.7830581665
-27.6586227417 26.6613750458 44.5860557556
-27.6619186401 26.6679992676 44.3881187439
-27.6629676819 26.6722946167 44.1896095276
-27.6617698669 26.6742649078 43.9905204773
-27.6570968628 26.6726341248 43.7905311584
-27.6474666595 26.6658706665 43.5892601013
-27.6329917908 26.6540927887 43.3867187500
-27.6170520782 26.6407947540 43.1837615967
-27.6057548523 26.6323070526 42.9819641113
-27.6048564911 26.6345882416 42.7828292847
-27.6167640686 26.6501331329 42.5870132446
-27.6406517029 26.6780796051 42.3943328857
-27.6751213074 26.7169837952 42.2044601440
-27.7195034027 26.7661514282 42.0172386169
-27.7714614868 26.8231639862 41.8320884705
-27.8242588043 26.8810405731 41.6472434998
-27.8687324524 26.9302997589 41.4602737427
-27.8988456726 26.9646892548 41.2695465088
-27.9146289825 26.9842395782 41.0750350952
-27.9201068878 26.9931201935 40.8777770996
-27.9197235107 26.9959316254 40.6789398193
-27.9166889191 26.9959983826 40.4793739319
-27.9131298065 26.9955234528 40.2796516418
-27.9105339050 26.9960441589 40.0801734924
-27.9097557068 26.9984493256 39.8811759949
-27.9108123779 27.0027523041 39.6826705933
-27.9129047394 27.0081272125 39.4844360352
-27.9148311615 27.0133323669 39.2861518860
-27.9155731201 27.0173110962 39.0875320435
-27.9147262573 27.0196456909 38.8884620667
-27.9125690460 27.0206222534 38.6890182495
-27.9097747803 27.0209407806 38.4893760681
-27.9070549011 27.0213356018 38.2897453308
-27.9049472809 27.0223674774 38.0902671814
-27.9038429260 27.0244331360 37.8910560608
-27.9040622711 27.0278720856 37.6922073364
-27.9059505463 27.0330390930 37.4938240051
-27.9099254608 27.0403652191 37.2960243225
-27.9165477753 27.0504322052 37.0989799500
-27.9264316559 27.0638732910 36.9028701782
-27.9396171570 27.0807342529 36.7077140808
-27.9544601440 27.0993118286 36.5130538940
-27.9672126770 27.1157226563 36.3178024292
-27.9737453461 27.1256942749 36.1207580566
-27.9727916718 27.1279220581 35.9215354919
-27.9677410126 27.1259059906 35.7211074829
-27.9650592804 27.1263427734 35.5213508606
-27.9711933136 27.1359043121 35.3241691589
-27.9908847809 27.1594963074 35.1309852600
-28.0269279480 27.2000122070 34.9426536560
-28.0791606903 27.2572822571 34.7591819763
-28.1425704956 27.3261165619 34.5791130066
-28.2074584961 27.3964805603 34.3995933533
-28.2633609772 27.4575443268 34.2174911499
-28.3041229248 27.5029354095 34.0309371948
-28.3298454285 27.5327644348 33.8399200439
-28.3446464539 27.5512924194 33.6456413269
-28.3529853821 27.5631313324 33.4494209290
-28.3576526642 27.5711688995 33.2520904541
-28.3598499298 27.5766506195 33.0540046692
-28.3600902557 27.5801105499 32.8553161621
-28.3588752747 27.5820598602 32.6561660767
-28.3568038940 27.5831279755 32.4567451477
-28.3542480469 27.5836925507 32.2571601868
-28.3508605957 27.5833988190 32.0573005676
-28.3455276489 27.5810890198 31.8568191528
-28.3370494843 27.5755271912 31.6553421021
-28.3253574371 27.5666427612 31.4528350830
-28.3121604919 27.5561981201 31.2498245239
-28.3000698090 27.5468997955 31.0471267700
-28.2908573151 27.5405807495 30.8453025818
-28.2845687866 27.5372848511 30.6443729401
-28.2801475525 27.5359249115 30.4440116882
-28.2765808105 27.5354480743 30.2439041138
-28.2735252380 27.5354976654 30.0439395905
-28.2714061737 27.5365200043 29.8442611694
-28.2713394165 27.5396652222 29.6452236176
-28.2749195099 27.5465812683 29.4473438263
-28.2835655212 27.5587387085 29.2510929108
-28.2974815369 27.5763492584 29.0565490723
-28.3151321411 27.5978221893 28.8632278442
-28.3341922760 27.6207523346 28.6703872681
-28.3534183502 27.6438560486 28.4776248932
-28.3737430573 27.6680927277 28.2852439880
-28.3977756500 27.6961669922 28.0941047668
-28.4284267426 27.7310867310 27.9051723480
-28.4675579071 27.7747745514 27.7190761566
-28.5148487091 27.8269042969 27.5357360840
-28.5669631958 27.8840217590 27.3540668488
-28.6177101135 27.9397239685 27.1720314026
-28.6596698761 27.9863357544 26.9871482849
-28.6864910126 28.0172863007 26.7972793579
-28.6953048706 28.0296134949 26.6014194489
-28.6889991760 28.0263004303 26.4004898071
-28.6764678955 28.0165519714 26.1974430084
-28.6686325073 28.0116577148 25.9959468842
-28.6723480225 28.0187110901 25.7983341217
-28.6876506805 28.0377483368 25.6046504974
-28.7100944519 28.0641727448 25.4134140015
-28.7345294952 28.0926551819 25.2228870392
-28.7569103241 28.1190109253 25.0316905975
-28.7746982574 28.1406173706 24.8389472961
-28.7874794006 28.1570453644 24.6445064545
-28.7973842621 28.1704998016 24.4490852356
-28.8080120087 28.1847000122 24.2539215088
-28.8223323822 28.2027187347 24.0600471497
-28.8413219452 28.2255668640 23.8678092957
-28.8641929626 28.2524280548 23.6769485474
-28.8895282745 28.2818374634 23.4869804382
-28.9163703918 28.3128032684 23.2975769043
-28.9445400238 28.3451404572 23.1086750031
-28.9737358093 28.3785400391 22.9201774597
-29.0023365021 28.4113235474 22.7315120697
-29.0276088715 28.4406642914 22.5417098999
-29.0473918915 28.4643287659 22.3499946594
-29.0615844727 28.4822120667 22.1563148499
-29.0721893311 28.4963855743 21.9613723755
-29.0820865631 28.5098266602 21.7661838531
-29.0933380127 28.5246696472 21.5714912415
-29.1062374115 28.5412139893 21.3773975372
-29.1200542450 28.5587081909 21.1836490631
-29.1347084045 28.5770664215 20.9902153015
-29.1512794495 28.5974082947 20.7974948883
-29.1707572937 28.6207542419 20.6058483124
-29.1927528381 28.6467018127 20.4151420593
-29.2159690857 28.6739120483 20.2249107361
-29.2398223877 28.7017803192 20.0349464417
-29.2651615143 28.7311840057 19.8455581665
-29.2930660248 28.7632369995 19.6571483612
-29.3226852417 28.7970657349 19.4694118500
-29.3502330780 28.8287506104 19.2809524536
-29.3707790375 28.8531970978 19.0899410248
-29.3818740845 28.8678703308 18.8954448700
-29.3856639862 28.8749961853 18.6982402802
-29.3877048492 28.8803119659 18.5003776550
-29.3940505981 28.8900794983 18.3041191101
-29.4089317322 28.9086685181 18.1110610962
-29.4336071014 28.9373817444 17.9217033386
-29.4664306641 28.9745159149 17.7354488373
-29.5039367676 29.0164890289 17.5510139465
-29.5420494080 29.0590896606 17.3668670654
-29.5767726898 29.0981845856 17.1814918518
-29.6050949097 29.1306629181 16.9937324524
-29.6260528564 29.1555290222 16.8032073975
-29.6405448914 29.1737136841 16.6102371216
-29.6499576569 29.1866474152 16.4153347015
-29.6554660797 29.1955451965 16.2189407349
-29.6584568024 29.2018413544 16.0215759277
-29.6608524323 29.2075214386 15.8239755630
-29.6648864746 29.2148971558 15.6270036697
-29.6727924347 29.2262725830 15.4315299988
-29.6865119934 29.2436561584 15.2383184433
-29.7071704865 29.2682113647 15.0478267670
-29.7343044281 29.2994575500 14.8598909378
-29.7652549744 29.3346481323 14.6734876633
-29.7954940796 29.3691005707 14.4868516922
-29.8204212189 29.3980636597 14.2981710434
-29.8376522064 29.4190750122 14.1064910889
-29.8479785919 29.4329490662 13.9121026993
-29.8545093536 29.4429035187 13.7162208557
-29.8611660004 29.4529838562 13.5203886032
-29.8714179993 29.4667835236 13.3259897232
-29.8873806000 29.4864807129 13.1338758469
-29.9093799591 29.5124187469 12.9441938400
-29.9364223480 29.5435638428 12.7565612793
-29.9670486450 29.5784130096 12.5704069138
-29.9998302460 29.6154861450 12.3851652145
-30.0336360931 29.6536178589 12.2003860474
-30.0678653717 29.6921863556 12.0158300400
-30.1020870209 29.7307453156 11.8313217163
-30.1349163055 29.7678661346 11.6463003159
-30.1635112762 29.8006134033 11.4596061707
-30.1848201752 29.8258285522 11.2699794769
-30.1976909637 29.8423290253 11.0769309998
-30.2037410736 29.8517799377 10.8810997009
-30.2062931061 29.8576183319 10.6838321686
-30.2088012695 29.8634128571 10.4865417480
-30.2141361237 29.8721256256 10.2904100418
-30.2246894836 29.8862285614 10.0964345932
-30.2424030304 29.9077301025 9.9054365158
-30.2683486938 29.9377346039 9.7178783417
-30.3023948669 29.9761066437 9.5337295532
-30.3432579041 30.0215187073 9.3524751663
-30.3883666992 30.0713176727 9.1730613708
-30.4337978363 30.1214447021 8.9938535690
-30.4754581451 30.1676788330 8.8131351471
-30.5110073090 30.2075977325 8.6299114227
-30.5401325226 30.2408809662 8.4440317154
-30.5630493164 30.2677516937 8.2555713654
-30.5797119141 30.2881603241 8.0644931793
-30.5906257629 30.3026313782 7.8709936142
-30.5975189209 30.3129501343 7.6757931709
-30.6027698517 30.3215732574 7.4798951149
-30.6084461212 30.3306350708 7.2841773033
-30.6160087585 30.3416442871 7.0892667770
-30.6265277863 30.3557071686 6.8956274986
-30.6406612396 30.3735046387 6.7035522461
-30.6581420898 30.3947563171 6.5129332542
-30.6775779724 30.4180278778 6.3231806755
-30.6974182129 30.4417190552 6.1336283684
-30.7172908783 30.4654388428 5.9441146851
-30.7380180359 30.4900436401 5.7549996376
-30.7600994110 30.5160446167 5.5665006638
-30.7824420929 30.5423145294 5.3781452179
-30.8029556274 30.5666980743 5.1890206337
-30.8202648163 30.5877704620 4.9985184669
-30.8346271515 30.6057987213 4.8067431450
-30.8474540710 30.6222438812 4.6143078804
-30.8604888916 30.6389007568 4.4219765663
-30.8754043579 30.6574993134 4.2304897308
-30.8934440613 30.6793270111 4.0404043198
-30.9146442413 30.7044143677 3.8517422676
-30.9374008179 30.7311096191 3.6638019085
-30.9595584869 30.7571849823 3.4756250381
-30.9802989960 30.7817974091 3.2868454456
-31.0007305145 30.8060913086 3.0979549885
-31.0223922729 30.8316535950 2.9096426964
-31.0455245972 30.8587341309 2.7220203876
-31.0691261292 30.8862972260 2.5346410275
-31.0924949646 30.9136219025 2.3471896648
-31.1162376404 30.9413299561 2.1599385738
-31.1415138245 30.9706211090 1.9734158516
-31.1683864594 31.0015602112 1.7876533270
-31.1952037811 31.0324420929 1.6019047499
-31.2202110291 31.0614547729 1.4153693914
-31.2440052032 31.0892143250 1.2283152342
-31.2700557709 31.1193027496 1.0423271656
-31.3022766113 31.1557598114 0.8592047691
-31.3419494629 31.1999092102 0.6795545220
-31.3871097565 31.2497215271 0.5024927855
-31.4346294403 31.3019676208 0.3265917897
-31.4823131561 31.3543853760 0.1508437842
-18.0625362396 32.9738540649 80.5585250854
-18.0525646210 32.9583892822 80.3601913452
-18.0382041931 32.9338951111 80.1612091064
-18.0242137909 32.9101638794 79.9622344971
-18.0145664215 32.8953704834 79.7638244629
-18.0112361908 32.8935737610 79.5662994385
-18.0142097473 32.9047393799 79.3696670532
-18.0218849182 32.9255828857 79.1737289429
-18.0315952301 32.9506111145 78.9781036377
-18.0405826569 32.9741477966 78.7823944092
-18.0471363068 32.9926795959 78.5863342285
-18.0508937836 33.0054588318 78.3898544312
-18.0521774292 33.0131568909 78.1930007935
-18.0513134003 33.0164299011 77.9958038330
-18.0485515594 33.0158042908 77.7983016968
-18.0443458557 33.0122070313 77.6005554199
-18.0394687653 33.0072288513 77.4026870728
-18.0348587036 33.0027999878 77.2048339844
-18.0313186646 33.0005722046 77.0071334839
-18.0292091370 33.0012893677 76.8096466064
-18.0283184052 33.0045089722 76.6123504639
-18.0280170441 33.0089454651 76.4151458740
-18.0275878906 33.0131187439 76.2179107666
-18.0264778137 33.0158882141 76.0205535889
-18.0243682861 33.0166091919 75.8230056763
-18.0211563110 33.0150566101 75.6252593994
-18.0169372559 33.0114402771 75.4273223877
-18.0121803284 33.0067138672 75.2292633057
-18.0080699921 33.0033149719 75.0313034058
-18.0066089630 33.0053672791 74.8337936401
-18.0098056793 33.0170021057 74.6371154785
-18.0182037354 33.0393257141 74.4413757324
-18.0302276611 33.0691032410 74.2463150024
-18.0431098938 33.1006507874 74.0514450073
-18.0543651581 33.1288490295 73.8562927246
-18.0625267029 33.1506843567 73.6605911255
-18.0672302246 33.1654129028 73.4642562866
-18.0689353943 33.1739768982 73.2673568726
-18.0684337616 33.1780014038 73.0700302124
-18.0663852692 33.1788444519 72.8723907471
-18.0631809235 33.1773147583 72.6745223999
-18.0590591431 33.1739006042 72.4764556885
-18.0542316437 33.1690330505 72.2782287598
-18.0489635468 33.1632575989 72.0798873901
-18.0437316895 33.1575660706 71.8815383911
-18.0396194458 33.1541671753 71.6833877563
-18.0386486053 33.1572341919 71.4858551025
-18.0432186127 33.1716880798 71.2894439697
-18.0542469025 33.1994132996 71.0943679810
-18.0695991516 33.2360305786 70.9002075195
-18.0849037170 33.2725486755 70.7060775757
-18.0962276459 33.3008842468 70.5111465454
-18.1019477844 33.3176994324 70.3150482178
-18.1024322510 33.3237533569 70.1178512573
-18.0987129211 33.3211669922 69.9197463989
-18.0916213989 33.3116493225 69.7209014893
-18.0817890167 33.2965011597 69.5214233398
-18.0702285767 33.2778053284 69.3215408325
-18.0589485168 33.2596817017 69.1216735840
-18.0507526398 33.2479019165 68.9224548340
-18.0478591919 33.2470169067 68.7243804932
-18.0503330231 33.2571601868 68.5274887085
-18.0560550690 33.2739830017 68.3313369751
-18.0622386932 33.2917518616 68.1352996826
-18.0668659210 33.3063240051 67.9389114380
-18.0690307617 33.3158340454 67.7419662476
-18.0685787201 33.3199691772 67.5444107056
-18.0658435822 33.3194084167 67.3463134766
-18.0615997314 33.3157501221 67.1478576660
-18.0570049286 33.3113708496 66.9492874146
-18.0533370972 33.3088989258 66.7509231567
-18.0516986847 33.3105964661 66.5530166626
-18.0528125763 33.3179473877 66.3557662964
-18.0570621490 33.3317451477 66.1592636108
-18.0646514893 33.3524017334 65.9635772705
-18.0756435394 33.3800506592 65.7687377930
-18.0896625519 33.4139175415 65.5746612549
-18.1056461334 33.4518203735 65.3811035156
-18.1221694946 33.4908294678 65.1877212524
-18.1379795074 33.5283737183 64.9942016602
-18.1517562866 33.5617370605 64.8002014160
-18.1613712311 33.5865554810 64.6051864624
-18.1640472412 33.5971145630 64.4084243774
-18.1578979492 33.5895423889 64.2094039917
-18.1435852051 33.5652046204 64.0082626343
-18.1245326996 33.5311279297 63.8058433533
-18.1053333282 33.4967536926 63.6033248901
-18.0895557404 33.4694099426 63.4016418457
-18.0786590576 33.4520912170 63.2011833191
-18.0723876953 33.4442787170 63.0019111633
-18.0697422028 33.4439086914 62.8035774231
-18.0695304871 33.4485435486 62.6058769226
-18.0705490112 33.4557037354 62.4084968567
-18.0717372894 33.4632110596 62.2111587524
-18.0724086761 33.4696578979 62.0136795044
-18.0723781586 33.4746627808 61.8159980774
-18.0719432831 33.4788360596 61.6181983948
-18.0717964172 33.4836044312 61.4204711914
-18.0729312897 33.4910011292 61.2230911255
-18.0764217377 33.5032386780 61.0263595581
-18.0829105377 33.5216369629 60.8304748535
-18.0919284821 33.5452232361 60.6353073120
-18.1016731262 33.5703010559 60.4403648376
-18.1098175049 33.5920982361 60.2449913025
-18.1148395538 33.6074790955 60.0487365723
-18.1166324615 33.6162261963 59.8515625000
-18.1160659790 33.6201324463 59.6537055969
-18.1142082214 33.6213874817 59.4554634094
-18.1118850708 33.6216850281 59.2570724487
-18.1096000671 33.6220626831 59.0586814880
-18.1075611115 33.6229476929 58.8603439331
-18.1057395935 33.6242752075 58.6620597839
-18.1039485931 33.6256713867 58.4637718201
-18.1019515991 33.6266403198 58.2654075623
-18.0995635986 33.6268081665 58.0669097900
-18.0967559814 33.6261138916 57.8682746887
-18.0937156677 33.6249427795 57.6695518494
-18.0908164978 33.6240615845 57.4708595276
-18.0884952545 33.6243667603 57.2723236084
-18.0871429443 33.6266670227 57.0740699768
-18.0870971680 33.6316452026 56.8762092590
-18.0887031555 33.6400108337 56.6788558960
-18.0922145844 33.6522941589 56.4820899963
-18.0971698761 33.6675415039 56.2857780457
-18.1013736725 33.6812438965 56.0892372131
-18.1006450653 33.6848182678 55.8911399841
-18.0908756256 33.6698379517 55.6901664734
-18.0718402863 33.6358375549 55.4862060547
-18.0493392944 33.5947303772 55.2810707092
-18.0328121185 33.5658798218 55.0777816772
-18.0298137665 33.5648040771 54.8788108826
-18.0417671204 33.5944137573 54.6846771240
-18.0637855530 33.6446800232 54.4938468933
-18.0881271362 33.6997184753 54.3038330078
-18.1085681915 33.7467460632 54.1125984192
-18.1226692200 33.7807617188 53.9193229675
-18.1310825348 33.8031005859 53.7241897583
-18.1355895996 33.8174285889 53.5277748108
-18.1377639771 33.8269615173 53.3305854797
-18.1386528015 33.8338623047 53.1329612732
-18.1389122009 33.8394699097 52.9351196289
-18.1389770508 33.8446769714 52.7372055054
-18.1391639709 33.8501358032 52.5393257141
-18.1397151947 33.8563385010 52.3415603638
-18.1407546997 33.8635520935 52.1439590454
-18.1422023773 33.8715972900 51.9464912415
-18.1436767578 33.8796958923 51.7490310669
-18.1444988251 33.8864593506 51.5513381958
-18.1438102722 33.8901252747 51.3531150818
-18.1406784058 33.8887748718 51.1540260315
-18.1342716217 33.8807067871 50.9537658691
-18.1242218018 33.8651580811 50.7521972656
-18.1109848022 33.8430786133 50.5494575500
-18.0957260132 33.8168487549 50.3459548950
-18.0796718597 33.7889900208 50.1421127319
-18.0636482239 33.7611999512 49.9382324219
-18.0482883453 33.7347640991 49.7345352173
-18.0345840454 33.7117309570 49.5313835144
-18.0242099762 33.6955337524 49.3293952942
-18.0192050934 33.6903457642 49.1293258667
-18.0211524963 33.6994247437 48.9317817688
-18.0304279327 33.7235336304 48.7369270325
-18.0460109711 33.7605819702 48.5444221497
-18.0659084320 33.8064842224 48.3535499573
-18.0877342224 33.8563346863 48.1634407043
-18.1090793610 33.9052047729 47.9732093811
-18.1278038025 33.9486923218 47.7820510864
-18.1424617767 33.9838371277 47.5894088745
-18.1527214050 34.0099601746 47.3951377869
-18.1592388153 34.0284118652 47.1994705200
-18.1630649567 34.0413398743 47.0027923584
-18.1650676727 34.0505256653 46.8054199219
-18.1657047272 34.0569114685 46.6075210571
-18.1650142670 34.0605735779 46.4091033936
-18.1626720428 34.0608520508 46.2100410461
-18.1583271027 34.0570220947 46.0101890564
-18.1522331238 34.0496063232 45.8096313477
-18.1456260681 34.0411376953 45.6088523865
-18.1402912140 34.0352783203 45.4085426331
-18.1377887726 34.0352287292 45.2093238831
-18.1394081116 34.0436325073 45.0117187500
-18.1467571259 34.0637855530 44.8163833618
-18.1613788605 34.0988540649 44.6239509583
-18.1827831268 34.1478271484 44.4342575073
-18.2070426941 34.2026557922 44.2457656860
-18.2284393311 34.2516136169 44.0561828613
-18.2429218292 34.2863883972 43.8638648987
-18.2495155334 34.3049888611 43.6683845520
-18.2487621307 34.3085212708 43.4699287415
-18.2411346436 34.2979621887 43.2686653137
-18.2277622223 34.2756233215 43.0650177002
-18.2119693756 34.2483253479 42.8603286743
-18.1989536285 34.2267227173 42.6567344666
-18.1934051514 34.2204322815 42.4561805725
-18.1971530914 34.2331962585 42.2594604492
-18.2082901001 34.2611160278 42.0658187866
-18.2223129272 34.2949485779 41.8734092712
-18.2351360321 34.3263168335 41.6805305481
-18.2459831238 34.3536376953 41.4868469238
-18.2573127747 34.3819465637 41.2933883667
-18.2719478607 34.4170303345 41.1013603210
-18.2906780243 34.4605102539 40.9111022949
-18.3122329712 34.5097770691 40.7220954895
-18.3346347809 34.5607795715 40.5335083008
-18.3565845490 34.6108474731 40.3447799683
-18.3783817291 34.6606101990 40.1560440063
-18.4018383026 34.7137680054 39.9680786133
-18.4286479950 34.7737998962 39.7816276550
-18.4583454132 34.8397445679 39.5965003967
-18.4878463745 34.9052886963 39.4113655090
-18.5130710602 34.9620666504 39.2244377136
-18.5311107635 35.0041160583 39.0344161987
-18.5412063599 35.0298805237 38.8409347534
-18.5440711975 35.0408248901 38.6442756653
-18.5403842926 35.0383453369 38.4447135925
-18.5298748016 35.0218811035 38.2420959473
-18.5118484497 34.9900169373 38.0360794067
-18.4869556427 34.9440765381 37.8269271851
-18.4587783813 34.8914108276 37.6162223816
-18.4332447052 34.8441619873 37.4066200256
-18.4154052734 34.8126831055 37.2004127502
-18.4066467285 34.7998199463 36.9982719421
-18.4056339264 34.8028221130 36.7996215820
-18.4114456177 34.8198165894 36.6040763855
-18.4244270325 34.8514976501 36.4118270874
-18.4437923431 34.8962593079 36.2225418091
-18.4657649994 34.9463615417 36.0345039368
-18.4851455688 34.9911537170 35.8453216553
-18.4986057281 35.0238075256 35.6534423828
-18.5060882568 35.0442237854 35.4588127136
-18.5095195770 35.0563316345 35.2623062134
-18.5108451843 35.0641250610 35.0648155212
-18.5111770630 35.0698852539 34.8668556213
-18.5108947754 35.0743865967 34.6685981750
-18.5098457336 35.0773162842 34.4699668884
-18.5073738098 35.0773315430 34.2706527710
-18.5024375916 35.0722999573 34.0701522827
-18.4941520691 35.0604057312 33.8680343628
-18.4827289581 35.0420837402 33.6643829346
-18.4699287415 35.0209465027 33.4600296021
-18.4583969116 35.0024070740 33.2562408447
-18.4503307343 34.9909667969 33.0540847778
-18.4467353821 34.9886856079 32.8540611267
-18.4476470947 34.9956359863 32.6562080383
-18.4527206421 35.0111122131 32.4603729248
-18.4613971710 35.0339698792 32.2663078308
-18.4725284576 35.0618553162 32.0734634399
-18.4840965271 35.0906333923 31.8808536530
-18.4937229156 35.1154327393 31.6873149872
