3.4098501205 -57.4257469177 24.0951538086
3.4088740349 -57.4248847961 23.9064559937
3.4079463482 -57.4255981445 23.7181472778
3.4070215225 -57.4263992310 23.5298519135
3.4060857296 -57.4268531799 23.3414535522
3.4051373005 -57.4269027710 23.1529407501
3.4041857719 -57.4268531799 22.9643898010
3.4032559395 -57.4275016785 22.7760066986
3.4024045467 -57.4306869507 22.5882720947
3.4017512798 -57.4402770996 22.4021930695
3.4014871120 -57.4624290466 22.2193946838
3.4018049240 -57.5033836365 22.0415248871
3.4027664661 -57.5651168823 21.8691444397
3.4042472839 -57.6436080933 21.7012310028
3.4060368538 -57.7320480347 21.5360279083
3.4078528881 -57.8213310242 21.3711471558
3.4090988636 -57.8921966553 21.2014923096
3.4088091850 -57.9134788513 21.0187625885
3.4062993526 -57.8631095886 20.8169918060
3.4019823074 -57.7544288635 20.5995998383
3.3972387314 -57.6320114136 20.3783855438
3.3933646679 -57.5376815796 20.1645259857
3.3907890320 -57.4852523804 19.9617862701
3.3892092705 -57.4649620056 19.7676162720
3.3881437778 -57.4612693787 19.5778846741
3.3872621059 -57.4635009766 19.3897380829
3.3864104748 -57.4667053223 19.2018451691
3.3855361938 -57.4691848755 19.0137481689
3.3846316338 -57.4706802368 18.8253746033
3.3837065697 -57.4715232849 18.6368122101
3.3827772141 -57.4722328186 18.4482002258
3.3818566799 -57.4732208252 18.2596549988
3.3809511662 -57.4746971130 18.0712337494
3.3800647259 -57.4767951965 17.8829708099
3.3792085648 -57.4798660278 17.6949691772
3.3784127235 -57.4848823547 17.5074958801
3.3777368069 -57.4937667847 17.3210906982
3.3772497177 -57.5087280273 17.1363735199
3.3769688606 -57.5303344727 16.9535160065
3.3768451214 -57.5569953918 16.7720851898
3.3769369125 -57.5905876160 16.5926170349
3.3776667118 -57.6447257996 16.4189434052
3.3796970844 -57.7407188416 16.2570991516
3.3832306862 -57.8850860596 16.1090011597
3.3874075413 -58.0501327515 15.9669160843
3.3905732632 -58.1826019287 15.8158063889
3.3912115097 -58.2337150574 15.6417636871
3.3887081146 -58.1837272644 15.4390172958
3.3835849762 -58.0494651794 15.2121715546
3.3772695065 -57.8768730164 14.9741916656
3.3714103699 -57.7189979553 14.7401924133
3.3670377731 -57.6089668274 14.5197095871
3.3642311096 -57.5493202209 14.3135662079
3.3624837399 -57.5237655640 14.1171607971
3.3612537384 -57.5148429871 13.9255170822
3.3602185249 -57.5121841431 13.7356624603
3.3592488766 -57.5116462708 13.5464067459
3.3583083153 -57.5120353699 13.3574094772
3.3573882580 -57.5130920410 13.1685934067
3.3564860821 -57.5147247314 12.9799346924
3.3556015491 -57.5169258118 12.7914323807
3.3547363281 -57.5197448730 12.6031017303
3.3538925648 -57.5232582092 12.4149665833
3.3530704975 -57.5274658203 12.2270278931
3.3522641659 -57.5321846008 12.0392341614
3.3514623642 -57.5370445251 11.8514757156
3.3506498337 -57.5415687561 11.6636104584
3.3498122692 -57.5452804565 11.4754991531
3.3489394188 -57.5478706360 11.2870445251
3.3480308056 -57.5493087769 11.0982370377
3.3470981121 -57.5499801636 10.9091892242
3.3461809158 -57.5511436462 10.7202787399
3.3453857899 -57.5562286377 10.5325345993
3.3449540138 -57.5729713440 10.3482952118
3.3452854156 -57.6142120361 10.1714544296
3.3467881680 -57.6930160522 10.0060100555
3.3495521545 -57.8122787476 9.8529119492
3.3531527519 -57.9583511353 9.7080926895
3.3568568230 -58.1077156067 9.5644483566
3.3600349426 -58.2401733398 9.4158296585
3.3623509407 -58.3449707031 9.2589168549
3.3637046814 -58.4188880920 9.0926733017
3.3641679287 -58.4642448425 8.9177484512
3.3639571667 -58.4879875183 8.7362241745
3.3633484840 -58.4989738464 8.5507888794
3.3625771999 -58.5047416687 8.3637437820
3.3618249893 -58.5111274719 8.1768846512
3.3613018990 -58.5248527527 7.9922966957
3.3613235950 -58.5560379028 7.8131380081
3.3622572422 -58.6164245605 7.6430969238
3.3642623425 -58.7111358643 7.4838261604
3.3670146465 -58.8297615051 7.3321394920
3.3697462082 -58.9476928711 7.1803736687
3.3716619015 -59.0394859314 7.0205440521
3.3723390102 -59.0915870667 6.8483381271
3.3717527390 -59.1032409668 6.6634411812
3.3700864315 -59.0803070068 6.4676260948
3.3676471710 -59.0326385498 6.2639427185
3.3648941517 -58.9749450684 6.0570077896
3.3623454571 -58.9238014221 5.8520674706
3.3603656292 -58.8908729553 5.6528472900
3.3590831757 -58.8802719116 5.4606938362
3.3585062027 -58.8922462463 5.2757296562
3.3586075306 -58.9259185791 5.0977168083
3.3592195511 -58.9759216309 4.9249758720
3.3598976135 -59.0280265808 4.7529616356
3.3600163460 -59.0622367859 4.5752363205
3.3591001034 -59.0633468628 4.3868594170
3.3570978642 -59.0297317505 4.1872396469
3.3543460369 -58.9721641541 3.9798009396
3.3512561321 -58.9037933350 3.7687690258
3.3480448723 -58.8315658569 3.5563817024
3.3447842598 -58.7577781677 3.3433814049
3.3416318893 -58.6874656677 3.1314094067
3.3388698101 -58.6296386719 2.9234213829
3.3366975784 -58.5906753540 2.7215323448
3.3350806236 -58.5694694519 2.5254149437
3.3338260651 -58.5598335266 2.3330681324
3.3327410221 -58.5556259155 2.1424863338
3.3317043781 -58.5529632568 1.9523974657
3.3306312561 -58.5491333008 1.7619067430
3.3294005394 -58.5402870178 1.5697333813
3.3278152943 -58.5201148987 1.3737729788
3.3256525993 -58.4815139771 1.1716349125
3.3227992058 -58.4208755493 0.9620825052
3.3193368912 -58.3408164978 0.7459462285
3.3154697418 -58.2478561401 0.5253728628
3.3113892078 -58.1481056213 0.3023902476
3.3072197437 -58.0455398560 0.0783192217
54.9773902893 -29.5497608185 93.5320663452
54.9763298035 -29.5482006073 93.3490982056
54.9749069214 -29.5464534760 93.1661071777
54.9734039307 -29.5446605682 92.9831008911
54.9718856812 -29.5428600311 92.8000793457
54.9697074890 -29.5407123566 92.6170272827
54.9643974304 -29.5369167328 92.4338989258
54.9499969482 -29.5283355713 92.2505569458
54.9167213440 -29.5098209381 92.0667648315
54.8559303284 -29.4768238068 91.8823013306
54.7706069946 -29.4309120178 91.6971664429
54.6826324463 -29.3836078644 91.5118408203
54.6256523132 -29.3526134491 91.3271484375
54.6250877380 -29.3513126373 91.1437911987
54.6809844971 -29.3797321320 90.9618988037
54.7679901123 -29.4245223999 90.7808914185
54.8524589539 -29.4679813385 90.5999298096
54.9124412537 -29.4985504150 90.4183731079
54.9448242188 -29.5145931244 90.2360992432
54.9581298828 -29.5205936432 90.0532913208
54.9620513916 -29.5216560364 89.8702087402
54.9625549316 -29.5209178925 89.6870193481
54.9622001648 -29.5197296143 89.5037841797
54.9618263245 -29.5185317993 89.3205337524
54.9616584778 -29.5174388885 89.1372833252
54.9618072510 -29.5165157318 88.9540328979
54.9626235962 -29.5159435272 88.7707824707
54.9658660889 -29.5166454315 88.5876159668
54.9776153564 -29.5218276978 88.4047393799
55.0127716064 -29.5393333435 88.2227096558
55.0959205627 -29.5820980072 88.0424804688
55.2489700317 -29.6616630554 87.8649749756
55.4659194946 -29.7748661041 87.6901016235
55.6981887817 -29.8961334229 87.5161056519
55.8763580322 -29.9889259338 87.3402709961
55.9559669495 -30.0298328400 87.1607055664
55.9439239502 -30.0224933624 86.9774932861
55.8841743469 -29.9900398254 86.7922668457
55.8239364624 -29.9573287964 86.6069259644
55.7925834656 -29.9398231506 86.4227294922
55.8018646240 -29.9437084198 86.2402496338
55.8532142639 -29.9697418213 86.0596313477
55.9380645752 -30.0134105682 85.8805770874
56.0351448059 -30.0635185242 85.7021789551
56.1163787842 -30.1052837372 85.5231704712
56.1603775024 -30.1274471283 85.3425064087
56.1607856750 -30.1266632080 85.1598205566
56.1241378784 -30.1063690186 84.9753265381
56.0628547668 -30.0731067657 84.7895660400
55.9893913269 -30.0334281921 84.6031112671
55.9140892029 -29.9927825928 84.4164428711
55.8460998535 -29.9559879303 84.2300415039
55.7932319641 -29.9271526337 84.0443115234
55.7589645386 -29.9081096649 83.8594741821
55.7407188416 -29.8975009918 83.6754302979
55.7320899963 -29.8919563293 83.4918594360
55.7257461548 -29.8876152039 83.3083953857
55.7131233215 -29.8799686432 83.1245574951
55.6819801331 -29.8625698090 82.9396667480
55.6172523499 -29.8274860382 82.7528228760
55.5097274780 -29.7698688507 82.5634307861
55.3679351807 -29.6942119598 82.3719100952
55.2197570801 -29.6151885986 82.1798019409
55.0969886780 -29.5495433807 81.9889907837
55.0160408020 -29.5059185028 81.8004989624
54.9730110168 -29.4822578430 81.6141815186
54.9538688660 -29.4711723328 81.4292449951
54.9461097717 -29.4660816193 81.2449798584
54.9428977966 -29.4633846283 81.0609817505
54.9415626526 -29.4616756439 80.8770751953
54.9411506653 -29.4604530334 80.6932220459
54.9411201477 -29.4594306946 80.5093765259
54.9410095215 -29.4583663940 80.3255157471
54.9405174255 -29.4571018219 80.1416091919
54.9395980835 -29.4556121826 79.9576721191
54.9384956360 -29.4540252686 79.7737045288
54.9376716614 -29.4525852203 79.5897369385
54.9381179810 -29.4518146515 79.4058456421
54.9423904419 -29.4530582428 79.2222137451
54.9563865662 -29.4594211578 79.0392456055
54.9896278381 -29.4759197235 78.8576507568
55.0498657227 -29.5066337585 78.6780090332
55.1320075989 -29.5488834381 78.5000152588
55.2114295959 -29.5897026062 78.3219223022
55.2540054321 -29.6111145020 78.1412277222
55.2389755249 -29.6021957397 77.9563064575
55.1743202209 -29.5671424866 77.7676467896
55.0900115967 -29.5217380524 77.5774078369
55.0169258118 -29.4822425842 77.3879013062
54.9710731506 -29.4570884705 77.2003631592
54.9540176392 -29.4470996857 77.0149841309
54.9629669189 -29.4508075714 76.8316040039
54.9971351624 -29.4677925110 76.6501998901
55.0544700623 -29.4969806671 76.4706802368
55.1236991882 -29.5324325562 76.2921752930
55.1815719604 -29.5619029999 76.1128311157
55.2019462585 -29.5716285706 75.9304962158
55.1733856201 -29.5555801392 75.7441635132
55.1108360291 -29.5216312408 75.5549621582
55.0489959717 -29.4880542755 75.3657150269
55.0233268738 -29.4735279083 75.1794281006
55.0556411743 -29.4895401001 74.9980087280
55.1488418579 -29.5376186371 74.8218307495
55.2851104736 -29.6083812714 74.6494750977
55.4300651550 -29.6837196350 74.4780502319
55.5474815369 -29.7445526123 74.3044052124
55.6141891479 -29.7786808014 74.1264190674
55.6192436218 -29.7803363800 73.9430389404
55.5520095825 -29.7439212799 73.7531661987
55.4017295837 -29.6637611389 73.5556945801
55.1768264771 -29.5442981720 73.3512191772
54.9202613831 -29.4081573486 73.1435241699
54.6929244995 -29.2874107361 72.9381637573
54.5360717773 -29.2037830353 72.7390365601
54.4524688721 -29.1587371826 72.5465545654
54.4212150574 -29.1412658691 72.3588790894
54.4233894348 -29.1414012909 72.1743316650
54.4540138245 -29.1565208435 71.9924926758
54.5165138245 -29.1884307861 71.8137588501
54.6092681885 -29.2362766266 71.6380386353
54.7179489136 -29.2925128937 71.4639816284
54.8214988708 -29.3460464478 71.2895584106
54.9030990601 -29.3880176544 71.1130828857
54.9507904053 -29.4121303558 70.9333267212
54.9509391785 -29.4111995697 70.7488479614
54.8921470642 -29.3792209625 70.5583877563
54.7812995911 -29.3198204041 70.3625411987
54.6503143311 -29.2498130798 70.1644592285
54.5403862000 -29.1908950806 69.9683609009
54.4786872864 -29.1573848724 69.7771148682
54.4689559937 -29.1512451172 69.5912017822
54.4973602295 -29.1651973724 69.4092788696
54.5425148010 -29.1879711151 69.2291564941
54.5838432312 -29.2087306976 69.0486755371
54.6073532104 -29.2201061249 68.8663253784
54.6068763733 -29.2188434601 68.6814117432
54.5821571350 -29.2048091888 68.4938430786
54.5383720398 -29.1807327271 68.3041458130
54.4865570068 -29.1524238586 68.1134948730
54.4399986267 -29.1268844604 67.9233398438
54.4073791504 -29.1086864471 67.7346649170
54.3894729614 -29.0982418060 67.5475769043
54.3824882507 -29.0935478210 67.3616867065
54.3840904236 -29.0933799744 67.1767425537
54.3974647522 -29.0994129181 66.9931411743
54.4306755066 -29.1158981323 66.8118133545
54.4883041382 -29.1452445984 66.6333389282
54.5573654175 -29.1806163788 66.4562606812
54.6023216248 -29.2032890320 66.2764434814
54.5836296082 -29.1924285889 66.0892028809
54.4878730774 -29.1409664154 65.8928146362
54.3386459351 -29.0613346100 65.6899337769
54.1787376404 -28.9760704041 65.4855499268
54.0456123352 -28.9049186707 65.2841644287
53.9610061646 -28.8593273163 65.0884475708
53.9357604980 -28.8450126648 64.8998184204
53.9789161682 -28.8667335510 64.7195053101
54.0967063904 -28.9277801514 64.5484161377
54.2759819031 -29.0212211609 64.3850708008
54.4694366455 -29.1221332550 64.2237243652
54.6084709167 -29.1943759918 64.0558242798
54.6416549683 -29.2108459473 63.8748016357
54.5647964478 -29.1693363190 63.6799049377
54.4167060852 -29.0902957916 63.4758491516
54.2494010925 -29.0011291504 63.2691192627
54.1012649536 -28.9220600128 63.0646133423
53.9896125793 -28.8622150421 62.8646011353
53.9167404175 -28.8228015900 62.6694564819
53.8775520325 -28.8011379242 62.4785919189
53.8650627136 -28.7935390472 62.2911643982
53.8743247986 -28.7974033356 62.1065711975
53.9028892517 -28.8114376068 61.9245376587
53.9466285706 -28.8334693909 61.7445487976
53.9958305359 -28.8583793640 61.5653381348
54.0372467041 -28.8791866302 61.3851356506
54.0600471497 -28.8901844025 61.2024574280
54.0590171814 -28.8886241913 61.0165634155
54.0340652466 -28.8744602203 60.8273849487
53.9903869629 -28.8504276276 60.6355934143
53.9389953613 -28.8223304749 60.4426612854
53.8930969238 -28.7971267700 60.2504119873
53.8611221313 -28.7792587280 60.0600242615
53.8434104919 -28.7689094543 59.8715782166
53.8352203369 -28.7635746002 59.6844367981
53.8315544128 -28.7606258392 59.4979057312
53.8294639587 -28.7585067749 59.3115844727
53.8278045654 -28.7566146851 59.1253089905
53.8262863159 -28.7547969818 58.9390373230
53.8249092102 -28.7530536652 58.7527732849
53.8237190247 -28.7514076233 58.5665206909
53.8228149414 -28.7499141693 58.3802986145
53.8225555420 -28.7487564087 58.1941528320
53.8241081238 -28.7485561371 58.0082588196
53.8301467896 -28.7507228851 57.8230209351
53.8444442749 -28.7572383881 57.6389999390
53.8683090210 -28.7687988281 57.4564094543
53.8948135376 -28.7817478180 57.2742309570
53.9071846008 -28.7872486115 57.0899581909
53.8869400024 -28.7755603790 56.9007644653
53.8262710571 -28.7425670624 56.7054023743
53.7326774597 -28.6922225952 56.5049362183
53.6231231689 -28.6334648132 56.3018836975
53.5157546997 -28.5758571625 56.0990066528
53.4250640869 -28.5270385742 55.8985443115
53.3593101501 -28.4913635254 55.7018127441
53.3190345764 -28.4691143036 55.5089416504
53.2984352112 -28.4572353363 55.3190803528
53.2895812988 -28.4515476227 55.1310234070
53.2862243652 -28.4487590790 54.9438056946
53.2849082947 -28.4470424652 54.7568969727
53.2841644287 -28.4456291199 54.5700645447
53.2834625244 -28.4442386627 54.3832244873
53.2826690674 -28.4427967072 54.1963539124
53.2818031311 -28.4413204193 54.0094604492
53.2809600830 -28.4398536682 53.8225593567
53.2802085876 -28.4384346008 53.6356544495
53.2796020508 -28.4370937347 53.4487609863
53.2791900635 -28.4358539581 53.2618865967
53.2789993286 -28.4347324371 53.0750350952
53.2790184021 -28.4337196350 52.8882064819
53.2791328430 -28.4327583313 52.7013816833
53.2791481018 -28.4317436218 52.5145225525
53.2788467407 -28.4305629730 52.3276023865
53.2781066895 -28.4291496277 52.1405944824
53.2769737244 -28.4275302887 51.9535064697
53.2756271362 -28.4257984161 51.7663688660
53.2743034363 -28.4240779877 51.5792198181
53.2731552124 -28.4224491119 51.3920860291
53.2722129822 -28.4209308624 51.2049751282
53.2714424133 -28.4195003510 51.0178756714
53.2707672119 -28.4181213379 50.8307838440
53.2701377869 -28.4167690277 50.6436843872
53.2695350647 -28.4154281616 50.4565734863
53.2689552307 -28.4140987396 50.2694549561
53.2683944702 -28.4127807617 50.0823287964
53.2678565979 -28.4114723206 49.8951873779
53.2673072815 -28.4101581573 49.7080345154
53.2667007446 -28.4088172913 49.5208587646
53.2660560608 -28.4074535370 49.3336601257
53.2657241821 -28.4062538147 49.1465034485
53.2670173645 -28.4059123993 48.9596290588
53.2731399536 -28.4081172943 48.7736129761
53.2893676758 -28.4156475067 48.5894203186
53.3205642700 -28.4310703278 48.4079589844
53.3660316467 -28.4540176392 48.2291259766
53.4160881042 -28.4793834686 48.0511856079
53.4551773071 -28.4989681244 47.8712844849
53.4697227478 -28.5056133270 47.6869010925
53.4544296265 -28.4965286255 47.4969978333
53.4140472412 -28.4742145538 47.3024024963
53.3606452942 -28.4450340271 47.1053123474
53.3061485291 -28.4152793884 46.9079284668
53.2538833618 -28.3866996765 46.7108764648
53.1973342896 -28.3558597565 46.5129318237
53.1294975281 -28.3190689087 46.3127632141
53.0557899475 -28.2791805267 46.1113739014
52.9999580383 -28.2487182617 45.9132766724
52.9962921143 -28.2457599640 45.7250671387
53.0675697327 -28.2823162079 45.5512275696
53.2007827759 -28.3515281677 45.3894042969
53.3441886902 -28.4261131287 45.2297210693
53.4362792969 -28.4736461639 45.0602645874
53.4432754517 -28.4763107300 44.8743553162
53.3723068237 -28.4378662109 44.6732101440
53.2560081482 -28.3755187988 44.4630661011
53.1289100647 -28.3074779510 44.2506256104
53.0129470825 -28.2453079224 44.0401954651
52.9162445068 -28.1932907104 43.8334083557
52.8403205872 -28.1522312164 43.6306114197
52.7858276367 -28.1224689484 43.4319686890
52.7519912720 -28.1035995483 43.2373771667
52.7345466614 -28.0933742523 43.0460128784
52.7270851135 -28.0884113312 42.8566284180
52.7241783142 -28.0858497620 42.6681442261
52.7227363586 -28.0840606689 42.4799385071
52.7214965820 -28.0823802948 42.2917556763
52.7200698853 -28.0805988312 42.1035232544
52.7183609009 -28.0786705017 41.9152183533
52.7164039612 -28.0766086578 41.7268486023
52.7142829895 -28.0744628906 41.5384292603
52.7121276855 -28.0722980499 41.3499832153
52.7101020813 -28.0701999664 41.1615524292
52.7084426880 -28.0682983398 40.9731826782
52.7076377869 -28.0668430328 40.7849731445
52.7088890076 -28.0664749146 40.5971832275
52.7148056030 -28.0685672760 40.4103622437
52.7291297913 -28.0750923157 40.2253150940
52.7537918091 -28.0870685577 40.0424652100
52.7845458984 -28.1022567749 39.8609275818
52.8114891052 -28.1154384613 39.6786079407
52.8283157349 -28.1232833862 39.4941520691
52.8412322998 -28.1290664673 39.3088645935
52.8650093079 -28.1405754089 39.1259193420
52.9095535278 -28.1630401611 38.9474792480
52.9724960327 -28.1952056885 38.7730751038
53.0421142578 -28.2308940887 38.6001968384
53.1026077271 -28.2617702484 38.4254112244
53.1383018494 -28.2795658112 38.2452697754
53.1394119263 -28.2791233063 38.0575790405
53.1073608398 -28.2611904144 37.8625755310
53.0535316467 -28.2317733765 37.6627082825
52.9908027649 -28.1976604462 37.4607810974
52.9259643555 -28.1624336243 37.2582855225
52.8610305786 -28.1271572113 37.0556678772
52.7999725342 -28.0939254761 36.8538169861
52.7505073547 -28.0668048859 36.6544647217
52.7192344666 -28.0492801666 36.4591255188
52.7083015442 -28.0424842834 36.2683219910
52.7172431946 -28.0461692810 36.0819854736
52.7443084717 -28.0594139099 35.8997612000
52.7828063965 -28.0786895752 35.7201652527
52.8178710938 -28.0961532593 35.5398254395
52.8318443298 -28.1024932861 35.3546905518
52.8165054321 -28.0933723450 35.1628265381
52.7791213989 -28.0726242065 34.9658508301
52.7344245911 -28.0480155945 34.7671203613
52.6898269653 -28.0234603882 34.5683364868
52.6386604309 -27.9954433441 34.3679542542
52.5679283142 -27.9571018219 34.1629219055
52.4741897583 -27.9066238403 33.9524002075
52.3733444214 -27.8523960114 33.7400703430
52.2946815491 -27.8098697662 33.5328102112
52.2645912170 -27.7929649353 33.3368835449
52.2933273315 -27.8070888519 33.1548271179
52.3705978394 -27.8468170166 32.9843139648
52.4696540833 -27.8980350494 32.8190765381
52.5599670410 -27.9446430206 32.6518783569
52.6229362488 -27.9768295288 32.4782485962
52.6584739685 -27.9945449829 32.2981033325
52.6790809631 -28.0043811798 32.1143989563
52.6998939514 -28.0143299103 31.9307632446
52.7315101624 -28.0299758911 31.7497577667
52.7749099731 -28.0518379211 31.5716438293
52.8187713623 -28.0739440918 31.3936901093
52.8418579102 -28.0850906372 31.2107086182
52.8206710815 -28.0728836060 31.0169067383
52.7404747009 -28.0295429230 30.8085689545
52.6070289612 -27.9581108093 30.5869941711
52.4502792358 -27.8743858337 30.3594665527
52.3102302551 -27.7994689941 30.1358470917
52.2131576538 -27.7472209930 29.9226932526
52.1604804993 -27.7183971405 29.7204513550
52.1377983093 -27.7053966522 29.5256118774
52.1297569275 -27.7001171112 29.3343944550
52.1271247864 -27.6976928711 29.1445121765
52.1260795593 -27.6961078644 28.9550113678
52.1254119873 -27.6947193146 28.7655925751
52.1247863770 -27.6933536530 28.5761718750
52.1240692139 -27.6919403076 28.3867130280
52.1232261658 -27.6904602051 28.1972084045
52.1222648621 -27.6889171600 28.0076580048
52.1212615967 -27.6873531342 27.8180847168
52.1203384399 -27.6858310699 27.6285171509
52.1196403503 -27.6844253540 27.4389934540
52.1192817688 -27.6832008362 27.2495422363
52.1193199158 -27.6821842194 27.0601806641
52.1197319031 -27.6813659668 26.8709030151
52.1204147339 -27.6806907654 26.6816844940
52.1211967468 -27.6800651550 26.4924793243
52.1218566895 -27.6793785095 26.3032302856
52.1221885681 -27.6785182953 26.1138839722
52.1220474243 -27.6774063110 25.9244003296
52.1213951111 -27.6760253906 25.7347698212
52.1203804016 -27.6744537354 25.5450286865
52.1195259094 -27.6729660034 25.3553142548
52.1202964783 -27.6723346710 25.1660194397
52.1259269714 -27.6742687225 24.9780063629
52.1414871216 -27.6814441681 24.7926387787
52.1707992554 -27.6958732605 24.6109600067
52.2097091675 -27.7153682709 24.4318866730
52.2404174805 -27.7305355072 24.2506465912
52.2347297668 -27.7264957428 24.0596160889
52.1692390442 -27.6909008026 23.8523941040
52.0443420410 -27.6239585876 23.6289634705
51.8902435303 -27.5416049957 23.3974075317
51.7500381470 -27.4665813446 23.1694126129
51.6527862549 -27.4142246246 22.9529457092
51.6019706726 -27.3863677979 22.7490501404
51.5867996216 -27.3773250580 22.5548591614
51.6006889343 -27.3836135864 22.3686332703
51.6488609314 -27.4079933167 22.1918716431
51.7385940552 -27.4543075562 22.0266647339
51.8583984375 -27.5164928436 21.8699092865
51.9667129517 -27.5726146698 21.7101116180
52.0107612610 -27.5948200226 21.5325374603
51.9659919739 -27.5701541901 21.3301925659
51.8568420410 -27.5115127563 21.1097393036
51.7359161377 -27.4466571808 20.8858165741
51.6445045471 -27.3973751068 20.6700210571
51.5930900574 -27.3692016602 20.4653720856
51.5707321167 -27.3563632965 20.2688598633
51.5628814697 -27.3511791229 20.0764179230
51.5603675842 -27.3488121033 19.8854675293
51.5593681335 -27.3472423553 19.6949329376
51.5586891174 -27.3458442688 19.5044765472
51.5580368042 -27.3444576263 19.3140106201
51.5573196411 -27.3430385590 19.1235141754
51.5565261841 -27.3415794373 18.9329833984
51.5556640625 -27.3400821686 18.7424163818
51.5547294617 -27.3385467529 18.5518150330
51.5537147522 -27.3369712830 18.3611774445
51.5526390076 -27.3353633881 18.1705074310
51.5516471863 -27.3337974548 17.9798450470
51.5512847900 -27.3325653076 17.7893543243
51.5533409119 -27.3326091766 17.5995559692
51.5623283386 -27.3363113403 17.4117813110
51.5865783691 -27.3480663300 17.2284908295
51.6358108521 -27.3730106354 17.0525836945
51.7131462097 -27.4127883911 16.8850326538
51.8060836792 -27.4608001709 16.7221927643
51.8869094849 -27.5024223328 16.5558757782
51.9264831543 -27.5222682953 16.3773880005
51.9111862183 -27.5131549835 16.1825847626
51.8493232727 -27.4794597626 15.9738321304
51.7640266418 -27.4333972931 15.7579631805
51.6805381775 -27.3882846832 15.5425052643
51.6160011292 -27.3531761169 15.3326206207
51.5755310059 -27.3307723999 15.1298923492
51.5547637939 -27.3187675476 14.9330501556
51.5458717346 -27.3130321503 14.7397642136
51.5424575806 -27.3101863861 14.5481166840
51.5409889221 -27.3083686829 14.3570432663
51.5400123596 -27.3068103790 14.1661043167
51.5390434265 -27.3052577972 13.9751539230
51.5379829407 -27.3036537170 13.7841606140
51.5368728638 -27.3020248413 13.5931377411
51.5358924866 -27.3004627228 13.4021396637
51.5355033875 -27.2992153168 13.2113113403
51.5370559692 -27.2989921570 13.0210685730
51.5437011719 -27.3014564514 12.8323926926
51.5606193542 -27.3093414307 12.6469039917
51.5925559998 -27.3251571655 12.4661006927
51.6386756897 -27.3484611511 12.2897539139
51.6891479492 -27.3740653992 12.1148195267
51.7283287048 -27.3937053680 11.9364032745
51.7426338196 -27.4002132416 11.7502155304
51.7268981934 -27.3908634186 11.5545797348
51.6864013672 -27.3684387207 11.3510961533
51.6348114014 -27.3401603699 11.1440382004
51.5880851746 -27.3144474030 10.9384355545
51.5571746826 -27.2970848083 10.7377777100
51.5457725525 -27.2900218964 10.5432720184
51.5532493591 -27.2929248810 10.3547573090
51.5755386353 -27.3036479950 10.1709756851
51.5996932983 -27.3153553009 9.9878091812
51.6000328064 -27.3144893646 9.7970170975
51.5485382080 -27.2862586975 9.5895385742
51.4375076294 -27.2265949249 9.3627815247
51.2921829224 -27.1488208771 9.1247749329
51.1556167603 -27.0756721497 8.8893909454
51.0588569641 -27.0235404968 8.6667203903
51.0060501099 -26.9946117401 8.4581937790
50.9833946228 -26.9816036224 8.2594070435
50.9753074646 -26.9762859344 8.0653333664
50.9723663330 -26.9736862183 7.8729186058
50.9708061218 -26.9718132019 7.6809396744
50.9696655273 -26.9701633453 7.4890832901
50.9689979553 -26.9687633514 7.2973685265
50.9694938660 -26.9679794312 7.1060242653
50.9730491638 -26.9688072205 6.9156785011
50.9833488464 -26.9731979370 6.7275605202
51.0044479370 -26.9832916260 6.5430302620
51.0355033875 -26.9986400604 6.3618292809
51.0656661987 -27.0135192871 6.1803612709
51.0783767700 -27.0191841125 5.9930901527
51.0653686523 -27.0112667084 5.7972083092
51.0349082947 -26.9941349030 5.5954389572
51.0035171509 -26.9765129089 5.3933024406
50.9819488525 -26.9640731812 5.1944174767
50.9709053040 -26.9571952820 4.9990448952
50.9662551880 -26.9536895752 4.8058061600
50.9643135071 -26.9516162872 4.6134672165
50.9632949829 -26.9500293732 4.4214248657
50.9625740051 -26.9486007690 4.2294707298
50.9619789124 -26.9472370148 4.0375442505
50.9613990784 -26.9458808899 3.8456089497
50.9607658386 -26.9444980621 3.6536426544
50.9600410461 -26.9430675507 3.4616303444
50.9592094421 -26.9415779114 3.2695665359
50.9582824707 -26.9400405884 3.0774567127
50.9573020935 -26.9384708405 2.8853123188
50.9562950134 -26.9368896484 2.6931447983
50.9552803040 -26.9353065491 2.5009613037
50.9542770386 -26.9337272644 2.3087663651
50.9533042908 -26.9321632385 2.1165671349
50.9523773193 -26.9306240082 1.9243694544
50.9514274597 -26.9290714264 1.7321496010
50.9499855042 -26.9272613525 1.5397435427
50.9463310242 -26.9242801666 1.3465448618
50.9359321594 -26.9177379608 1.1509569883
50.9103088379 -26.9031562805 0.9499778152
50.8592567444 -26.8751430511 0.7399727106
50.7782707214 -26.8313217163 0.5192958117
50.6763496399 -26.7764434814 0.2910743654
50.5746536255 -26.7216815948 0.0627767295
-3.5471658707 -55.2411117554 93.3228836060
-3.5529448986 -55.2888031006 93.1385421753
-3.5611722469 -55.3606185913 92.9547882080
-3.5690331459 -55.4288253784 92.7710189819
-3.5748834610 -55.4772262573 92.5868682861
-3.5787513256 -55.5060997009 92.4023056030
-3.5818295479 -55.5271911621 92.2175674438
-3.5859837532 -55.5588836670 92.0331115723
-3.5935051441 -55.6237602234 91.8495407104
-3.6063115597 -55.7407188416 91.6674118042
-3.6242911816 -55.9086647034 91.4867935181
-3.6442973614 -56.0965957642 91.3069229126
-3.6615204811 -56.2571067810 91.1264953613
-3.6723642349 -56.3547592163 90.9444503784
-3.6761527061 -56.3828735352 90.7604675293
-3.6746706963 -56.3590469360 90.5749435425
-3.6707315445 -56.3110008240 90.3886260986
-3.6668570042 -56.2635841370 90.2022628784
-3.6644251347 -56.2303848267 90.0162887573
-3.6634953022 -56.2119903564 89.8307342529
-3.6632161140 -56.2000083923 89.6453628540
-3.6622607708 -56.1813583374 89.4597396851
-3.6590728760 -56.1407012939 89.2733154297
-3.6524693966 -56.0663642883 89.0856552124
-3.6428637505 -55.9624214172 88.8968276978
-3.6331617832 -55.8575248718 88.7078323364
-3.6279418468 -55.7968139648 88.5203170776
-3.6309773922 -55.8174934387 88.3357772827
-3.6428010464 -55.9248275757 88.1545639038
-3.6600763798 -56.0859260559 87.9755630493
-3.6773884296 -56.2473945618 87.7967681885
-3.6904044151 -56.3665046692 87.6164627075
-3.6983249187 -56.4353790283 87.4342498779
-3.7040894032 -56.4829902649 87.2512283325
-3.7121877670 -56.5536231995 87.0692291260
-3.7252261639 -56.6729774475 86.8893737793
-3.7417008877 -56.8262329102 86.7111206055
-3.7571272850 -56.9691581726 86.5326004028
-3.7673780918 -57.0610427856 86.3519744873
-3.7708821297 -57.0863838196 86.1684494019
-3.7685232162 -57.0538978577 85.9822998047
-3.7627465725 -56.9876899719 85.7945404053
-3.7566614151 -56.9184417725 85.6065368652
-3.7527265549 -56.8703956604 85.4194488525
-3.7515881062 -56.8499336243 85.2336196899
-3.7522428036 -56.8471603394 85.0486145020
-3.7531402111 -56.8467788696 84.8637084961
-3.7528171539 -56.8343582153 84.6781921387
-3.7498495579 -56.7958450317 84.4913253784
-3.7431094646 -56.7201042175 84.3024902344
-3.7327690125 -56.6088371277 84.1116943359
-3.7209627628 -56.4830970764 83.9199905396
-3.7108674049 -56.3742256165 83.7290115356
-3.7048723698 -56.3058128357 83.5400619507
-3.7038094997 -56.2860679626 83.3536758423
-3.7077181339 -56.3153839111 83.1699523926
-3.7165780067 -56.3935623169 82.9889755249
-3.7299420834 -56.5161972046 82.8105926514
-3.7465448380 -56.6708030701 82.6341705322
-3.7650821209 -56.8445091248 82.4590377808
-3.7849943638 -57.0317993164 82.2848968506
-3.8053367138 -57.2233467102 82.1112289429
-3.8229663372 -57.3881263733 81.9361953735
-3.8333353996 -57.4812507629 81.7570495605
-3.8339145184 -57.4777374268 81.5721435547
-3.8263156414 -57.3934936523 81.3822631836
-3.8147902489 -57.2704849243 81.1898574829
-3.8032689095 -57.1475028992 80.9972915649
-3.7939646244 -57.0464019775 80.8059387207
-3.7876756191 -56.9750671387 80.6163558960
-3.7843196392 -56.9326820374 80.4285354614
-3.7832131386 -56.9125022888 80.2420959473
-3.7834260464 -56.9053497314 80.0564804077
-3.7841217518 -56.9029655457 79.8711624146
-3.7845828533 -56.8982620239 79.6856689453
-3.7839159966 -56.8824234009 79.4994049072
-3.7808747292 -56.8431320190 79.3115081787
-3.7743864059 -56.7697944641 79.1212081909
-3.7648320198 -56.6661758423 78.9286956787
-3.7549610138 -56.5594253540 78.7358169556
-3.7490110397 -56.4913902283 78.5455398560
-3.7502887249 -56.4947319031 78.3602600098
-3.7592468262 -56.5739326477 78.1804351807
-3.7738356590 -56.7087554932 78.0047454834
-3.7917346954 -56.8762855530 77.8316040039
-3.8119680882 -57.0668792725 77.6603698730
-3.8339953423 -57.2752037048 77.4906845093
-3.8556573391 -57.4799385071 77.3209838867
-3.8729622364 -57.6416358948 77.1482543945
-3.8818347454 -57.7200431824 76.9693603516
-3.8795883656 -57.6886062622 76.7820816040
-3.8657991886 -57.5431251526 76.5858993530
-3.8437397480 -57.3159255981 76.3831176758
-3.8207459450 -57.0794830322 76.1793136597
-3.8046441078 -56.9111213684 75.9806137085
-3.7983465195 -56.8396186829 75.7894592285
-3.7983703613 -56.8305778503 75.6032562256
-3.7985563278 -56.8231353760 75.4171524048
-3.7945823669 -56.7745857239 75.2276611328
-3.7858607769 -56.6791152954 75.0342102051
-3.7749032974 -56.5615463257 74.8387832642
-3.7653317451 -56.4576606750 74.6443557739
-3.7598621845 -56.3943099976 74.4532089233
-3.7597360611 -56.3837661743 74.2664718628
-3.7655806541 -56.4322357178 74.0847778320
-3.7778234482 -56.5439414978 73.9085998535
-3.7956426144 -56.7107772827 73.7373504639
-3.8161251545 -56.9039497375 73.5686111450
-3.8357443810 -57.0885963440 73.3993453979
-3.8531477451 -57.2513542175 73.2283554077
-3.8698427677 -57.4071159363 73.0569305420
-3.8875305653 -57.5727043152 72.8865737915
-3.9049038887 -57.7351913452 72.7161407471
-3.9174079895 -57.8495483398 72.5414886475
-3.9202079773 -57.8679695129 72.3581314087
-3.9115767479 -57.7733688354 72.1642990112
-3.8941936493 -57.5922317505 71.9622573853
-3.8738508224 -57.3818130493 71.7572250366
-3.8564467430 -57.2004432678 71.5546646118
-3.8451640606 -57.0795860291 71.3576278687
-3.8398046494 -57.0172996521 71.1660461426
-3.8383357525 -56.9934806824 70.9780883789
-3.8388311863 -56.9890823364 70.7919692993
-3.8403408527 -56.9947166443 70.6068191528
-3.8427269459 -57.0090179443 70.4225158691
-3.8458304405 -57.0304145813 70.2389297485
-3.8483154774 -57.0456962585 70.0547409058
-3.8474006653 -57.0273513794 69.8671875000
-3.8410243988 -56.9549789429 69.6741409302
-3.8310573101 -56.8470878601 69.4773941040
-3.8232312202 -56.7603683472 69.2826538086
-3.8225820065 -56.7446327209 69.0951004028
-3.8294241428 -56.8030090332 68.9151763916
-3.8403136730 -56.9014244080 68.7394790649
-3.8518767357 -57.0065078735 68.5645980835
-3.8628475666 -57.1057395935 68.3892135620
-3.8734705448 -57.2015342712 68.2135848999
-3.8843846321 -57.3002166748 68.0383758545
-3.8957767487 -57.4036331177 67.8637771606
-3.9060034752 -57.4955253601 67.6880569458
-3.9106278419 -57.5319900513 67.5064315796
-3.9044082165 -57.4611473083 67.3131256104
-3.8861014843 -57.2706947327 67.1065979004
-3.8614261150 -57.0172042847 66.8928604126
-3.8401541710 -56.7973823547 66.6825256348
-3.8294551373 -56.6821784973 66.4835815430
-3.8294980526 -56.6732749939 66.2964096069
-3.8344800472 -56.7132530212 66.1147384644
-3.8373320103 -56.7321548462 65.9307174683
-3.8343434334 -56.6932487488 65.7401046753
-3.8266887665 -56.6081504822 65.5441284180
-3.8182895184 -56.5156784058 65.3471832275
-3.8124544621 -56.4485816956 65.1530532837
-3.8103237152 -56.4181518555 64.9631042480
-3.8117387295 -56.4228134155 64.7772216797
-3.8166744709 -56.4623336792 64.5954437256
-3.8254463673 -56.5398330688 64.4182128906
-3.8376121521 -56.6509361267 64.2450637817
-3.8511016369 -56.7751502991 64.0736160278
-3.8629424572 -56.8830490112 63.9003524780
-3.8709137440 -56.9526405334 63.7225723267
-3.8742301464 -56.9761466980 63.5392570496
-3.8728382587 -56.9530334473 63.3502578735
-3.8668892384 -56.8847961426 63.1556663513
-3.8574130535 -56.7816200256 62.9566612244
-3.8471286297 -56.6704368591 62.7565193176
-3.8397731781 -56.5882492065 62.5598449707
-3.8381729126 -56.5630531311 62.3702049255
-3.8428494930 -56.6000213623 62.1883621216
-3.8520965576 -56.6822509766 62.0122947693
-3.8629217148 -56.7801208496 61.8383102417
-3.8719830513 -56.8605232239 61.6622009277
-3.8763709068 -56.8946418762 61.4802246094
-3.8746016026 -56.8677711487 61.2903976440
-3.8677241802 -56.7903022766 61.0939521790
-3.8596220016 -56.7006912231 60.8958091736
-3.8553698063 -56.6492156982 60.7025451660
-3.8579270840 -56.6651954651 60.5180931091
-3.8658447266 -56.7342796326 60.3406829834
-3.8748602867 -56.8142433167 60.1647987366
-3.8821754456 -56.8773651123 59.9867515564
-3.8882839680 -56.9285316467 59.8071632385
-3.8944470882 -56.9802474976 59.6277046204
-3.9002349377 -57.0282440186 59.4477920532
-3.9044117928 -57.0602836609 59.2657546997
-3.9068281651 -57.0748786926 59.0813598633
-3.9086892605 -57.0839691162 58.8962135315
-3.9119503498 -57.1069374084 58.7129859924
-3.9189507961 -57.1669616699 58.5349159241
-3.9316239357 -57.2832031250 58.3647460938
-3.9498012066 -57.4540023804 58.2023506165
-3.9702539444 -57.6473655701 58.0433311462
-3.9882802963 -57.8166923523 57.8811454773
-4.0007734299 -57.9311828613 57.7113838196
-4.0077085495 -57.9905929565 57.5339050293
-4.0110158920 -58.0140457153 57.3513374329
-4.0126752853 -58.0211677551 57.1664428711
-4.0137548447 -58.0225410461 56.9807128906
-4.0143771172 -58.0193786621 56.7943153381
-4.0138859749 -58.0051765442 56.6062927246
-4.0110487938 -57.9677162170 56.4148368835
-4.0047030449 -57.8954734802 56.2182083130
-3.9949035645 -57.7889785767 56.0164222717
-3.9835519791 -57.6670875549 55.8122100830
-3.9733829498 -57.5569190979 55.6095733643
-3.9659640789 -57.4740066528 55.4108619690
-3.9606807232 -57.4122619629 55.2152137756
-3.9555418491 -57.3519477844 55.0196876526
-3.9486753941 -57.2744979858 54.8214797974
-3.9391400814 -57.1705780029 54.6191406250
-3.9269440174 -57.0402603149 54.4126243591
-3.9130349159 -56.8929519653 54.2033309937
-3.8993763924 -56.7481155396 53.9942169189
-3.8883090019 -56.6289634705 53.7888793945
-3.8812313080 -56.5493774414 53.5895156860
-3.8779234886 -56.5071792603 53.3958663940
-3.8771915436 -56.4905242920 53.2061500549
-3.8779883385 -56.4890327454 53.0187835693
-3.8800859451 -56.5004425049 52.8334350586
-3.8841431141 -56.5312881470 52.6511688232
-3.8912270069 -56.5921630859 52.4737014771
-3.9017479420 -56.6871376038 52.3017425537
-3.9143326283 -56.8025932312 52.1331748962
-3.9257216454 -56.9061889648 51.9628334045
-3.9321453571 -56.9605293274 51.7846527100
-3.9313497543 -56.9432487488 51.5949211121
-3.9239728451 -56.8606681824 51.3945198059
-3.9134020805 -56.7463874817 51.1888275146
-3.9040615559 -56.6443099976 50.9849777222
-3.8993413448 -56.5880699158 50.7885360718
-3.9007415771 -56.5925598145 50.6020507813
-3.9082171917 -56.6573371887 50.4255638123
-3.9204599857 -56.7694282532 50.2570266724
-3.9349977970 -56.9043045044 50.0924301147
-3.9490599632 -57.0344619751 49.9272003174
-3.9608392715 -57.1419715881 49.7583084106
-3.9697475433 -57.2209968567 49.5847244263
-3.9758498669 -57.2721748352 49.4064979553
-3.9800586700 -57.3045578003 49.2251243591
-3.9848318100 -57.3425483704 49.0447425842
-3.9931640625 -57.4158630371 48.8704566956
-4.0054621696 -57.5285568237 48.7030334473
-4.0175805092 -57.6394691467 48.5354385376
-4.0232996941 -57.6868591309 48.3569450378
-4.0197677612 -57.6424140930 48.1625022888
-4.0106549263 -57.5425567627 47.9583091736
-4.0038371086 -57.4654808044 47.7579689026
-4.0058197975 -57.4757728577 47.5729064941
-4.0174775124 -57.5821304321 47.4048194885
-4.0337438583 -57.7342491150 47.2449722290
-4.0465745926 -57.8522644043 47.0792350769
-4.0487465858 -57.8644523621 46.8947372437
-4.0367212296 -57.7356529236 46.6849670410
-4.0123171806 -57.4839248657 46.4529075623
-3.9825882912 -57.1792945862 46.2109680176
-3.9566171169 -56.9119682312 45.9753875732
-3.9407470226 -56.7449378967 45.7576904297
-3.9362490177 -56.6908416748 45.5603675842
-3.9407324791 -56.7259445190 45.3792953491
-3.9506640434 -56.8151588440 45.2081947327
-3.9628086090 -56.9263648987 45.0412483215
-3.9748637676 -57.0366859436 44.8742713928
-3.9859898090 -57.1377830505 44.7057075500
-3.9967813492 -57.2355651855 44.5366401672
-4.0076398849 -57.3340187073 44.3678131104
-4.0162734985 -57.4103736877 44.1949577332
-4.0176048279 -57.4141883850 44.0085334778
-4.0081133842 -57.3104820251 43.8018112183
-3.9907393456 -57.1284484863 43.5801086426
-3.9741132259 -56.9538383484 43.3595733643
-3.9662177563 -56.8659629822 43.1553421021
-3.9691500664 -56.8856658936 42.9715690613
-3.9795594215 -56.9796638489 42.8020668030
-3.9930040836 -57.1038284302 42.6384849548
-4.0076704025 -57.2401428223 42.4773941040
-4.0244832039 -57.3977928162 42.3205986023
-4.0441684723 -57.5839996338 42.1695480347
-4.0646891594 -57.7785186768 42.0203399658
-4.0818247795 -57.9394111633 41.8647880554
-4.0917739868 -58.0288887024 41.6954040527
-4.0926985741 -58.0286674500 41.5084457397
-4.0846562386 -57.9393310547 41.3038635254
-4.0695800781 -57.7800712585 41.0852890015
-4.0512981415 -57.5889358521 40.8601608276
-4.0339622498 -57.4071922302 40.6366500854
-4.0194349289 -57.2533493042 40.4184837341
-4.0066542625 -57.1168670654 40.2035980225
-3.9939856529 -56.9814872742 39.9887466431
-3.9817755222 -56.8506546021 39.7746276855
-3.9722933769 -56.7469329834 39.5658302307
-3.9675865173 -56.6906852722 39.3665428162
-3.9677529335 -56.6828842163 39.1770553589
-3.9708609581 -56.7043266296 38.9935340881
-3.9740645885 -56.7267227173 38.8102188110
-3.9752082825 -56.7286376953 38.6227073669
-3.9739842415 -56.7070083618 38.4303169250
-3.9716765881 -56.6745986938 38.2356605530
-3.9697844982 -56.6463203430 38.0418052673
-3.9689807892 -56.6288642883 37.8501586914
-3.9692363739 -56.6219406128 37.6606788635
-3.9705162048 -56.6252021790 37.4733161926
-3.9732360840 -56.6427841187 37.2889556885
-3.9780132771 -56.6808319092 37.1089286804
-3.9846448898 -56.7373237610 36.9328384399
-3.9911656380 -56.7927169800 36.7565727234
-3.9946174622 -56.8175849915 36.5738716125
-3.9935305119 -56.7973060608 36.3815460205
-3.9893712997 -56.7464637756 36.1826362610
-3.9850614071 -56.6941184998 35.9833259583
-3.9824950695 -56.6591186523 35.7876739502
-3.9817879200 -56.6426086426 35.5959625244
-3.9821918011 -56.6371498108 35.4066123962
-3.9830415249 -56.6361274719 35.2182083130
-3.9840157032 -56.6363372803 35.0300598145
-3.9850139618 -56.6367912292 34.8419494629
-3.9860231876 -56.6373519897 34.6538543701
-3.9870479107 -56.6380691528 34.4657821655
-3.9881126881 -56.6391830444 34.2777862549
-3.9892814159 -56.6413307190 34.0900077820
-3.9906909466 -56.6458702087 33.9027519226
-3.9925637245 -56.6550254822 33.7165145874
-3.9951074123 -56.6708564758 33.5317649841
-3.9982135296 -56.6922836304 33.3482780457
-4.0011906624 -56.7124290466 33.1645202637
-4.0030431747 -56.7213783264 32.9782524109
-4.0032839775 -56.7142944336 32.7883682251
-4.0024099350 -56.6961021423 32.5959510803
-4.0014214516 -56.6767730713 32.4032363892
-4.0010132790 -56.6632232666 32.2118034363
-4.0013012886 -56.6565971375 32.0219192505
-4.0020833015 -56.6548881531 31.8331432343
-4.0031433105 -56.6559448242 31.6449851990
-4.0043563843 -56.6585311890 31.4571685791
-4.0056686401 -56.6620979309 31.2695693970
-4.0070533752 -56.6663894653 31.0821304321
-4.0084829330 -56.6711235046 30.8947868347
-4.0099196434 -56.6759262085 30.7074546814
-4.0113201141 -56.6803741455 30.5200309753
-4.0126461983 -56.6840820313 30.3324298859
-4.0138716698 -56.6867790222 30.1445846558
-4.0149855614 -56.6883735657 29.9564704895
-4.0160079002 -56.6890525818 29.7681312561
-4.0170202255 -56.6896324158 29.5797557831
-4.0182309151 -56.6921844482 29.3918380737
-4.0200552940 -56.7008476257 29.2053642273
-4.0231089592 -56.7217559814 29.0218086243
-4.0278949738 -56.7599220276 28.8423919678
-4.0341873169 -56.8130874634 28.6666088104
-4.0406246185 -56.8677024841 28.4912281036
-4.0451583862 -56.9033584595 28.3113365173
-4.0462484360 -56.9047164917 28.1231937408
-4.0438823700 -56.8716430664 27.9266986847
-4.0395913124 -56.8193893433 27.7254924774
-4.0354528427 -56.7686500549 27.5245761871
-4.0329413414 -56.7341156006 27.3275375366
-4.0326008797 -56.7212142944 27.1357383728
-4.0347018242 -56.7326278687 26.9498806000
-4.0400042534 -56.7759437561 26.7718734741
-4.0496349335 -56.8623847961 26.6045475006
-4.0639343262 -56.9953575134 26.4488296509
-4.0813975334 -57.1598587036 26.3010883331
-4.0989928246 -57.3256874084 26.1538734436
-4.1136727333 -57.4624748230 25.9996204376
-4.1236195564 -57.5521049500 25.8337459564
-4.1282620430 -57.5888748169 25.6547317505
-4.1276040077 -57.5728187561 25.4624824524
-4.1219849586 -57.5073204041 25.2577533722
-4.1124887466 -57.4031791687 25.0431709290
-4.1011519432 -57.2806739807 24.8237972260
-4.0905747414 -57.1657409668 24.6061744690
-4.0835843086 -57.0865478516 24.3974857330
-4.0828328133 -57.0695419312 24.2045402527
-4.0894832611 -57.1263198853 24.0304222107
-4.1016354561 -57.2379417419 23.8704204559
-4.1143393517 -57.3550682068 23.7119636536
-4.1217007637 -57.4189491272 23.5399303436
-4.1198463440 -57.3909492493 23.3442440033
-4.1090378761 -57.2736740112 23.1254024506
-4.0935430527 -57.1096725464 22.8942737579
-4.0790042877 -56.9551849365 22.6653995514
-4.0691232681 -56.8471336365 22.4484233856
-4.0644502640 -56.7910079956 22.2448692322
-4.0638217926 -56.7751998901 22.0517959595
-4.0665535927 -56.7929077148 21.8674926758
-4.0734081268 -56.8517189026 21.6940250397
-4.0856714249 -56.9644813538 21.5348587036
-4.1030840874 -57.1286010742 21.3894138336
-4.1225495338 -57.3132019043 21.2495994568
-4.1392641068 -57.4703826904 21.1027183533
-4.1492090225 -57.5600509644 20.9380340576
-4.1504616737 -57.5630226135 20.7502918243
-4.1430182457 -57.4792594910 20.5393142700
-4.1287784576 -57.3276977539 20.3100185394
-4.1117119789 -57.1479263306 20.0729274750
-4.0965819359 -56.9874610901 19.8408012390
-4.0865588188 -56.8779296875 19.6222267151
-4.0822291374 -56.8251914978 19.4188880920
-4.0829143524 -56.8224754333 19.2290592194
-4.0882563591 -56.8662261963 19.0518646240
-4.0978579521 -56.9524688721 18.8863124847
-4.1093583107 -57.0576629639 18.7260417938
-4.1180248260 -57.1345939636 18.5581436157
-4.1199593544 -57.1443481445 18.3718700409
-4.1162419319 -57.0977096558 18.1700630188
-4.1130080223 -57.0558967590 17.9695148468
-4.1167082787 -57.0832710266 17.7880496979
-4.1291685104 -57.1980628967 17.6308555603
-4.1467547417 -57.3640213013 17.4880237579
-4.1636657715 -57.5232505798 17.3435153961
-4.1759734154 -57.6365509033 17.1863708496
-4.1831140518 -57.6982803345 17.0149211884
-4.1865301132 -57.7228431702 16.8331108093
-4.1876311302 -57.7243003845 16.6448211670
-4.1868686676 -57.7071533203 16.4512786865
-4.1840696335 -57.6696777344 16.2519588470
-4.1792378426 -57.6119079590 16.0468311310
-4.1729149818 -57.5392456055 15.8373908997
-4.1657328606 -57.4580039978 15.6254062653
-4.1579594612 -57.3708534241 15.4116201401
-4.1502261162 -57.2840957642 15.1978225708
-4.1448335648 -57.2206993103 14.9905910492
-4.1452975273 -57.2157745361 14.8000469208
-4.1533951759 -57.2870674133 14.6314086914
-4.1666312218 -57.4096679688 14.4776401520
-4.1794176102 -57.5277824402 14.3227205276
-4.1870408058 -57.5943527222 14.1530151367
-4.1884493828 -57.5988693237 13.9653749466
-4.1858224869 -57.5630874634 13.7660064697
-4.1822543144 -57.5178985596 13.5638389587
-4.1798348427 -57.4841766357 13.3649511337
-4.1792211533 -57.4684906006 13.1712884903
-4.1803550720 -57.4702529907 12.9827127457
-4.1832547188 -57.4896545410 12.7993135452
-4.1881041527 -57.5285339355 12.6216669083
-4.1946830750 -57.5846824646 12.4491586685
-4.2019186020 -57.6473999023 12.2786540985
-4.2082157135 -57.7007446289 12.1054382324
-4.2122411728 -57.7313957214 11.9255332947
-4.2133450508 -57.7328681946 11.7369623184
-4.2115068436 -57.7049407959 11.5396051407
-4.2073478699 -57.6538314819 11.3352632523
-4.2022104263 -57.5929412842 11.1279106140
-4.1977386475 -57.5387001038 10.9224653244
-4.1951260567 -57.5030250549 10.7225303650
-4.1949124336 -57.4913253784 10.5297698975
-4.1976613998 -57.5092163086 10.3459320068
-4.2046108246 -57.5690841675 10.1748247147
-4.2171173096 -57.6844863892 10.0206470490
-4.2348937988 -57.8525581360 9.8826332092
-4.2549014091 -58.0429306030 9.7516250610
-4.2726712227 -58.2109565735 9.6140193939
-4.2849936485 -58.3245544434 9.4599485397
-4.2910571098 -58.3756027222 9.2868156433
-4.2912030220 -58.3675117493 9.0955486298
-4.2854423523 -58.3003807068 8.8860664368
-4.2737684250 -58.1741409302 8.6582298279
-4.2577238083 -58.0042076111 8.4166984558
-4.2409286499 -57.8267593384 8.1726055145
-4.2274360657 -57.6823120117 7.9385275841
-4.2195653915 -57.5940513611 7.7217483521
-4.2175250053 -57.5640716553 7.5230274200
-4.2207503319 -57.5867309570 7.3407158852
-4.2288131714 -57.6577568054 7.1735744476
-4.2407989502 -57.7680015564 7.0188255310
-4.2544445992 -57.8948516846 6.8694300652
-4.2667593956 -58.0084075928 6.7159943581
-4.2757282257 -58.0885086060 6.5521249771
-4.2811913490 -58.1335601807 6.3772525787
-4.2841987610 -58.1540603638 6.1946377754
-4.2858986855 -58.1614875793 6.0078830719
-4.2870097160 -58.1630249023 5.8192496300
-4.2878608704 -58.1619644165 5.6297769547
-4.2885560989 -58.1593399048 5.4397921562
-4.2889962196 -58.1541633606 5.2489724159
-4.2887725830 -58.1423492432 5.0560040474
-4.2871446609 -58.1164894104 4.8584895134
-4.2835016251 -58.0704689026 4.6544313431
-4.2784214020 -58.0100746155 4.4456596375
-4.2744369507 -57.9606323242 4.2403421402
-4.2750763893 -57.9574394226 4.0499453545
-4.2822794914 -58.0199089050 3.8808648586
-4.2945647240 -58.1332168579 3.7284033298
-4.3079628944 -58.2576637268 3.5797080994
-4.3187246323 -58.3557434082 3.4225432873
-4.3250842094 -58.4097938538 3.2510735989
-4.3269462585 -58.4188385010 3.0648963451
-4.3247084618 -58.3868713379 2.8652338982
-4.3187637329 -58.3178062439 2.6533002853
-4.3097786903 -58.2183227539 2.4312241077
-4.2988390923 -58.0992660522 2.2025361061
-4.2869491577 -57.9706954956 1.9705309868
-4.2744255066 -57.8357734680 1.7362390757
-4.2610530853 -57.6923484802 1.4989321232
-4.2469573021 -57.5416717529 1.2590123415
-4.2330513000 -57.3928871155 1.0195186138
-4.2204380035 -57.2570266724 0.7841440439
-4.2096815109 -57.1397438049 0.5548094511
-4.2008299828 -57.0415191650 0.3317113817
