52.0864868164 17.3630542755 15.8129091263
52.1224555969 17.3728961945 15.6327323914
52.1474037170 17.3794174194 15.4493551254
52.1607742310 17.3824443817 15.2625904083
52.1675796509 17.3834953308 15.0738964081
52.1723365784 17.3839263916 14.8845920563
52.1771430969 17.3843727112 14.6952953339
52.1822471619 17.3849086761 14.5060815811
52.1869964600 17.3853378296 14.3167552948
52.1906089783 17.3854236603 14.1270847321
52.1926536560 17.3850383759 13.9369373322
52.1932983398 17.3842296600 13.7463598251
52.1932067871 17.3831996918 13.5555505753
52.1933059692 17.3822269440 13.3647842407
52.1946754456 17.3816356659 13.1743888855
52.1997070313 17.3821487427 12.9850902557
52.2156257629 17.3859462738 12.7990827560
52.2600288391 17.3983345032 12.6217317581
52.3624229431 17.4282093048 12.4620723724
52.5505599976 17.4839458466 12.3286838531
52.8220405579 17.5648174286 12.2210035324
53.1280097961 17.6560916901 12.1242351532
53.3959236145 17.7358913422 12.0161819458
53.5738639832 17.7885589600 11.8807973862
53.6497802734 17.8104553223 11.7141857147
53.6339950562 17.8046951294 11.5193319321
53.5392875671 17.7751331329 11.3000097275
53.3844604492 17.7274360657 11.0618944168
53.2056121826 17.6724929810 10.8160896301
53.0476875305 17.6238594055 10.5765542984
52.9399299622 17.5903568268 10.3524627686
52.8832702637 17.5722656250 10.1442031860
52.8604774475 17.5643901825 9.9464778900
52.8535118103 17.5612850189 9.7536830902
52.8517837524 17.5597610474 9.5625152588
52.8512878418 17.5586109161 9.3717222214
52.8511695862 17.5575733185 9.1810350418
52.8514175415 17.5566444397 8.9904499054
52.8519210815 17.5557937622 8.7999343872
52.8524971008 17.5549640656 8.6094303131
52.8532867432 17.5541992188 8.4189815521
52.8557929993 17.5539531708 8.2290706635
52.8649177551 17.5557041168 8.0412693024
52.8919181824 17.5628452301 7.8592052460
52.9549026489 17.5808429718 7.6887369156
53.0703468323 17.6146678925 7.5352487564
53.2353782654 17.6634502411 7.3979163170
53.4167785645 17.7171726227 7.2660899162
53.5634193420 17.7604103088 7.1232204437
53.6347427368 17.7809276581 6.9560575485
53.6201782227 17.7755336761 6.7610101700
53.5370674133 17.7494583130 6.5435624123
53.4146080017 17.7115116119 6.3131256104
53.2788238525 17.6695442200 6.0781455040
53.1490707397 17.6293945313 5.8449516296
53.0415649414 17.5959568024 5.6188912392
52.9673881531 17.5725746155 5.4036593437
52.9265747070 17.5592556000 5.1993374825
52.9093437195 17.5530548096 5.0027532578
52.9041900635 17.5504951477 4.8101391792
52.9036483765 17.5493297577 4.6190381050
52.9045982361 17.5486106873 4.4284195900
52.9062995911 17.5481204987 4.2380394936
52.9094696045 17.5480728149 4.0481419563
52.9169883728 17.5493373871 3.8596906662
52.9359283447 17.5540485382 3.6750712395
52.9781913757 17.5657978058 3.4983093739
53.0549736023 17.5879631042 3.3332245350
53.1645240784 17.6200141907 3.1792933941
53.2827072144 17.6546745300 3.0284185410
53.3687858582 17.6796455383 2.8668041229
53.3864135742 17.6839618683 2.6820406914
53.3263969421 17.6648483276 2.4708611965
53.2145690918 17.6300983429 2.2419192791
53.0960960388 17.5933437347 2.0105457306
53.0068321228 17.5654010773 1.7889991999
52.9565315247 17.5492172241 1.5806869268
52.9350852966 17.5417404175 1.3822114468
52.9282112122 17.5386600494 1.1887136698
52.9266357422 17.5371799469 0.9970209599
52.9265365601 17.5361461639 0.8058244586
52.9270210266 17.5352859497 0.6148163676
52.9281158447 17.5346126556 0.4240089953
52.9297447205 17.5340976715 0.2333744764
52.9309577942 17.5334587097 0.0425858013
12.0807037354 50.8690528870 94.3282089233
12.0857877731 50.8956527710 94.1396179199
12.0956029892 50.9431457520 93.9513168335
12.1065759659 50.9957504272 93.7631378174
12.1137409210 51.0315399170 93.5747680664
12.1125087738 51.0302352905 93.3858642578
12.1007337570 50.9823722839 93.1962280273
12.0804033279 50.8967208862 93.0058975220
12.0572805405 50.7987480164 92.8152465820
12.0376768112 50.7163124084 92.6247329712
12.0251932144 50.6653251648 92.4346771240
12.0208778381 50.6504135132 92.2452163696
12.0263767242 50.6788444519 92.0565719604
12.0460615158 50.7699241638 91.8691864014
12.0843372345 50.9431076050 91.6835937500
12.1389608383 51.1884727478 91.4997253418
12.1975851059 51.4514999390 91.3165359497
12.2439317703 51.6603050232 91.1324386597
12.2685995102 51.7733688354 90.9463806152
12.2730274200 51.7970581055 90.7583389282
12.2642774582 51.7625541687 90.5689086914
12.2488451004 51.6985397339 90.3786849976
12.2308702469 51.6233062744 90.1880874634
12.2126073837 51.5468025208 89.9973602295
12.1947145462 51.4719352722 89.8065643311
12.1771411896 51.3984756470 89.6156997681
12.1606473923 51.3297882080 89.4248657227
12.1469898224 51.2736282349 89.2342987061
12.1374721527 51.2357482910 89.0441818237
12.1318492889 51.2150650024 88.8545074463
12.1287965775 51.2057304382 88.6651535034
12.1269874573 51.2018890381 88.4759368896
12.1256484985 51.2001190186 88.2867660522
12.1245183945 51.1992759705 88.0976181030
12.1237916946 51.2002105713 87.9085083008
12.1244220734 51.2071418762 87.7195968628
12.1287984848 51.2306060791 87.5312347412
12.1408987045 51.2881736755 87.3440704346
12.1644258499 51.3961830139 87.1587448120
12.1988220215 51.5521736145 86.9752578735
12.2366256714 51.7232017517 86.7925033569
12.2658758163 51.8564720154 86.6085433960
12.2761526108 51.9059753418 86.4215698242
12.2634468079 51.8540229797 86.2307662964
12.2317380905 51.7181892395 86.0366210938
12.1914463043 51.5444679260 85.8407974243
12.1545581818 51.3857765198 85.6453552246
12.1285657883 51.2751884460 85.4516601563
12.1140346527 51.2151908875 85.2599182129
12.1072435379 51.1893615723 85.0695190430
12.1041774750 51.1799774170 84.8797760010
12.1024188995 51.1763648987 84.6902618408
12.1009855270 51.1741867065 84.5007934570
12.0996141434 51.1722831726 84.3113174438
12.0982837677 51.1705627441 84.1218338013
12.0970191956 51.1691322327 83.9323577881
12.0958366394 51.1680603027 83.7428741455
12.0947132111 51.1672554016 83.5533981323
12.0936002731 51.1664924622 83.3639068604
12.0924434662 51.1655387878 83.1743927002
12.0912160873 51.1642723083 82.9848480225
12.0899229050 51.1627159119 82.7952728271
12.0885963440 51.1610107422 82.6056823730
12.0872812271 51.1593627930 82.4160766602
12.0860185623 51.1579399109 82.2264709473
12.0848283768 51.1568412781 82.0368652344
12.0837116241 51.1560630798 81.8472595215
12.0826492310 51.1555290222 81.6576614380
12.0816059113 51.1550788879 81.4680480957
12.0805387497 51.1545219421 81.2784194946
12.0794038773 51.1536674500 81.0887603760
12.0781898499 51.1524620056 80.8990631104
12.0769367218 51.1510887146 80.7093505859
12.0758581161 51.1504821777 80.5196609497
12.0755805969 51.1534118652 80.3301620483
12.0774908066 51.1659965515 80.1412200928
12.0836343765 51.1972618103 79.9533691406
12.0953445435 51.2530822754 79.7669982910
12.1108865738 51.3258171082 79.5816955566
12.1245479584 51.3902435303 79.3959655762
12.1294250488 51.4159164429 79.2079391479
12.1223764420 51.3889694214 79.0166854858
12.1065025330 51.3230857849 78.8229675293
12.0886631012 51.2485275269 78.6286087036
12.0745477676 51.1904106140 78.4351882935
12.0659246445 51.1565208435 78.2432403564
12.0616378784 51.1417617798 78.0524749756
12.0602245331 51.1396827698 77.8625030518
12.0618124008 51.1508522034 77.6733932495
12.0687379837 51.1855621338 77.4858551025
12.0846643448 51.2599792480 77.3010101318
12.1116819382 51.3833274841 77.1195526123
12.1464614868 51.5409126282 76.9405822754
12.1790790558 51.6889572144 76.7611389160
12.1969709396 51.7720336914 76.5773391724
12.1919460297 51.7540206909 76.3865280151
12.1653079987 51.6406631470 76.1889266968
12.1273546219 51.4773979187 75.9876098633
12.0911855698 51.3220024109 75.7866439819
12.0652723312 51.2118530273 75.5887680054
12.0506782532 51.1516342163 75.3944015503
12.0438728333 51.1257781982 75.2024841309
12.0409135818 51.1168861389 75.0117950439
12.0394039154 51.1143913269 74.8215560913
12.0383291245 51.1138114929 74.6314468384
12.0373439789 51.1136245728 74.4413604736
12.0363216400 51.1132812500 74.2512435913
12.0351991653 51.1124916077 74.0610809326
12.0339565277 51.1111717224 73.8708648682
12.0326128006 51.1094093323 73.6805953979
12.0312128067 51.1073989868 73.4902954102
12.0298099518 51.1053733826 73.2999801636
12.0284461975 51.1035194397 73.1096649170
12.0271425247 51.1019363403 72.9193496704
12.0259017944 51.1006240845 72.7290496826
12.0247039795 51.0995101929 72.5387496948
12.0235176086 51.0984420776 72.3484344482
12.0223083496 51.0972709656 72.1581039429
12.0210494995 51.0958862305 71.9677352905
12.0197343826 51.0942497253 71.7773361206
12.0183696747 51.0923995972 71.5869064331
12.0169754028 51.0904159546 71.3964462280
12.0155715942 51.0883903503 71.2059631348
12.0141792297 51.0864143372 71.0154724121
12.0128173828 51.0845756531 70.8249816895
12.0115041733 51.0829544067 70.6344909668
12.0102500916 51.0815925598 70.4440155029
12.0090551376 51.0804862976 70.2535400391
12.0079030991 51.0795745850 70.0630798340
12.0067720413 51.0787544250 69.8726043701
12.0056304932 51.0778884888 69.6821136475
12.0044565201 51.0768775940 69.4916000366
12.0032358170 51.0756683350 69.3010482788
12.0019741058 51.0742683411 69.1104660034
12.0006837845 51.0727500916 68.9198608398
11.9993877411 51.0712051392 68.7292327881
11.9981088638 51.0697326660 68.5386047363
11.9968757629 51.0684661865 68.3479766846
11.9957685471 51.0677566528 68.1573944092
11.9950180054 51.0686149597 67.9669418335
11.9951105118 51.0731964111 67.7768478394
11.9966573715 51.0841827393 67.5873794556
11.9997835159 51.1021385193 67.3986053467
12.0034818649 51.1226081848 67.2100906372
12.0057487488 51.1367721558 67.0209503174
12.0043144226 51.1346206665 66.8301696777
11.9967470169 51.1054344177 66.6366271973
11.9804830551 51.0379104614 66.4391098022
11.9546995163 50.9284210205 66.2371826172
11.9228067398 50.7920074463 66.0323257446
11.8917226791 50.6591606140 65.8276519775
11.8676319122 50.5571479797 65.6260375977
11.8525495529 50.4948463440 65.4284667969
11.8446388245 50.4641571045 65.2341537476
11.8408031464 50.4514312744 65.0417022705
11.8386754990 50.4462318420 64.8500366211
11.8370590210 50.4432868958 64.6585922241
11.8355274200 50.4407196045 64.4671707153
11.8339834213 50.4380950928 64.2757263184
11.8324470520 50.4355087280 64.0842666626
11.8310117722 50.4333648682 63.8928489685
11.8299980164 50.4330825806 63.7016181946
11.8304052353 50.4390602112 63.5110740662
11.8346176147 50.4618072510 63.3224029541
11.8464221954 50.5180130005 63.1375198364
11.8687219620 50.6204757690 62.9579391479
11.8990364075 50.7582550049 62.7825012207
11.9271888733 50.8865051270 62.6061248779
11.9401779175 50.9479293823 62.4221954346
11.9316892624 50.9146995544 62.2273635864
11.9069547653 50.8098754883 62.0241394043
11.8783912659 50.6881828308 61.8187980652
11.8579549789 50.6023063660 61.6175079346
11.8533763885 50.5863113403 61.4243698120
11.8677024841 50.6536293030 61.2411079407
11.8982772827 50.7925415039 61.0664749146
11.9362583160 50.9640846252 60.8959274292
11.9701967239 51.1178131104 60.7234230042
11.9918222427 51.2172813416 60.5445098877
11.9981660843 51.2494125366 60.3574867249
11.9889154434 51.2128257751 60.1620674133
11.9643020630 51.1085510254 59.9582405090
11.9269857407 50.9483070374 59.7473411560
11.8844490051 50.7650680542 59.5333709717
11.8466739655 50.6028099060 59.3217811584
11.8204917908 50.4916381836 59.1164054871
11.8069820404 50.4363021851 58.9179344177
11.8042850494 50.4286117554 58.7254295349
11.8115949631 50.4650077820 58.5385322571
11.8293352127 50.5473556519 58.3575553894
11.8550624847 50.6648902893 58.1812057495
11.8797931671 50.7780303955 58.0044174194
11.8906040192 50.8298416138 57.8197784424
11.8791093826 50.7833862305 57.6223487854
11.8474359512 50.6480369568 57.4131736755
11.8052558899 50.4664039612 57.1977157593
11.7623777390 50.2817001343 56.9816093445
11.7256479263 50.1240921021 56.7688713074
11.7009992599 50.0197029114 56.5630493164
11.6948022842 49.9966049194 56.3680076599
11.7116870880 50.0751800537 56.1866531372
11.7511529922 50.2532234192 56.0188789368
11.8059768677 50.4989166260 55.8605308533
11.8639850616 50.7586288452 55.7043914795
11.9128770828 50.9781799316 55.5430412292
11.9451494217 51.1245193481 55.3718338013
11.9591665268 51.1904449463 55.1896400452
11.9562120438 51.1816101074 54.9970970154
11.9378461838 51.1049041748 54.7950286865
11.9071083069 50.9736976624 54.5851898193
11.8712682724 50.8200263977 54.3720054626
11.8406972885 50.6895675659 54.1619071960
11.8229951859 50.6157913208 53.9597129822
11.8182640076 50.5991439819 53.7655830383
11.8204822540 50.6131095886 53.5758247375
11.8226909637 50.6270294189 53.3860626221
11.8204879761 50.6215209961 53.1934890747
11.8123950958 50.5900726318 52.9971199036
11.7992515564 50.5363769531 52.7974472046
11.7836847305 50.4720191956 52.5961303711
11.7687711716 50.4105377197 52.3951416016
11.7562723160 50.3596916199 52.1956405640
11.7464075089 50.3204460144 51.9977912903
11.7393169403 50.2934150696 51.8017005920
11.7357940674 50.2821044922 51.6079216003
11.7360935211 50.2876243591 51.4166488647
11.7387809753 50.3036537170 51.2269592285
11.7415485382 50.3200416565 51.0373306274
11.7427701950 50.3296203613 50.8466720581
11.7416810989 50.3290252686 50.6544570923
11.7372150421 50.3135604858 50.4599418640
11.7271976471 50.2736473083 50.2616271973
11.7094135284 50.1995429993 50.0579528809
11.6844129562 50.0936660767 49.8492317200
11.6575307846 49.9795036316 49.6390762329
11.6375694275 49.8958206177 49.4335403442
11.6326427460 49.8783340454 49.2383079529
11.6457567215 49.9402809143 49.0555839539
11.6716928482 50.0586814880 48.8818817139
11.6971588135 50.1750106812 48.7079811096
11.7070446014 50.2227363586 48.5232505798
11.6944723129 50.1715888977 48.3227005005
11.6657352448 50.0492744446 48.1106109619
11.6347417831 49.9170303345 47.8967475891
11.6126050949 49.8237838745 47.6890411377
11.6019601822 49.7811279297 47.4894485474
11.5986938477 49.7709617615 47.2951011658
11.5970487595 49.7679290771 47.1019058228
11.5936727524 49.7572822571 46.9074325562
11.5886316299 49.7392997742 46.7117233276
11.5836544037 49.7216033936 46.5160255432
11.5799417496 49.7094688416 46.3212203979
11.5774860382 49.7028732300 46.1273155212
11.5757360458 49.6993827820 45.9339103699
11.5743150711 49.6973419189 45.7407302856
11.5733442307 49.6972808838 45.5478706360
11.5735301971 49.7023162842 45.3558654785
11.5760278702 49.7175254822 45.1655845642
11.5816640854 49.7465438843 44.9776725769
11.5898275375 49.7866897583 44.7916946411
11.5984077454 49.8286705017 44.6060676575
11.6055097580 49.8641433716 44.4193572998
11.6110305786 49.8926544189 44.2314682007
11.6159172058 49.9183807373 44.0431213379
11.6203613281 49.9421501160 43.8544464111
11.6235008240 49.9601783752 43.6647834778
11.6244411469 49.9685325623 43.4734306335
11.6226119995 49.9646949768 43.2799186707
11.6172933578 49.9454994202 43.0836677551
11.6077079773 49.9075279236 42.8840408325
11.5941743851 49.8521842957 42.6812515259
11.5789508820 49.7893981934 42.4770507813
11.5652999878 49.7335395813 42.2740020752
11.5554475784 49.6944046021 42.0738868713
11.5495433807 49.6726379395 41.8768539429
11.5463752747 49.6629142761 41.6819686890
11.5446233749 49.6594238281 41.4881935120
11.5434589386 49.6585159302 41.2948760986
11.5424880981 49.6584663391 41.1016998291
11.5415353775 49.6584930420 40.9085235596
11.5405139923 49.6582183838 40.7152786255
11.5393972397 49.6575241089 40.5219459534
11.5382213593 49.6565704346 40.3285484314
11.5371236801 49.6559638977 40.1352043152
11.5364704132 49.6573066711 39.9422111511
11.5370855331 49.6642379761 39.7502555847
11.5403156281 49.6826705933 39.5604629517
11.5474243164 49.7181663513 39.3739051819
11.5583238602 49.7703475952 39.1905441284
11.5708303452 49.8295898438 39.0085830688
11.5816831589 49.8815574646 38.8252906799
11.5885934830 49.9161834717 38.6387290955
11.5911502838 49.9316482544 38.4485130310
11.5898933411 49.9303359985 38.2550735474
11.5850791931 49.9133758545 38.0585899353
11.5767564774 49.8809852600 37.8590774536
11.5659103394 49.8374900818 37.6573486328
11.5547647476 49.7926788330 37.4552993774
11.5452919006 49.7552223206 37.2546234131
11.5378656387 49.7267799377 37.0556564331
11.5322103500 49.7061233521 36.8581771851
11.5290908813 49.6966285706 36.6628646851
11.5296058655 49.7031173706 36.4707031250
11.5324554443 49.7198753357 36.2805786133
11.5328912735 49.7260169983 36.0883407593
11.5253944397 49.6972618103 35.8891105652
11.5080881119 49.6253623962 35.6811637878
11.4852418900 49.5290908813 35.4682044983
11.4660291672 49.4488105774 35.2583427429
11.4599285126 49.4262084961 35.0600624084
11.4709386826 49.4788627625 34.8770523071
11.4947433472 49.5877990723 34.7055740356
11.5217037201 49.7106094360 34.5370597839
11.5432224274 49.8094825745 34.3637733459
11.5557909012 49.8689880371 34.1824913025
11.5600919724 49.8921279907 33.9937591553
11.5574197769 49.8846015930 33.7986907959
11.5471420288 49.8436241150 33.5966529846
11.5272159576 49.7602119446 33.3857040405
11.4972124100 49.6324844360 33.1653785706
11.4610166550 49.4775276184 32.9391708374
11.4261665344 49.3284950256 32.7140007019
11.3999662399 49.2175064087 32.4966583252
11.3857574463 49.1592521667 32.2903175354
11.3822736740 49.1481704712 32.0938949585
11.3857259750 49.1675872803 31.9039382935
11.3920984268 49.1998481750 31.7167320251
11.3982772827 49.2312545776 31.5293712616
11.4024610519 49.2538909912 31.3401546478
11.4042854309 49.2661476135 31.1487197876
11.4043779373 49.2707901001 30.9556407928
11.4035902023 49.2715682983 30.7617187500
11.4024944305 49.2709846497 30.5674915314
11.4013338089 49.2701148987 30.3731861115
11.4001646042 49.2692108154 30.1788616180
11.3989648819 49.2681770325 29.9844913483
11.3976459503 49.2666130066 29.7899932861
11.3959712982 49.2634887695 29.5951347351
11.3934717178 49.2567367554 29.3994579315
11.3896083832 49.2439880371 29.2024326324
11.3843679428 49.2251853943 29.0040340424
11.3787517548 49.2047348022 28.8052310944
11.3740100861 49.1881256104 28.6072483063
11.3698205948 49.1739463806 28.4097766876
11.3638734818 49.1520423889 28.2105369568
11.3541908264 49.1137161255 28.0075607300
11.3416357040 49.0627593994 27.8016681671
11.3293924332 49.0131797791 27.5960121155
11.3202037811 48.9770240784 27.3933296204
11.3146286011 48.9567604065 27.1942081451
11.3116064072 48.9477195740 26.9976119995
11.3098230362 48.9441261292 26.8022403717
11.3084440231 48.9423065186 26.6072578430
11.3071098328 48.9406929016 26.4123058319
11.3057184219 48.9388160706 26.2172813416
11.3042659760 48.9366798401 26.0221786499
11.3027858734 48.9344215393 25.8270339966
11.3013200760 48.9322242737 25.6318874359
11.2999076843 48.9302635193 25.4367790222
11.2985744476 48.9286499023 25.2417373657
11.2973175049 48.9273757935 25.0467605591
11.2961139679 48.9263305664 24.8518218994
11.2949218750 48.9253387451 24.6568832397
11.2937040329 48.9242362976 24.4619045258
11.2924404144 48.9229278564 24.2668609619
11.2911243439 48.9213943481 24.0717506409
11.2897701263 48.9196929932 23.8765830994
11.2883987427 48.9179115295 23.6813850403
11.2870359421 48.9161758423 23.4861793518
11.2857055664 48.9145774841 23.2909927368
11.2844181061 48.9131660461 23.0958366394
11.2831697464 48.9119300842 22.9007091522
11.2819423676 48.9107894897 22.7055892944
11.2807111740 48.9096298218 22.5104484558
11.2794475555 48.9083290100 22.3152618408
11.2781314850 48.9067955017 22.1200027466
11.2767543793 48.9049949646 21.9246635437
11.2753248215 48.9029617310 21.7292518616
11.2738676071 48.9008140564 21.5337944031
11.2724189758 48.8986968994 21.3383331299
11.2710056305 48.8967399597 21.1428928375
11.2696380615 48.8949851990 20.9474887848
11.2683067322 48.8933906555 20.7521076202
11.2669916153 48.8918609619 20.5567283630
11.2656679153 48.8903007507 20.3613262177
11.2643089294 48.8885841370 20.1658706665
11.2628154755 48.8862724304 19.9702510834
11.2608366013 48.8818321228 19.7740802765
11.2574501038 48.8712043762 19.5763301849
11.2509450912 48.8468818665 19.3750896454
11.2392148972 48.7995986938 19.1679897308
11.2210140228 48.7238845825 18.9535923004
11.1973266602 48.6240692139 18.7329483032
11.1715497971 48.5150756836 18.5098228455
11.1480569839 48.4161262512 18.2891178131
11.1301069260 48.3415260315 18.0745239258
11.1185493469 48.2950096130 17.8670482635
11.1121177673 48.2710189819 17.6653079987
11.1087903976 48.2606658936 17.4670486450
11.1070203781 48.2571563721 17.2705364227
11.1062507629 48.2580451965 17.0751476288
11.1070194244 48.2656822205 16.8815059662
11.1109619141 48.2872734070 16.6915016174
11.1204853058 48.3333740234 16.5079231262
11.1377449036 48.4134559631 16.3333015442
11.1633005142 48.5299835205 16.1683464050
11.1951713562 48.6742477417 16.0108318329
11.2288475037 48.8264389038 15.8555793762
11.2586574554 48.9616394043 15.6960077286
11.2802095413 49.0605697632 15.5269670486
11.2921705246 49.1173629761 15.3468313217
11.2957172394 49.1371994019 15.1568984985
11.2925043106 49.1273422241 14.9590425491
11.2836151123 49.0925559998 14.7544832230
11.2704572678 49.0390243530 14.5448341370
11.2559318542 48.9794845581 14.3334875107
11.2438764572 48.9307937622 14.1249799728
11.2370138168 48.9049148560 13.9225664139
11.2353239059 48.9017486572 13.7262630463
11.2361450195 48.9096183777 13.5329399109
11.2360048294 48.9132652283 13.3384637833
11.2330179214 48.9044075012 13.1405677795
11.2278823853 48.8861160278 12.9400663376
11.2225856781 48.8671150208 12.7393350601
11.2184591293 48.8532562256 12.5399789810
11.2155027390 48.8445358276 12.3420085907
11.2128477097 48.8371429443 12.1443796158
11.2090997696 48.8249473572 11.9454002380
11.2023000717 48.7993469238 11.7426757813
11.1902265549 48.7505950928 11.5334711075
11.1715650558 48.6729087830 11.3161315918
11.1472501755 48.5704040527 11.0917530060
11.1207056046 48.4581146240 10.8644933701
11.0964336395 48.3558006287 10.6398782730
11.0778570175 48.2785034180 10.4221515656
11.0659170151 48.2303466797 10.2125253677
11.0593147278 48.2056350708 10.0094432831
11.0559129715 48.1949691772 9.8102931976
11.0539836884 48.1907730103 9.6129503250
11.0525884628 48.1889228821 9.4162559509
11.0513505936 48.1877632141 9.2197427750
11.0501375198 48.1867141724 9.0232467651
11.0489006042 48.1855621338 8.8267068863
11.0476198196 48.1842117310 8.6300954819
11.0463171005 48.1827697754 8.4334430695
11.0451221466 48.1818008423 8.2369127274
11.0444211960 48.1830024719 8.0409936905
11.0450811386 48.1901779175 7.8467907906
11.0484762192 48.2093582153 7.6560645103
11.0557823181 48.2457084656 7.4703378677
11.0665264130 48.2971572876 7.2890386581
11.0776119232 48.3500976563 7.1082272530
11.0843410492 48.3839187622 6.9218783379
11.0831880569 48.3831291199 6.7254171371
11.0741415024 48.3476943970 6.5187683105
11.0607166290 48.2930412292 6.3064045906
11.0475931168 48.2397079468 6.0943493843
11.0378465652 48.2012023926 5.8865952492
11.0319318771 48.1795196533 5.6837630272
11.0286836624 48.1695404053 5.4843630791
11.0267715454 48.1654281616 5.2866840363
11.0253963470 48.1636734009 5.0896883011
11.0242280960 48.1628265381 4.8929491043
11.0231580734 48.1624107361 4.6963238716
11.0221347809 48.1622009277 4.4997482300
11.0211114883 48.1619911194 4.3031587601
11.0200366974 48.1615524292 4.1064867973
11.0188665390 48.1607017517 3.9096765518
11.0175924301 48.1593894958 3.7127122879
11.0162429810 48.1577529907 3.5156352520
11.0148830414 48.1560668945 3.3185274601
11.0135736465 48.1546020508 3.1214730740
11.0123472214 48.1535034180 2.9245142937
11.0111885071 48.1527023315 2.7276320457
11.0100469589 48.1519775391 2.5307600498
11.0088701248 48.1511001587 2.3338255882
11.0076255798 48.1499176025 2.1367845535
11.0063114166 48.1484413147 1.9396369457
11.0049552917 48.1467704773 1.7424153090
11.0035820007 48.1450309753 1.5451574326
11.0022077560 48.1432838440 1.3478819132
11.0008268356 48.1415100098 1.1505817175
10.9994249344 48.1396446228 0.9532378912
10.9979934692 48.1376495361 0.7558389902
10.9965400696 48.1355590820 0.5583941340
10.9950857162 48.1334648132 0.3609317243
10.9936542511 48.1314697266 0.1634847671
52.5698471069 10.5964527130 93.6600494385
52.5848579407 10.5979337692 93.4739379883
52.6064796448 10.6004867554 93.2879791260
52.6276931763 10.6029729843 93.1020202637
52.6469345093 10.6051397324 92.9160308838
52.6679115295 10.6075878143 92.7301025391
52.6923599243 10.6105985641 92.5442657471
52.7084693909 10.6122579575 92.3582458496
52.6872711182 10.6078720093 92.1713104248
52.6029777527 10.5932607651 91.9827423096
52.4669303894 10.5702610016 91.7927169800
52.3354225159 10.5479965210 91.6026229858
52.2751846313 10.5372810364 91.4142913818
52.3215065002 10.5438365936 91.2288360596
52.4656028748 10.5662374496 91.0462112427
52.6681671143 10.5981168747 90.8654556274
52.8795967102 10.6314334869 90.6852035522
53.0573196411 10.6592884064 90.5041809082
53.1768569946 10.6777133942 90.3215713501
53.2320060730 10.6857023239 90.1370697021
53.2257308960 10.6837348938 89.9506378174
53.1637306213 10.6727352142 89.7623596191
53.0586051941 10.6547441483 89.5725479126
52.9358329773 10.6338911057 89.3819885254
52.8274269104 10.6153669357 89.1917648315
52.7568778992 10.6029787064 89.0027236938
52.7330932617 10.5981712341 88.8152694702
52.7578468323 10.6012315750 88.6295547485
52.8323631287 10.6123600006 88.4457092285
52.9536819458 10.6310758591 88.2637176514
53.1115646362 10.6557216644 88.0832748413
53.2976493835 10.6849403381 87.9041290283
53.5147857666 10.7191944122 87.7264404297
53.7657279968 10.7589311600 87.5503768921
54.0309715271 10.8009881973 87.3751983643
54.2685279846 10.8385572433 87.1991958618
54.4411697388 10.8656034470 87.0207366943
54.5384788513 10.8804340363 86.8392410278
54.5702972412 10.8846464157 86.6550064087
54.5453414917 10.8796529770 86.4682922363
54.4630508423 10.8653621674 86.2789611816
54.3307609558 10.8429622650 86.0872421265
54.1894912720 10.8191051483 85.8949356079
54.1105194092 10.8053503036 85.7053451538
54.1465950012 10.8102521896 85.5210876465
54.2817535400 10.8312225342 85.3416213989
54.4411926270 10.8561315536 85.1634902954
54.5525741577 10.8732471466 84.9831848145
54.5891418457 10.8782300949 84.7992782593
54.5604171753 10.8726243973 84.6121063232
54.4814605713 10.8588705063 84.4223175049
54.3574371338 10.8378067017 84.2300796509
54.1897392273 10.8096590042 84.0353927612
53.9933319092 10.7768526077 83.8389511108
53.8101501465 10.7461900711 83.6429672241
53.7009239197 10.7275228500 83.4507522583
53.7141571045 10.7287187576 83.2651062012
53.8542366028 10.7504901886 83.0865173340
54.0709915161 10.7847003937 82.9123992920
54.2758445740 10.8169822693 82.7378692627
54.3773078918 10.8324928284 82.5576477051
54.3236389160 10.8228368759 82.3685302734
54.1321372986 10.7908210754 82.1712341309
53.8797645569 10.7489280701 81.9700851440
53.6540985107 10.7113666534 81.7701950073
53.5036849976 10.6860122681 81.5745773315
53.4276733398 10.6727285385 81.3833084106
53.4014434814 10.6675195694 81.1950149536
53.4062461853 10.6673469543 81.0086059570
53.4438056946 10.6724882126 80.8242721558
53.5353889465 10.6863956451 80.6434097290
53.7049484253 10.7129554749 80.4676742554
53.9498405457 10.7517404556 80.2970352173
54.2233161926 10.7951641083 80.1285705566
54.4559211731 10.8319587708 79.9577331543
54.6013793945 10.8546123505 79.7813491821
54.6592941284 10.8630609512 79.5992202759
54.6569862366 10.8617382050 79.4130477905
54.6216506958 10.8550539017 79.2245864868
54.5731468201 10.8462343216 79.0351486206
54.5313415527 10.8385000229 78.8461151123
54.5160865784 10.8350744247 78.6588897705
54.5358161926 10.8373270035 78.4741287231
54.5801429749 10.8435716629 78.2911453247
54.6265487671 10.8501529694 78.1083679199
54.6526679993 10.8534421921 77.9241409302
54.6394271851 10.8503437042 77.7370376587
54.5664367676 10.8375473022 77.5454483032
54.4164047241 10.8122453690 77.3479614258
54.1954154968 10.7754249573 77.1449050903
53.9479980469 10.7343130112 76.9395294189
53.7416534424 10.6998662949 76.7369995117
53.6296691895 10.6807355881 76.5415191650
53.6259956360 10.6791858673 76.3543701172
53.7064552307 10.6912937164 76.1738433838
53.8246955872 10.7095355988 75.9964141846
53.9321403503 10.7260246277 75.8182525635
53.9945106506 10.7351970673 75.6365737915
53.9966201782 10.7345876694 75.4500503540
53.9382324219 10.7241554260 75.2585525513
53.8326492310 10.7060613632 75.0630645752
53.7075538635 10.6847982407 74.8658065796
53.5959701538 10.6657285690 74.6695098877
53.5192527771 10.6523189545 74.4760131836
53.4789886475 10.6448268890 74.2855072021
53.4653511047 10.6416578293 74.0972366333
53.4719276428 10.6417713165 73.9106750488
53.5061302185 10.6463699341 73.7265243530
53.5898208618 10.6590051651 73.5467453003
53.7453460693 10.6833047867 73.3734130859
53.9690246582 10.7186717987 73.2063369751
54.2140197754 10.7575025558 73.0414505005
54.4056091309 10.7876625061 72.8720245361
54.4793167114 10.7986793518 72.6921157837
54.4120941162 10.7868118286 72.4993820190
54.2337265015 10.7568922043 72.2962951660
54.0200386047 10.7212362289 72.0896835327
53.8635559082 10.6948690414 71.8881454468
53.8277282715 10.6880960464 71.6977539063
53.9139289856 10.7011413574 71.5188674927
54.0661010742 10.7249021530 71.3463745117
54.2071609497 10.7468595505 71.1729888916
54.2780418396 10.7574195862 70.9929885864
54.2555961609 10.7528200150 70.8039855957
54.1498908997 10.7346973419 70.6067886353
53.9939842224 10.7084197998 70.4045028687
53.8308906555 10.6809740067 70.2012863159
53.6989402771 10.6585845947 70.0009613037
53.6223831177 10.6451931000 69.8060226440
53.6114616394 10.6424636841 69.6176071167
53.6651649475 10.6502313614 69.4357452393
53.7693710327 10.6662044525 69.2591094971
53.8964271545 10.6858901978 69.0849456787
54.0171623230 10.7045497894 68.9102783203
54.1211547852 10.7204904556 68.7340011597
54.2250747681 10.7364187241 68.5578384399
54.3557128906 10.7566890717 68.3846130371
54.5178680420 10.7820806503 68.2148895264
54.6741790771 10.8065242767 68.0447387695
54.7593879700 10.8194160461 67.8671340942
54.7234115601 10.8126182556 67.6765213013
54.5711593628 10.7869262695 67.4732131958
54.3664436340 10.7527093887 67.2639617920
54.1929512024 10.7235651016 67.0578765869
54.1025390625 10.7079191208 66.8607406616
54.0957260132 10.7058572769 66.6727828979
54.1466178894 10.7131710052 66.4912643433
54.2385749817 10.7271595001 66.3144149780
54.3712654114 10.7477684021 66.1422805786
54.5356140137 10.7735223770 65.9739074707
54.6888771057 10.7974748611 65.8044586182
54.7632675171 10.8086109161 65.6261215210
54.7083358765 10.7987308502 65.4328994751
54.5327796936 10.7692451477 65.2255630493
54.3071441650 10.7316188812 65.0121307373
54.1200981140 10.7002639771 64.8029403687
54.0239372253 10.6836786270 64.6042480469
54.0149459839 10.6812610626 64.4157867432
54.0549736023 10.6868114471 64.2331542969
54.1037940979 10.6937904358 64.0516204834
54.1362648010 10.6981124878 63.8681602478
54.1407699585 10.6978893280 63.6813354492
54.1102371216 10.6919698715 63.4902229309
54.0395812988 10.6795282364 63.2941398621
53.9335479736 10.6613349915 63.0935935974
53.8139114380 10.6409301758 62.8912086487
53.7127456665 10.6235275269 62.6909637451
53.6568870544 10.6134881973 62.4962539673
53.6595001221 10.6129550934 62.3088188171
53.7211227417 10.6220159531 62.1288375854
53.8302764893 10.6388034821 61.9549674988
53.9644775391 10.6596651077 61.7844238281
54.1023178101 10.6811189651 61.6145057678
54.2396812439 10.7024946213 61.4446907043
54.3859024048 10.7253131866 61.2761840820
54.5340919495 10.7484521866 61.1081123352
54.6392707825 10.7645978928 60.9345817566
54.6423301697 10.7641401291 60.7477340698
54.5272178650 10.7444667816 60.5452499390
54.3493309021 10.7145853043 60.3342704773
54.1973648071 10.6889181137 60.1265106201
54.1273422241 10.6765747070 59.9295387268
54.1363716125 10.6770858765 59.7431182861
54.1885337830 10.6846113205 59.5625381470
54.2484779358 10.6934013367 59.3830680847
54.2887649536 10.6989965439 59.2009773254
54.2826728821 10.6970481873 59.0125579834
54.2100601196 10.6842823029 58.8149414063
54.0777206421 10.6618013382 58.6089439392
53.9273834229 10.6363935471 58.4002571106
53.8154106140 10.6172237396 58.1967315674
53.7805709839 10.6105976105 58.0038909912
53.8264732361 10.6171045303 57.8223876953
53.9259185791 10.6323204041 57.6485214233
54.0387077332 10.6497087479 57.4766731262
54.1322326660 10.6639623642 57.3021965027
54.1942558289 10.6730928421 57.1233024597
54.2320976257 10.6782903671 56.9409866333
54.2628173828 10.6823291779 56.7576713562
54.3018722534 10.6877250671 56.5755958557
54.3506546021 10.6947031021 56.3949851990
54.3855361938 10.6994199753 56.2123794556
54.3653373718 10.6951761246 56.0216789246
54.2671813965 10.6782493591 55.8193931580
54.1209716797 10.6535053253 55.6098213196
53.9974250793 10.6324462891 55.4034385681
53.9540367126 10.6244277954 55.2089118958
53.9948425293 10.6301078796 55.0270042419
54.0796699524 10.6429500580 54.8517990112
54.1621513367 10.6554107666 54.6763343811
54.2166748047 10.6633234024 54.4966964722
54.2388534546 10.6659727097 54.3121566772
54.2323875427 10.6639623642 54.1232261658
54.2010231018 10.6578998566 53.9304313660
54.1515960693 10.6488981247 53.7347755432
54.0996246338 10.6394815445 53.5386505127
54.0664405823 10.6331224442 53.3453865051
54.0677299500 10.6323728561 53.1574821472
54.1033248901 10.6372051239 52.9749794006
54.1569252014 10.6449689865 52.7953567505
54.2052040100 10.6518659592 52.6149482727
54.2275810242 10.6545486450 52.4304504395
54.2099075317 10.6507120132 52.2395515442
54.1457138062 10.6393051147 52.0411338806
54.0415763855 10.6213960648 51.8361701965
53.9211235046 10.6008319855 51.6284141541
53.8165740967 10.5828552246 51.4230804443
53.7521133423 10.5714015961 51.2241554260
53.7361068726 10.5678348541 51.0330848694
53.7664527893 10.5718126297 50.8496170044
53.8367767334 10.5822982788 50.6727867126
53.9358940125 10.5974712372 50.5008163452
54.0461082458 10.6144504547 50.3308067322
54.1469535828 10.6299057007 50.1593589783
54.2228813171 10.6413049698 49.9838409424
54.2681121826 10.6477079391 49.8032379150
54.2844772339 10.6494121552 49.6177940369
54.2751274109 10.6469287872 49.4279899597
54.2422065735 10.6406097412 49.2341461182
54.1917114258 10.6314277649 49.0372390747
54.1389198303 10.6218729019 48.8398590088
54.1053352356 10.6154441833 48.6457138062
54.1070442200 10.6147613525 48.4576187134
54.1442565918 10.6198587418 48.2756767273
54.2005424500 10.6280622482 48.0970993042
54.2517242432 10.6354351044 47.9176864624
54.2760047913 10.6384277344 47.7336044312
54.2584037781 10.6346006393 47.5421562195
54.1928672791 10.6229677200 47.3421974182
54.0883522034 10.6049880981 47.1352272034
53.9731025696 10.5852594376 46.9261932373
53.8847465515 10.5699090958 46.7218093872
53.8492965698 10.5631742477 46.5267944336
53.8678245544 10.5652284622 46.3414421082
53.9222564697 10.5731306076 46.1625862122
53.9922447205 10.5835657120 45.9866065979
54.0662994385 10.5946636200 45.8114471436
54.1380043030 10.6053791046 45.6359405518
54.1948165894 10.6136703491 45.4577827454
54.2152976990 10.6160440445 45.2730064392
54.1813583374 10.6095542908 45.0782012939
54.0958442688 10.5946645737 44.8737869263
53.9884872437 10.5762157440 44.6651954651
53.9019012451 10.5611495972 44.4603233337
53.8674087524 10.5545682907 44.2650756836
53.8907661438 10.5574102402 44.0806350708
53.9570465088 10.5672426224 43.9042930603
54.0451202393 10.5806264877 43.7321472168
54.1372947693 10.5946779251 43.5608749390
54.2196083069 10.6071243286 43.3878364563
54.2794761658 10.6159143448 43.2106018066
54.3055953979 10.6192073822 43.0269660950
54.2887840271 10.6155061722 42.8351020813
54.2246360779 10.6040925980 42.6340713501
54.1205863953 10.5861787796 42.4252281189
54.0005416870 10.5656576157 42.2131347656
53.8962593079 10.5477046967 42.0039443970
53.8306732178 10.5360546112 41.8021697998
53.8112564087 10.5319271088 41.6093482971
53.8377647400 10.5352811813 41.4255256653
53.9087867737 10.5458898544 41.2505073547
54.0163307190 10.5624485016 41.0827980042
54.1387214661 10.5814266205 40.9181671143
54.2472763062 10.5981512070 40.7509193420
54.3223991394 10.6094293594 40.5771141052
54.3604278564 10.6146640778 40.3959579468
54.3646240234 10.6143836975 40.2080268860
54.3334846497 10.6083469391 40.0129623413
54.2615089417 10.5956544876 39.8095741272
54.1521072388 10.5768623352 39.5984802246
54.0271186829 10.5555286407 39.3840599060
53.9189453125 10.5369348526 39.1729011536
53.8521881104 10.5250902176 38.9700851440
53.8338775635 10.5211410522 38.7771339417
53.8575286865 10.5240306854 38.5928039551
53.9093093872 10.5315046310 38.4143142700
53.9700851440 10.5404453278 38.2377433777
54.0185775757 10.5473842621 38.0586814880
54.0381698608 10.5496120453 37.8736343384
54.0227622986 10.5461359024 37.6812629700
53.9786605835 10.5379819870 37.4828338623
53.9225921631 10.5278778076 37.2818107605
53.8757133484 10.5192708969 37.0826454163
53.8566436768 10.5151968002 36.8893089294
53.8784484863 10.5177850723 36.7046241760
53.9471664429 10.5280218124 36.5299682617
54.0564651489 10.5448741913 36.3640747070
54.1837730408 10.5646629333 36.2021713257
54.2990913391 10.5824975967 36.0378379822
54.3824615479 10.5951251984 35.8667449951
54.4328041077 10.6023683548 35.6885910034
54.4614448547 10.6060733795 35.5057754517
54.4798126221 10.6081037521 35.3207435608
54.4905853271 10.6088953018 35.1340675354
54.4856834412 10.6071310043 34.9439544678
54.4540061951 10.6010026932 34.7479400635
54.3968048096 10.5907106400 34.5462493896
54.3358879089 10.5798130035 34.3436470032
54.3015327454 10.5732460022 34.1468429565
54.3103942871 10.5737247467 33.9595947266
54.3573875427 10.5804233551 33.7808456421
54.4300651550 10.5913095474 33.6078872681
54.5264892578 10.6060686111 33.4403381348
54.6515426636 10.6254968643 33.2793388367
54.7900505066 10.6471204758 33.1215209961
54.8892364502 10.6623315811 32.9549751282
54.8859138489 10.6608257294 32.7652931213
54.7654266357 10.6402111053 32.5489387512
54.5885696411 10.6104030609 32.3195571899
54.4465370178 10.5862731934 32.0979042053
54.3876724243 10.5757064819 31.8951358795
54.3927001953 10.5755605698 31.7069778442
54.4096565247 10.5773601532 31.5215644836
54.3958053589 10.5741357803 31.3290367126
54.3328742981 10.5629043579 31.1250896454
54.2265434265 10.5445947647 30.9109554291
54.1023406982 10.5233678818 30.6925010681
53.9931297302 10.5045852661 30.4773826599
53.9204368591 10.4917602539 30.2706756592
53.8860893250 10.4851894379 30.0728836060
53.8807525635 10.4833507538 29.8818740845
53.8983459473 10.4852523804 29.6962699890
53.9429397583 10.4915599823 29.5170783997
54.0237464905 10.5037746429 29.3465404510
54.1433792114 10.5223236084 29.1853523254
54.2916145325 10.5455408096 29.0311431885
54.4510993958 10.5705947876 28.8798084259
54.6014480591 10.5941572189 28.7264690399
54.7092590332 10.6107816696 28.5630607605
54.7259330750 10.6125364304 28.3777580261
54.6209182739 10.5944356918 28.1629810333
54.4231491089 10.5611991882 27.9255256653
54.2129859924 10.5259399414 27.6847839355
54.0669631958 10.5011444092 27.4594230652
54.0173645020 10.4920825958 27.2574710846
54.0565376282 10.4975070953 27.0772361755
54.1577796936 10.5130596161 26.9123153687
54.2888298035 10.5334768295 26.7548675537
54.4248313904 10.5547037125 26.5988025665
54.5623893738 10.5761852264 26.4432868958
54.7154731750 10.6002006531 26.2917957306
54.8865890503 10.6271600723 26.1449851990
55.0397949219 10.6511983871 25.9939079285
55.1085815430 10.6614589691 25.8218536377
55.0403022766 10.6493492126 25.6154327393
54.8437614441 10.6163053513 25.3766002655
54.5985870361 10.5753221512 25.1252174377
54.4102439880 10.5436134338 24.8878974915
54.3429603577 10.5316629410 24.6810550690
54.3895912170 10.5383062363 24.5031051636
54.4985427856 10.5551214218 24.3411026001
54.6187629700 10.5737781525 24.1821117401
54.7206344604 10.5894393921 24.0185585022
54.7919120789 10.6001071930 23.8472576141
54.8289489746 10.6051864624 23.6672115326
54.8320274353 10.6047210693 23.4784278870
54.8040313721 10.5991840363 23.2815856934
54.7525100708 10.5898056030 23.0785865784
54.6915588379 10.5788869858 22.8730545044
54.6378097534 10.5691442490 22.6693096161
54.6018829346 10.5623102188 22.4701461792
54.5842895508 10.5584697723 22.2757320404
54.5790901184 10.5566520691 22.0845394135
54.5797729492 10.5557956696 21.8948783875
54.5822067261 10.5552244186 21.7056674957
54.5844841003 10.5546274185 21.5164070129
54.5859375000 10.5538959503 21.3269176483
54.5865135193 10.5530214310 21.1371841431
54.5865020752 10.5520505905 20.9472827911
54.5863723755 10.5510606766 20.7573356628
54.5865669250 10.5501232147 20.5674648285
54.5873298645 10.5492792130 20.3777332306
54.5886917114 10.5485324860 20.1881523132
54.5905380249 10.5478639603 19.9986896515
54.5927314758 10.5472536087 19.8093128204
54.5951843262 10.5466852188 19.6199951172
54.5978546143 10.5461521149 19.4307289124
54.6007003784 10.5456476212 19.2414989471
54.6035461426 10.5451431274 19.0522632599
54.6060867310 10.5445880890 18.8629322052
54.6079597473 10.5439243317 18.6734104156
54.6089439392 10.5431165695 18.4836330414
54.6090965271 10.5421714783 18.2936153412
54.6087989807 10.5411529541 18.1034622192
54.6086769104 10.5401630402 17.9133434296
54.6094360352 10.5393171310 17.7234554291
54.6117248535 10.5387210846 17.5339832306
54.6167259216 10.5385684967 17.3452587128
54.6281623840 10.5394668579 17.1583271027
54.6550407410 10.5428876877 16.9757251740
54.7107162476 10.5510120392 16.8012371063
54.8013114929 10.5648431778 16.6366424561
54.9074554443 10.5812139511 16.4765415192
54.9827957153 10.5925531387 16.3078498840
54.9865036011 10.5921897888 16.1189327240
54.9236640930 10.5809535980 15.9110946655
54.8471794128 10.5674877167 15.6992769241
54.8190345764 10.5619201660 15.5011482239
54.8742980957 10.5699796677 15.3268365860
55.0140609741 10.5918455124 15.1768150330
55.2138328552 10.6235179901 15.0442085266
55.4314537048 10.6581087112 14.9169902802
55.6176109314 10.6875581741 14.7809572220
55.7327995300 10.7054138184 14.6246166229
55.7618331909 10.7091903687 14.4434270859
55.7185363770 10.7011480331 14.2412395477
55.6418991089 10.6876564026 14.0292720795
55.5838508606 10.6772022247 13.8226194382
55.5880126953 10.6769151688 13.6340818405
55.6690063477 10.6891832352 13.4680662155
55.8066520691 10.7107105255 13.3187923431
55.9592475891 10.7346820831 13.1740875244
56.0860137939 10.7544326782 13.0219430923
56.1632156372 10.7660837173 12.8552885056
56.1831283569 10.7683715820 12.6717357635
56.1419448853 10.7606744766 12.4700441360
56.0359077454 10.7423763275 12.2489748001
55.8738021851 10.7149114609 12.0110235214
55.6881904602 10.6836051941 11.7658214569
55.5238647461 10.6557769775 11.5267457962
55.4108619690 10.6363353729 11.3028602600
55.3509178162 10.6255674362 11.0947856903
55.3283767700 10.6209125519 10.8979043961
55.3296928406 10.6201581955 10.7081928253
55.3550262451 10.6233291626 10.5257463455
55.4181709290 10.6326818466 10.3547992706
55.5348091125 10.6507816315 10.2001981735
55.7031021118 10.6773242950 10.0614814758
55.8929901123 10.7074003220 9.9295701981
56.0605087280 10.7338199615 9.7910423279
56.1762161255 10.7517690659 9.6368207932
56.2391395569 10.7610893250 9.4665088654
56.2666244507 10.7646160126 9.2853450775
56.2770309448 10.7653503418 9.0989313126
56.2814254761 10.7651014328 8.9106578827
56.2843322754 10.7646093369 8.7219171524
56.2868652344 10.7640552521 8.5330505371
56.2879829407 10.7632703781 8.3437347412
56.2832145691 10.7615232468 8.1525716782
56.2614707947 10.7569999695 7.9560809135
56.2042312622 10.7466716766 7.7484292984
56.0939025879 10.7276611328 7.5240230560
55.9312324524 10.7000904083 7.2829942703
55.7455863953 10.6687612534 7.0344991684
55.5810012817 10.6408758163 6.7924041748
55.4675712585 10.6213541031 6.5662755966
55.4069023132 10.6104612350 6.3567237854
55.3819847107 10.6054143906 6.1584439278
55.3745574951 10.6032285690 5.9656891823
55.3735923767 10.6020994186 5.7749752998
55.3745536804 10.6012849808 5.5848631859
55.3761520386 10.6005754471 5.3949441910
55.3782348633 10.5999441147 5.2051692009
55.3808326721 10.5993976593 5.0155515671
55.3838806152 10.5989246368 4.8260693550
55.3870849609 10.5984764099 4.6366281509
55.3900642395 10.5979919434 4.4471068382
55.3926124573 10.5974369049 4.2574357986
55.3948631287 10.5968332291 4.0676598549
55.3975181580 10.5962963104 3.8780052662
55.4023056030 10.5961065292 3.6890368462
55.4128646851 10.5968618393 3.5019493103
55.4349441528 10.5995025635 3.3186378479
55.4737739563 10.6048831940 3.1408386230
55.5284118652 10.6128501892 2.9682779312
55.5882644653 10.6216707230 2.7974927425
55.6372261047 10.6287097931 2.6231763363
55.6635513306 10.6320447922 2.4414229393
55.6673126221 10.6316890717 2.2522120476
55.6600875854 10.6295356750 2.0593447685
55.6570472717 10.6280660629 1.8678470850
55.6663932800 10.6286230087 1.6804628372
55.6849632263 10.6306896210 1.4961601496
55.7039527893 10.6328258514 1.3120096922
55.7174377441 10.6340599060 1.1260237694
55.7249603271 10.6343193054 0.9380410910
55.7287025452 10.6339597702 0.7487816215
55.7305335999 10.6332874298 0.5588700771
55.7313041687 10.6324415207 0.3685904145
55.7313499451 10.6314764023 0.1780527383
18.7672328949 49.2664718628 94.1446380615
18.7820491791 49.3092536926 93.9565429688
18.8120784760 49.3932609558 93.7690811157
18.8532562256 49.5074729919 93.5821685791
18.8981037140 49.6316223145 93.3955459595
18.9386177063 49.7440338135 93.2088699341
18.9687061310 49.8281898499 93.0218505859
18.9841346741 49.8726272583 92.8342285156
18.9826736450 49.8712997437 92.6458206177
18.9660110474 49.8287887573 92.4566192627
18.9409866333 49.7636222839 92.2669143677
18.9178085327 49.7034645081 92.0772171021
18.9054775238 49.6726875305 91.8880310059
18.9067955017 49.6788978577 91.6995925903
18.9174594879 49.7104263306 91.5117034912
18.9310836792 49.7499732971 91.3240203857
18.9450244904 49.7903785706 91.1363983154
18.9608268738 49.8358268738 90.9489288330
18.9799327850 49.8902244568 90.7617340088
19.0002498627 49.9479026794 90.5746688843
19.0169639587 49.9958190918 90.3874206543
19.0256900787 50.0220947266 90.1996459961
19.0242824554 50.0209121704 90.0111465454
19.0127773285 49.9923858643 89.8218765259
18.9934234619 49.9425888062 89.6319503784
18.9708728790 49.8841362000 89.4417037964
18.9506797791 49.8320655823 89.2515563965
18.9364089966 49.7960433960 89.0618209839
18.9282569885 49.7765960693 88.8725357056
18.9242649078 49.7684211731 88.6835632324
18.9223232269 49.7658004761 88.4947509766
18.9211521149 49.7652702332 88.3059921265
18.9203281403 49.7656745911 88.1172485352
18.9201507568 49.7678337097 87.9285583496
18.9218025208 49.7749443054 87.7400283813
18.9273624420 49.7926445007 87.5518646240
18.9388408661 49.8263740540 87.3642883301
18.9562225342 49.8760948181 87.1773376465
18.9764671326 49.9335708618 86.9907150269
18.9955425262 49.9878807068 86.8040390015
19.0121536255 50.0355148315 86.6171646118
19.0288295746 50.0833168030 86.4303359985
19.0477333069 50.1371574402 86.2438049316
19.0644283295 50.1850166321 86.0570831299
19.0674743652 50.1958999634 85.8688964844
19.0476913452 50.1449546814 85.6781234741
19.0085105896 50.0414695740 85.4850540161
18.9646549225 49.9253311157 85.2912902832
18.9302234650 49.8347091675 85.0984802246
18.9098434448 49.7821540833 84.9072265625
18.9001998901 49.7586784363 84.7172012329
18.8962039948 49.7504959106 84.5278320313
18.8948707581 49.7495269775 84.3387680054
18.8961906433 49.7557449341 84.1500320435
18.9031162262 49.7771415710 83.9620132446
18.9206295013 49.8272132874 83.7753829956
18.9517135620 49.9140396118 83.5905990601
18.9910221100 50.0231399536 83.4070129395
19.0236225128 50.1140670776 83.2226409912
19.0348930359 50.1472282410 83.0354461670
19.0236015320 50.1192932129 82.8451538086
19.0026645660 50.0652313232 82.6534500122
18.9864139557 50.0238647461 82.4623336792
18.9797725677 50.0085182190 82.2725372314
18.9793052673 50.0098915100 82.0836105347
18.9802227020 50.0150184631 81.8948745728
18.9801921844 50.0175781250 81.7059936523
18.9786205292 50.0159645081 81.5168685913
18.9748344421 50.0083541870 81.3273925781
18.9674224854 49.9909248352 81.1373291016
18.9552745819 49.9606704712 80.9464950562
18.9393501282 49.9201889038 80.7550125122
18.9228477478 49.8781471252 80.5633773804
18.9086208344 49.8422660828 80.3720397949
