47.9622573853 -22.9295120239 29.1636009216
48.0118293762 -22.9493598938 28.9805831909
48.0598678589 -22.9683876038 28.7972602844
48.1011543274 -22.9838027954 28.6124057770
48.1289672852 -22.9920024872 28.4244213104
48.1374855042 -22.9898662567 28.2319068909
48.1245307922 -22.9762287140 28.0343055725
48.0934295654 -22.9528675079 27.8323631287
48.0536155701 -22.9248390198 27.6282901764
48.0189971924 -22.8995895386 27.4253864288
48.0034713745 -22.8845691681 27.2269935608
48.0155487061 -22.8843345642 27.0351943970
48.0552482605 -22.8989009857 26.8500518799
48.1149902344 -22.9242095947 26.6697921753
48.1833305359 -22.9541263580 26.4916820526
48.2491950989 -22.9827194214 26.3130531311
48.3049163818 -23.0058803558 26.1320285797
48.3472900391 -23.0218887329 25.9478034973
48.3766098022 -23.0309047699 25.7604236603
48.3945236206 -23.0338039398 25.5702667236
48.4027709961 -23.0315265656 25.3777408600
48.4043426514 -23.0256690979 25.1835594177
48.4049911499 -23.0193176270 24.9891357422
48.4125366211 -23.0166606903 24.7964134216
48.4343032837 -23.0216293335 24.6072330475
48.4750747681 -23.0367870331 24.4228153229
48.5359153748 -23.0627040863 24.2434692383
48.6128349304 -23.0972480774 24.0682334900
48.6960220337 -23.1351528168 23.8946685791
48.7722396851 -23.1693248749 23.7194442749
48.8303031921 -23.1937656403 23.5397109985
48.8653411865 -23.2058620453 23.3541946411
48.8788757324 -23.2064228058 23.1632308960
48.8762664795 -23.1983299255 22.9681510925
48.8646736145 -23.1854171753 22.7707500458
48.8523750305 -23.1721267700 22.5731372833
48.8484306335 -23.1633129120 22.3776435852
48.8612899780 -23.1635150909 22.1864700317
48.8961830139 -23.1755332947 22.0010051727
48.9523468018 -23.1989650726 21.8210945129
49.0220832825 -23.2296810150 21.6447811127
49.0930709839 -23.2610721588 21.4688777924
49.1533813477 -23.2867374420 21.2902622223
49.1961135864 -23.3029708862 21.1071033478
49.2204742432 -23.3093509674 20.9191570282
49.2295074463 -23.3075046539 20.7271881104
49.2274475098 -23.2997055054 20.5322799683
49.2188339233 -23.2883892059 20.3356189728
49.2090911865 -23.2764682770 20.1386299133
49.2050018311 -23.2675781250 19.9431209564
49.2137489319 -23.2655773163 19.7510204315
49.2405014038 -23.2732410431 19.5637435913
49.2858810425 -23.2909049988 19.3814926147
49.3448982239 -23.3158893585 19.2029628754
49.4077606201 -23.3429412842 19.0255393982
49.4623222351 -23.3655395508 18.8459415436
49.4977836609 -23.3778839111 18.6612205505
49.5082092285 -23.3767910004 18.4697208405
49.4941406250 -23.3625431061 18.2715377808
49.4617004395 -23.3384323120 18.0682983398
49.4202766418 -23.3094959259 17.8625335693
49.3803062439 -23.2813377380 17.6570987701
49.3520965576 -23.2594909668 17.4548339844
49.3442916870 -23.2486000061 17.2581501007
49.3607635498 -23.2507476807 17.0681686401
49.3980255127 -23.2640628815 16.8839664459
49.4466056824 -23.2834548950 16.7029514313
49.4956054688 -23.3030757904 16.5221080780
49.5365753174 -23.3183860779 16.3390712738
49.5650367737 -23.3269767761 16.1525688171
49.5806961060 -23.3286933899 15.9624919891
49.5869522095 -23.3253574371 15.7697715759
49.5895919800 -23.3200778961 15.5760231018
49.5952758789 -23.3164348602 15.3831272125
49.6101570129 -23.3177318573 15.1928348541
49.6384658813 -23.3262424469 15.0063705444
49.6814422607 -23.3426399231 14.8241167068
49.7369346619 -23.3657608032 14.6454868317
49.7993164063 -23.3925876617 14.4688959122
49.8601722717 -23.4185981750 14.2919387817
49.9107856750 -23.4391040802 14.1120996475
49.9456596375 -23.4511528015 13.9277715683
49.9642448425 -23.4544487000 13.7387609482
49.9698028564 -23.4507427216 13.5459823608
49.9673843384 -23.4427490234 13.3508749008
49.9627799988 -23.4335784912 13.1551122665
49.9623413086 -23.4266471863 12.9605474472
49.9723129272 -23.4253120422 12.7690162659
49.9969635010 -23.4318695068 12.5817966461
50.0368347168 -23.4466094971 12.3990755081
50.0889091492 -23.4679126740 12.2199974060
50.1487350464 -23.4933872223 12.0432701111
50.2125625610 -23.5210151672 11.8677968979
50.2778244019 -23.5494155884 11.6928243637
50.3419075012 -23.5771865845 11.5175771713
50.4004402161 -23.6019744873 11.3407487869
50.4469146729 -23.6202793121 11.1603765488
50.4744834900 -23.6284179688 10.9743852615
50.4788551331 -23.6240787506 10.7814416885
50.4604721069 -23.6075019836 10.5816345215
50.4252662659 -23.5818729401 10.3767042160
50.3836441040 -23.5527935028 10.1697692871
50.3475074768 -23.5266590118 9.9644250870
50.3257980347 -23.5082836151 9.7634038925
50.3207321167 -23.4988632202 9.5674114227
50.3274154663 -23.4957637787 9.3749876022
50.3374671936 -23.4944744110 9.1835880280
50.3436775208 -23.4911193848 8.9910106659
50.3421134949 -23.4835815430 8.7960348129
50.3312568665 -23.4710388184 8.5981760025
50.3109169006 -23.4533958435 8.3973588943
50.2827377319 -23.4315319061 8.1940698624
50.2510948181 -23.4077987671 7.9896507263
50.2226409912 -23.3857841492 7.7861666679
50.2046775818 -23.3694095612 7.5858979225
50.2037086487 -23.3621845245 7.3909006119
50.2242164612 -23.3665199280 7.2026147842
50.2667541504 -23.3827152252 7.0212574005
50.3266067505 -23.4082317352 6.8453927040
50.3951416016 -23.4384250641 6.6723341942
50.4632225037 -23.4683780670 6.4992122650
50.5241699219 -23.4944915771 6.3239126205
50.5746345520 -23.5149650574 6.1453561783
50.6132431030 -23.5290546417 5.9630842209
50.6384124756 -23.5359096527 5.7765665054
50.6475372314 -23.5341243744 5.5849437714
50.6384086609 -23.5225086212 5.3874735832
50.6113929749 -23.5012588501 5.1842370033
50.5705642700 -23.4725685120 4.9765052795
50.5231056213 -23.4403057098 4.7665657997
50.4775009155 -23.4090366364 4.5571436882
50.4415092468 -23.3829421997 4.3507547379
50.4208946228 -23.3651313782 4.1492886543
50.4190750122 -23.3574428558 3.9538893700
50.4371757507 -23.3604850769 3.7649617195
50.4739646912 -23.3735980988 3.5821478367
50.5258598328 -23.3948478699 3.4043109417
50.5871353149 -23.4211559296 3.2296087742
50.6501502991 -23.4484062195 3.0555496216
50.7056274414 -23.4715938568 2.8790812492
50.7443389893 -23.4857501984 2.6971435547
50.7605323792 -23.4877700806 2.5077979565
50.7538414001 -23.4774608612 2.3108782768
50.7263031006 -23.4559154510 2.1070120335
50.6763534546 -23.4222850800 1.8956325054
50.5958938599 -23.3722095490 1.6739952564
50.4738235474 -23.2997016907 1.4383254051
50.3034934998 -23.2011718750 1.1863092184
50.0888938904 -23.0787677765 0.9191834331
49.8458290100 -22.9410076141 0.6421704888
49.5978393555 -22.8005809784 0.3631432056
49.3692855835 -22.6706218719 0.0903176442
-11.1600065231 -60.8439826965 94.6062240601
-11.1628513336 -60.8379478455 94.4236450195
-11.1651945114 -60.8297080994 94.2410278320
-11.1671180725 -60.8196296692 94.0583648682
-11.1685400009 -60.8073501587 93.8756637573
-11.1691656113 -60.7915687561 93.6928863525
-11.1684627533 -60.7699623108 93.5100097656
-11.1659021378 -60.7402000427 93.3269729614
-11.1614408493 -60.7020950317 93.1437759399
-11.1558179855 -60.6588821411 92.9604339600
-11.1504039764 -60.6165847778 92.7770538330
-11.1467437744 -60.5819778442 92.5937347412
-11.1460838318 -60.5605316162 92.4105911255
-11.1490573883 -60.5550270081 92.2277069092
-11.1555662155 -60.5650405884 92.0450973511
-11.1648311615 -60.5871505737 91.8627243042
-11.1756210327 -60.6159629822 91.6805114746
-11.1866207123 -60.6456909180 91.4983444214
-11.1967201233 -60.6714744568 91.3161163330
-11.2051095963 -60.6897544861 91.1337585449
-11.2112703323 -60.6982460022 90.9511947632
-11.2150611877 -60.6963348389 90.7683944702
-11.2168178558 -60.6854858398 90.5853652954
-11.2172374725 -60.6687622070 90.4021759033
-11.2170534134 -60.6493873596 90.2188873291
-11.2167873383 -60.6296463013 90.0355606079
-11.2167320251 -60.6108283997 89.8522262573
-11.2170705795 -60.5937385559 89.6689071655
-11.2179927826 -60.5792083740 89.4856262207
-11.2197380066 -60.5682945251 89.3024215698
-11.2225914001 -60.5622482300 89.1193389893
-11.2268047333 -60.5621681213 88.9364166260
-11.2324361801 -60.5683250427 88.7536773682
-11.2391490936 -60.5792350769 88.5710830688
-11.2461242676 -60.5912971497 88.3885345459
-11.2522516251 -60.5996322632 88.2058715820
-11.2565507889 -60.5999374390 88.0229492188
-11.2585878372 -60.5902938843 87.8396835327
-11.2586612701 -60.5720138550 87.6561050415
-11.2576999664 -60.5491828918 87.4723434448
-11.2569227219 -60.5271606445 87.2885742188
-11.2574272156 -60.5107650757 87.1049652100
-11.2599306107 -60.5031585693 86.9216537476
-11.2647447586 -60.5057182312 86.7387008667
-11.2718458176 -60.5183296204 86.5561294556
-11.2808713913 -60.5394058228 86.3738861084
-11.2910566330 -60.5655822754 86.1918640137
-11.3012905121 -60.5919799805 86.0098800659
-11.3104057312 -60.6134605408 85.8277206421
-11.3175506592 -60.6262741089 85.6452331543
-11.3223791122 -60.6288948059 85.4623184204
-11.3249912262 -60.6217613220 85.2789916992
-11.3258066177 -60.6067237854 85.0953063965
-11.3255100250 -60.5867881775 84.9113845825
-11.3249950409 -60.5658912659 84.7273788452
-11.3252191544 -60.5482406616 84.5434951782
-11.3269624710 -60.5372734070 84.3598785400
-11.3306112289 -60.5346946716 84.1766281128
-11.3360462189 -60.5399703979 83.9937362671
-11.3426971436 -60.5506057739 83.8111038208
-11.3497447968 -60.5629882813 83.6285552979
-11.3563499451 -60.5734214783 83.4459228516
-11.3618144989 -60.5788307190 83.2630462646
-11.3656845093 -60.5772247314 83.0798187256
-11.3678340912 -60.5680351257 82.8962020874
-11.3684940338 -60.5522842407 82.7122192383
-11.3681116104 -60.5319442749 82.5279769897
-11.3670873642 -60.5087699890 82.3435516357
-11.3656663895 -60.4838447571 82.1589965820
-11.3641881943 -60.4586639404 81.9743804932
-11.3633794785 -60.4364318848 81.7898941040
-11.3642740250 -60.4216957092 81.6057815552
-11.3677873611 -60.4184951782 81.4222869873
-11.3742818832 -60.4284324646 81.2395248413
-11.3833246231 -60.4495964050 81.0574111938
-11.3936748505 -60.4765243530 80.8756484985
-11.4035968781 -60.5015716553 80.6938018799
-11.4114484787 -60.5174903870 80.5114440918
-11.4161901474 -60.5197067261 80.3282775879
-11.4175825119 -60.5071563721 80.1442108154
-11.4161529541 -60.4821662903 79.9593734741
-11.4131259918 -60.4501266479 79.7740554810
-11.4102029800 -60.4185409546 79.5887145996
-11.4090766907 -60.3948783875 79.4038314819
-11.4109067917 -60.3842430115 79.2197341919
-11.4161062241 -60.3884620667 79.0365676880
-11.4244775772 -60.4066734314 78.8543090820
-11.4354000092 -60.4361343384 78.6727981567
-11.4478931427 -60.4725265503 78.4917831421
-11.4606580734 -60.5101165771 78.3108825684
-11.4722423553 -60.5425109863 78.1296768188
-11.4813261032 -60.5638771057 77.9477462769
-11.4870071411 -60.5702285767 77.7648086548
-11.4890508652 -60.5605354309 77.5807647705
-11.4880580902 -60.5374412537 77.3957595825
-11.4853448868 -60.5067520142 77.2101821899
-11.4825096130 -60.4755172729 77.0245208740
-11.4808979034 -60.4496841431 76.8391952515
-11.4813327789 -60.4328727722 76.6544876099
-11.4841470718 -60.4265632629 76.4705123901
-11.4893589020 -60.4308319092 76.2873077393
-11.4967794418 -60.4448547363 76.1048278809
-11.5060329437 -60.4669685364 75.9229660034
-11.5164918900 -60.4944076538 75.7415237427
-11.5272245407 -60.5230522156 75.5602035522
-11.5371150970 -60.5479888916 75.3786315918
-11.5451784134 -60.5648536682 75.1964569092
-11.5508689880 -60.5712471008 75.0134735107
-11.5541887283 -60.5671653748 74.8296585083
-11.5556001663 -60.5546569824 74.6451721191
-11.5559415817 -60.5374221802 74.4602737427
-11.5563364029 -60.5204162598 74.2753677368
-11.5579719543 -60.5088882446 74.0908813477
-11.5617237091 -60.5067062378 73.9071350098
-11.5678014755 -60.5148010254 73.7242355347
-11.5756206512 -60.5305938721 73.5419769287
-11.5839700699 -60.5487289429 73.3599243164
-11.5914087296 -60.5628395081 73.1775512695
-11.5967054367 -60.5674858093 72.9943847656
-11.5991468430 -60.5595130920 72.8101272583
-11.5986442566 -60.5385284424 72.6247253418
-11.5956830978 -60.5066680908 72.4383392334
-11.5912046432 -60.4681015015 72.2513122559
-11.5864868164 -60.4284667969 72.0641403198
-11.5829563141 -60.3940773010 71.8773727417
-11.5818557739 -60.3704223633 71.6915206909
-11.5838479996 -60.3604431152 71.5068664551
-11.5888652802 -60.3638381958 71.3234100342
-11.5962858200 -60.3778572083 71.1409225464
-11.6052255630 -60.3985977173 70.9590759277
-11.6147365570 -60.4218673706 70.7774810791
-11.6239414215 -60.4437789917 70.5957794189
-11.6321792603 -60.4614219666 70.4136962891
-11.6390485764 -60.4730110168 70.2310485840
-11.6442661285 -60.4772987366 70.0477142334
-11.6475610733 -60.4730758667 69.8635635376
-11.6488056183 -60.4597778320 69.6785125732
-11.6482658386 -60.4385833740 69.4926681519
-11.6466751099 -60.4127349854 69.3063354492
-11.6451063156 -60.3869781494 69.1199645996
-11.6447839737 -60.3667373657 68.9341049194
-11.6467704773 -60.3567085266 68.7492370605
-11.6515550613 -60.3590660095 68.5655975342
-11.6588411331 -60.3724899292 68.3830718994
-11.6676979065 -60.3928756714 68.2012710571
-11.6769208908 -60.4148750305 68.0196533203
-11.6853542328 -60.4333877563 67.8376922607
-11.6921358109 -60.4445877075 67.6549911499
-11.6968250275 -60.4465217590 67.4713287354
-11.6993846893 -60.4390258789 67.2866668701
-11.7000942230 -60.4233360291 67.1011199951
-11.6994886398 -60.4018173218 66.9149169922
-11.6983451843 -60.3779144287 66.7284317017
-11.6976146698 -60.3558311462 66.5421066284
-11.6981773376 -60.3394775391 66.3563613892
-11.7005739212 -60.3312454224 66.1714706421
-11.7048997879 -60.3315582275 65.9875106812
-11.7108736038 -60.3391723633 65.8043441772
-11.7179231644 -60.3515548706 65.6217041016
-11.7252779007 -60.3652877808 65.4392318726
-11.7321500778 -60.3768806458 65.2565231323
-11.7379064560 -60.3835334778 65.0732727051
-11.7420606613 -60.3830833435 64.8892059326
-11.7442073822 -60.3737335205 64.7041168213
-11.7441883087 -60.3547859192 64.5179061890
-11.7424764633 -60.3283309937 64.3308029175
-11.7403249741 -60.2999153137 64.1434173584
-11.7393760681 -60.2768325806 63.9566192627
-11.7408885956 -60.2646598816 63.7710647583
-11.7451105118 -60.2644958496 63.5869064331
-11.7512483597 -60.2728309631 63.4037475586
-11.7579965591 -60.2838706970 63.2209167480
-11.7641887665 -60.2924423218 63.0377922058
-11.7691631317 -60.2956161499 62.8540229797
-11.7727317810 -60.2925529480 62.6694946289
-11.7749128342 -60.2833366394 62.4842033386
-11.7757120132 -60.2679862976 62.2981414795
-11.7751226425 -60.2464752197 62.1112899780
-11.7733335495 -60.2196311951 61.9237442017
-11.7709465027 -60.1901359558 61.7358245850
-11.7689695358 -60.1624526978 61.5480842590
-11.7685136795 -60.1415176392 61.3611526489
-11.7703733444 -60.1308517456 61.1754875183
-11.7747573853 -60.1313896179 60.9912223816
-11.7813100815 -60.1415519714 60.8081855774
-11.7893104553 -60.1581382751 60.6259765625
-11.7978296280 -60.1770362854 60.4440765381
-11.8058319092 -60.1936340332 60.2619018555
-11.8123292923 -60.2035522461 60.0788650513
-11.8166017532 -60.2035942078 59.8945388794
-11.8183240891 -60.1923141479 59.7087173462
-11.8175249100 -60.1698341370 59.5213928223
-11.8145227432 -60.1375656128 59.3327255249
-11.8099546432 -60.0983390808 59.1430816650
-11.8048429489 -60.0566940308 58.9530563354
-11.8005027771 -60.0184631348 58.7634315491
-11.7981529236 -59.9890708923 58.5749473572
-11.7984189987 -59.9712944031 58.3879966736
-11.8010663986 -59.9640960693 58.2024650574
-11.8051500320 -59.9632797241 58.0177917480
-11.8094081879 -59.9632301331 57.8332176208
-11.8126497269 -59.9586677551 57.6480102539
-11.8140172958 -59.9457740784 57.4616279602
-11.8130807877 -59.9226417542 57.2737884521
-11.8098402023 -59.8892593384 57.0844688416
-11.8047046661 -59.8474540710 56.8939056396
-11.7985000610 -59.8008918762 56.7026100159
-11.7923870087 -59.7547264099 56.5112991333
-11.7876300812 -59.7145843506 56.3207855225
-11.7852888107 -59.6851730347 56.1317596436
-11.7859773636 -59.6692276001 55.9446334839
-11.7897558212 -59.6670227051 55.7594718933
-11.7961206436 -59.6763153076 55.5759773254
-11.8040847778 -59.6927223206 55.3935317993
-11.8124294281 -59.7108230591 55.2113494873
-11.8200235367 -59.7255859375 55.0286865234
-11.8259658813 -59.7329978943 54.8449478149
-11.8295402527 -59.7298851013 54.6596374512
-11.8302459717 -59.7140045166 54.4724082947
-11.8279743195 -59.6848793030 54.2831573486
-11.8231601715 -59.6444358826 54.0921516418
-11.8167800903 -59.5970230103 53.9000320435
-11.8102245331 -59.5488166809 53.7077217102
-11.8050069809 -59.5065574646 53.5162506104
-11.8023004532 -59.4754676819 53.3264312744
-11.8025102615 -59.4573554993 53.1385688782
-11.8051471710 -59.4500389099 52.9523468018
-11.8090496063 -59.4483528137 52.7669830322
-11.8127679825 -59.4458503723 52.5814819336
-11.8149824142 -59.4366493225 52.3949203491
-11.8149070740 -59.4172515869 52.2067337036
-11.8125419617 -59.3876571655 52.0168991089
-11.8085803986 -59.3509483337 51.8258934021
-11.8040113449 -59.3115272522 51.6343994141
-11.7997474670 -59.2734642029 51.4430618286
-11.7964611053 -59.2397460938 51.2523689270
-11.7945775986 -59.2122688293 51.0626335144
-11.7942733765 -59.1918258667 50.8739891052
-11.7954244614 -59.1778564453 50.6863670349
-11.7975673676 -59.1683044434 50.4994392395
-11.7999486923 -59.1598129272 50.3126678467
-11.8016777039 -59.1484146118 50.1253967285
-11.8019895554 -59.1307029724 49.9370613098
-11.8005352020 -59.1051139832 49.7473869324
-11.7975339890 -59.0726242065 49.5565261841
-11.7936782837 -59.0363273621 49.3649787903
-11.7898750305 -59.0002555847 49.1734123230
-11.7869930267 -58.9682846069 48.9824867249
-11.7856712341 -58.9432640076 48.7926826477
-11.7861862183 -58.9264259338 48.6042327881
-11.7884321213 -58.9173011780 48.4170646667
-11.7920427322 -58.9142608643 48.2309150696
-11.7965431213 -58.9151802063 48.0454368591
-11.8014202118 -58.9177856445 47.8602447510
-11.8061513901 -58.9197387695 47.6749343872
-11.8102416992 -58.9188308716 47.4891204834
-11.8132982254 -58.9133148193 47.3024940491
-11.8150796890 -58.9021072388 47.1148605347
-11.8154869080 -58.8847694397 46.9261245728
-11.8145608902 -58.8614807129 46.7363166809
-11.8125495911 -58.8333473206 46.5456085205
-11.8099813461 -58.8027267456 46.3544197083
-11.8075819016 -58.7728462219 46.1633110046
-11.8060207367 -58.7467117310 45.9728279114
-11.8056917191 -58.7260627747 45.7832870483
-11.8066253662 -58.7110519409 45.5947303772
-11.8085155487 -58.7003021240 45.4069137573
-11.8107824326 -58.6912345886 45.2193794250
-11.8127136230 -58.6806640625 45.0315551758
-11.8136186600 -58.6655120850 44.8428726196
-11.8129529953 -58.6433410645 44.6528739929
-11.8104219437 -58.6128463745 44.4613113403
-11.8061246872 -58.5744590759 44.2682418823
-11.8006572723 -58.5308418274 44.0741462708
-11.7950649261 -58.4866600037 43.8798828125
-11.7906436920 -58.4476966858 43.6865310669
-11.7886123657 -58.4194068909 43.4951133728
-11.7896890640 -58.4049873352 43.3062629700
-11.7937650681 -58.4039611816 43.1199073792
-11.7999954224 -58.4125595093 42.9353599548
-11.8072652817 -58.4258041382 42.7517013550
-11.8145923615 -58.4393005371 42.5680999756
-11.8211994171 -58.4495811462 42.3838920593
-11.8264017105 -58.4535865784 42.1984901428
-11.8295593262 -58.4484558105 42.0113258362
-11.8301925659 -58.4320449829 41.8219718933
-11.8281621933 -58.4037322998 41.6302833557
-11.8237829208 -58.3649101257 41.4365081787
-11.8177680969 -58.3187789917 41.2412490845
-11.8110132217 -58.2693290710 41.0452766418
-11.8043098450 -58.2201004028 40.8492774963
-11.7981367111 -58.1732406616 40.6536712646
-11.7925701141 -58.1290817261 40.4585304260
-11.7872829437 -58.0861625671 40.2635688782
-11.7816934586 -58.0418891907 40.0682754517
-11.7753715515 -57.9943351746 39.8722648621
-11.7684993744 -57.9443092346 39.6756896973
-11.7619018555 -57.8955078125 39.4792900085
-11.7564706802 -57.8519134521 39.2838630676
-11.7524852753 -57.8147811890 39.0896835327
-11.7495193481 -57.7821960449 38.8963661194
-11.7469272614 -57.7512855530 38.7033386230
-11.7443561554 -57.7204589844 38.5102844238
-11.7419071198 -57.6901779175 38.3172912598
-11.7399930954 -57.6622810364 38.1247406006
-11.7390050888 -57.6385307312 37.9330024719
-11.7389707565 -57.6190376282 37.7421035767
-11.7394084930 -57.6016540527 37.5516090393
-11.7394981384 -57.5827064514 37.3607597351
-11.7384462357 -57.5586509705 37.1688156128
-11.7358903885 -57.5278625488 36.9754219055
-11.7321166992 -57.4916114807 36.7808341980
-11.7279167175 -57.4534530640 36.5857925415
-11.7241420746 -57.4171867371 36.3910903931
-11.7213010788 -57.3851013184 36.1972198486
-11.7194919586 -57.3576240540 36.0042800903
-11.7185668945 -57.3341026306 35.8121376038
-11.7182874680 -57.3134727478 35.6205787659
-11.7183580399 -57.2944030762 35.4293174744
-11.7184095383 -57.2752456665 35.2380027771
-11.7180185318 -57.2541007996 35.0462303162
-11.7167491913 -57.2290229797 34.8535728455
-11.7142686844 -57.1985092163 34.6596946716
-11.7105007172 -57.1622276306 34.4645118713
-11.7057361603 -57.1214752197 34.2683029175
-11.7005329132 -57.0787506104 34.0715980530
-11.6954851151 -57.0367126465 33.8749847412
-11.6910753250 -56.9975318909 33.6789360046
-11.6877098083 -56.9630203247 33.4838600159
-11.6857643127 -56.9348716736 33.2901420593
-11.6854524612 -56.9140357971 33.0980033875
-11.6865949631 -56.8997192383 32.9072837830
-11.6885681152 -56.8891220093 32.7173652649
-11.6904850006 -56.8782691956 32.5273704529
-11.6914997101 -56.8633689880 32.3364448547
-11.6910991669 -56.8421211243 32.1440620422
-11.6892356873 -56.8143119812 31.9501609802
-11.6862220764 -56.7813453674 31.7550449371
-11.6824655533 -56.7450332642 31.5591220856
-11.6782674789 -56.7067413330 31.3626899719
-11.6738519669 -56.6674652100 31.1659755707
-11.6695232391 -56.6285705566 30.9692916870
-11.6657209396 -56.5920372009 30.7730922699
-11.6628150940 -56.5595169067 30.5777626038
-11.6607789993 -56.5308876038 30.3832817078
-11.6590929031 -56.5038299561 30.1891212463
-11.6570234299 -56.4750480652 29.9945182800
-11.6539926529 -56.4419441223 29.7988605499
-11.6497192383 -56.4032630920 29.6018505096
-11.6441326141 -56.3586845398 29.4033985138
-11.6372852325 -56.3084335327 29.2035484314
-11.6293706894 -56.2533912659 29.0024948120
-11.6207351685 -56.1950988770 28.8005962372
-11.6118011475 -56.1354637146 28.5982952118
-11.6030569077 -56.0766716003 28.3961086273
-11.5950899124 -56.0213546753 28.1946659088
-11.5884552002 -55.9720191956 27.9945735931
-11.5833806992 -55.9296760559 27.7960853577
-11.5795841217 -55.8930625916 27.5989112854
-11.5764093399 -55.8592414856 27.4023551941
-11.5730953217 -55.8247871399 27.2055931091
-11.5689945221 -55.7867927551 27.0079231262
-11.5637521744 -55.7436676025 26.8089485168
-11.5574846268 -55.6959266663 26.6087875366
-11.5508384705 -55.6464843750 26.4081401825
-11.5448284149 -55.5998878479 26.2081184387
-11.5404663086 -55.5606842041 26.0098419189
-11.5384092331 -55.5318374634 25.8140563965
-11.5388259888 -55.5140991211 25.6209678650
-11.5414695740 -55.5063667297 25.4303226471
-11.5457820892 -55.5061302185 25.2415199280
-11.5508756638 -55.5094032288 25.0535812378
-11.5555324554 -55.5107154846 24.8651504517
-11.5584802628 -55.5043411255 24.6747932434
-11.5588645935 -55.4864425659 24.4815292358
-11.5565500259 -55.4564094543 24.2851867676
-11.5520257950 -55.4164390564 24.0862922668
-11.5460872650 -55.3700981140 23.8857307434
-11.5395555496 -55.3210868835 23.6844253540
-11.5330781937 -55.2723159790 23.4831085205
-11.5269975662 -55.2253150940 23.2821712494
-11.5213642120 -55.1803207397 23.0816783905
-11.5161409378 -55.1371650696 22.8815879822
-11.5114030838 -55.0961875916 22.6819934845
-11.5073404312 -55.0582389832 22.4831161499
-11.5040311813 -55.0236701965 22.2850532532
-11.5011348724 -54.9909591675 22.0874195099
-11.4977560043 -54.9560699463 21.8891696930
-11.4927196503 -54.9137191772 21.6889286041
-11.4852437973 -54.8603820801 21.4857654572
-11.4755363464 -54.7969970703 21.2798995972
-11.4647846222 -54.7289009094 21.0727138519
-11.4545278549 -54.6630249023 20.8660125732
-11.4459095001 -54.6045074463 20.6611537933
-11.4392957687 -54.5550079346 20.4585895538
-11.4344100952 -54.5132827759 20.2580051422
-11.4307508469 -54.4770736694 20.0588226318
-11.4278917313 -54.4444541931 19.8605384827
-11.4254064560 -54.4135169983 19.6626510620
-11.4226179123 -54.3812103271 19.4643516541
-11.4185943604 -54.3433341980 19.2645111084
-11.4125137329 -54.2961883545 19.0621280670
-11.4040870667 -54.2384757996 18.8568344116
-11.3936681747 -54.1717720032 18.6490364075
-11.3820400238 -54.0996170044 18.4396724701
-11.3701467514 -54.0262603760 18.2298774719
-11.3588829041 -53.9557228088 18.0207481384
-11.3489551544 -53.8911933899 17.8131542206
-11.3408145905 -53.8347091675 17.6076602936
-11.3345699310 -53.7867584229 17.4044208527
-11.3297777176 -53.7453498840 17.2029018402
-11.3252573013 -53.7051544189 17.0016555786
-11.3193292618 -53.6586112976 16.7986011505
-11.3105344772 -53.5991363525 16.5919094086
-11.2983388901 -53.5243301392 16.3808917999
-11.2832918167 -53.4366569519 16.1662006378
-11.2666273117 -53.3416786194 15.9493579865
-11.2497386932 -53.2456741333 15.7320985794
-11.2338342667 -53.1540946960 15.5159416199
-11.2197427750 -53.0706787109 15.3019428253
-11.2077617645 -52.9967689514 15.0904932022
-11.1976118088 -52.9311027527 14.8812589645
-11.1886100769 -52.8706016541 14.6733875275
-11.1799383163 -52.8115844727 14.4658479691
-11.1708364487 -52.7506179810 14.2576723099
-11.1607780457 -52.6853256226 14.0481824875
-11.1496801376 -52.6153373718 13.8372621536
-11.1379652023 -52.5425529480 13.6254472733
-11.1263427734 -52.4701728821 13.4136457443
-11.1154508591 -52.4010810852 13.2026844025
-11.1055603027 -52.3364944458 12.9929180145
-11.0964794159 -52.2755584717 12.7841081619
-11.0877761841 -52.2163124084 12.5756998062
-11.0791339874 -52.1573333740 12.3672847748
-11.0704708099 -52.0982551575 12.1587553024
-11.0617208481 -52.0387725830 11.9500236511
-11.0526361465 -51.9777717590 11.7407646179
-11.0428714752 -51.9136886597 11.5305204391
-11.0322103500 -51.8455505371 11.3190002441
-11.0207490921 -51.7737884521 11.1063222885
-11.0089378357 -51.7004394531 10.8930768967
-10.9973297119 -51.6279945374 10.6799936295
-10.9860448837 -51.5569992065 10.4672355652
-10.9744472504 -51.4845771790 10.2539567947
-10.9614038467 -51.4056205750 10.0386390686
-10.9458026886 -51.3150978088 9.8197784424
-10.9267816544 -51.2091140747 9.5961942673
-10.9037752151 -51.0851097107 9.3670911789
-10.8767004013 -50.9427070618 9.1323232651
-10.8460636139 -50.7841911316 8.8925371170
-10.8125572205 -50.6126861572 8.6486406326
-10.7764863968 -50.4295730591 8.4010210037
-10.7379007339 -50.2350654602 8.1497220993
-10.6975774765 -50.0326805115 7.8957815170
-10.6577596664 -49.8325538635 7.6422543526
-10.6214847565 -49.6484069824 7.3933053017
-10.5908470154 -49.4897193909 7.1518464088
-10.5657386780 -49.3560028076 6.9177799225
-10.5440540314 -49.2377471924 6.6882505417
-10.5230007172 -49.1223297119 6.4594273567
-10.5004701614 -49.0002098083 6.2283921242
-10.4757156372 -48.8680229187 5.9940962791
-10.4493474960 -48.7285194397 5.7573680878
-10.4229745865 -48.5889739990 5.5204367638
-10.3986740112 -48.4587783813 5.2862071991
-10.3783922195 -48.3467445374 5.0574259758
-10.3635587692 -48.2593383789 4.8361372948
-10.3549575806 -48.2001152039 4.6234955788
-10.3525648117 -48.1689643860 4.4195199013
-10.3552732468 -48.1608924866 4.2227067947
-10.3610162735 -48.1665420532 4.0301709175
-10.3675918579 -48.1759605408 3.8388178349
-10.3738040924 -48.1837387085 3.6469526291
-10.3800344467 -48.1915969849 3.4551138878
-10.3878374100 -48.2065734863 3.2655255795
-10.3989171982 -48.2363815308 3.0806407928
-10.4141950607 -48.2851943970 2.9018104076
-10.4334602356 -48.3520622253 2.7287709713
-10.4555835724 -48.4318809509 2.5599324703
-10.4790697098 -48.5178756714 2.3931601048
-10.5028085709 -48.6050262451 2.2268621922
-10.5267839432 -48.6932601929 2.0610158443
-10.5522823334 -48.7884025574 1.8974928856
-10.5814819336 -48.9003181458 1.7394801378
-10.6166763306 -49.0393943787 1.5903571844
-10.6593875885 -49.2125358582 1.4524049759
-10.7094707489 -49.4190940857 1.3254811764
-10.7644758224 -49.6479721069 1.2060538530
-10.8198947906 -49.8787498474 1.0875352621
-10.8708181381 -50.0891990662 0.9626923203
-10.9142923355 -50.2659263611 0.8271181583
-10.9504928589 -50.4097175598 0.6810052991
-10.9815759659 -50.5303382874 0.5274854302
-11.0093202591 -50.6358451843 0.3691568673
-11.0338268280 -50.7266921997 0.2061383277
-11.0541915894 -50.7987785339 0.0370517336
33.2861328125 -30.7784042358 96.6264877319
33.2838211060 -30.7681713104 96.4316787720
33.2849082947 -30.7610893250 96.2368316650
33.2896728516 -30.7574119568 96.0419387817
33.2945289612 -30.7538185120 95.8470382690
33.2945747375 -30.7457695007 95.6521530151
33.2877082825 -30.7313175201 95.4572753906
33.2762527466 -30.7126140594 95.2623825073
33.2653388977 -30.6944103241 95.0674514771
33.2602577209 -30.6816082001 94.8724822998
33.2649726868 -30.6778812408 94.6774749756
33.2820816040 -30.6856346130 94.4824676514
33.3130073547 -30.7061882019 94.2874832153
33.3574066162 -30.7392292023 94.0925598145
33.4121742249 -30.7818756104 93.8977203369
33.4713516235 -30.8286151886 93.7029724121
33.5279541016 -30.8729667664 93.5082855225
33.5766181946 -30.9099712372 93.3136367798
33.6152153015 -30.9376449585 93.1189880371
33.6444664001 -30.9566631317 92.9243164063
33.6664886475 -30.9689788818 92.7296218872
33.6834602356 -30.9766178131 92.5349121094
33.6973419189 -30.9813938141 92.3401718140
33.7103843689 -30.9853897095 92.1454315186
33.7253341675 -30.9911575317 91.9507217407
33.7449951172 -31.0012893677 91.7560729980
33.7718963623 -31.0181331635 91.5615234375
33.8082733154 -31.0437622070 91.3671340942
33.8552017212 -31.0791778564 91.1729278564
33.9110870361 -31.1228942871 90.9789199829
33.9712104797 -31.1705417633 90.7850570679
34.0290565491 -31.2160873413 90.5912322998
34.0785369873 -31.2538757324 90.3973388672
34.1161804199 -31.2806911469 90.2032928467
34.1426239014 -31.2971248627 90.0090789795
34.1624794006 -31.3074531555 89.8147583008
34.1826133728 -31.3180389404 89.6204528809
34.2099800110 -31.3353309631 89.4263305664
34.2497215271 -31.3641014099 89.2325057983
34.3036499023 -31.4060306549 89.0390548706
34.3694839478 -31.4590034485 88.8459625244
34.4413299561 -31.5175552368 88.6531066895
34.5113487244 -31.5744171143 88.4603042603
34.5721168518 -31.6227016449 88.2673568726
34.6189041138 -31.6580219269 88.0741119385
34.6507797241 -31.6795139313 87.8805007935
34.6702232361 -31.6894760132 87.6865768433
34.6818504333 -31.6921882629 87.4924240112
34.6912269592 -31.6928100586 87.2982101440
34.7039527893 -31.6965389252 87.1041030884
34.7249221802 -31.7079181671 86.9102630615
34.7574348450 -31.7300090790 86.7168121338
34.8020477295 -31.7633228302 86.5238113403
34.8557777405 -31.8051033020 86.3311843872
34.9128723145 -31.8500061035 86.1387405396
34.9670143127 -31.8921737671 85.9462661743
35.0134658813 -31.9272060394 85.7535781860
35.0498962402 -31.9529418945 85.5605773926
35.0763206482 -31.9693946838 85.3672256470
35.0948448181 -31.9785175323 85.1735839844
35.1093292236 -31.9838886261 84.9797973633
35.1245269775 -31.9899234772 84.7860488892
35.1447906494 -32.0006637573 84.5925216675
35.1726646423 -32.0184631348 84.3993301392
35.2082786560 -32.0434532166 84.2065048218
35.2500572205 -32.0741653442 84.0139923096
35.2959518433 -32.1086959839 83.8217239380
35.3439750671 -32.1452102661 83.6296005249
35.3920516968 -32.1817741394 83.4375457764
35.4377326965 -32.2161216736 83.2454452515
35.4783439636 -32.2457580566 83.0531463623
35.5116004944 -32.2685737610 82.8605422974
35.5365066528 -32.2836303711 82.6675491333
35.5538635254 -32.2916831970 82.4741973877
35.5662155151 -32.2950897217 82.2806015015
35.5775299072 -32.2975349426 82.0869522095
35.5928459167 -32.3036918640 81.8935165405
35.6173973083 -32.3184242249 81.7005920410
35.6548576355 -32.3451499939 81.5083999634
35.7052803040 -32.3839149475 81.3169708252
35.7641983032 -32.4305725098 81.1260910034
35.8240928650 -32.4781379700 80.9353485107
35.8777542114 -32.5199203491 80.7443237305
35.9215164185 -32.5525131226 80.5527801514
35.9561653137 -32.5766372681 80.3607482910
35.9849166870 -32.5952873230 80.1683959961
36.0104141235 -32.6109123230 79.9758758545
36.0333862305 -32.6241989136 79.7832183838
36.0537185669 -32.6350288391 79.5904235840
36.0724334717 -32.6443595886 79.3975296021
36.0928573608 -32.6552772522 79.2047653198
36.1199645996 -32.6724052429 79.0124588013
36.1580390930 -32.6997261047 78.8208999634
36.2079658508 -32.7380599976 78.6301956177
36.2661476135 -32.7840690613 78.4401092529
36.3263092041 -32.8319206238 78.2502365112
36.3829116821 -32.8764648438 78.0602035522
36.4334068298 -32.9153404236 77.8698120117
36.4778862000 -32.9486274719 77.6790542603
36.5171546936 -32.9770736694 77.4879760742
36.5516471863 -33.0010795593 77.2966003418
36.5819129944 -33.0211639404 77.1049499512
36.6098670959 -33.0390968323 76.9131546021
36.6392555237 -33.0583648682 76.7215042114
36.6744804382 -33.0830612183 76.5303192139
36.7181015015 -33.1155662537 76.3398361206
36.7691421509 -33.1549682617 76.1499786377
36.8238945007 -33.1978225708 75.9604797363
36.8783683777 -33.2404251099 75.7710266113
36.9299316406 -33.2803192139 75.5814208984
36.9773292542 -33.3163452148 75.3915328979
37.0202140808 -33.3481788635 75.2013473511
37.0590972900 -33.3762893677 75.0108795166
37.0956764221 -33.4022674561 74.8202590942
37.1327400208 -33.4286880493 74.6297302246
37.1728858948 -33.4579849243 74.4395065308
37.2171058655 -33.4910697937 74.2496795654
37.2647056580 -33.5272979736 74.0602035522
37.3144493103 -33.5655250549 73.8709716797
37.3652954102 -33.6047821045 73.6819076538
37.4158897400 -33.6438026428 73.4928894043
37.4636878967 -33.6802330017 73.3036804199
37.5051536560 -33.7107658386 73.1139602661
37.5373458862 -33.7326812744 72.9234313965
37.5596961975 -33.7454414368 72.7320327759
37.5742111206 -33.7509117126 72.5399169922
37.5842781067 -33.7522430420 72.3473892212
37.5936164856 -33.7528991699 72.1547927856
37.6058883667 -33.7562828064 71.9624710083
37.6242637634 -33.7653465271 71.7707519531
37.6505279541 -33.7817535400 71.5798110962
37.6843872070 -33.8052253723 71.3896408081
37.7237625122 -33.8338317871 71.2000579834
37.7656822205 -33.8648033142 71.0107803345
37.8068695068 -33.8951034546 70.8214797974
37.8441352844 -33.9217529297 70.6318283081
37.8752365112 -33.9426689148 70.4415893555
37.8999824524 -33.9576683044 70.2507324219
37.9204368591 -33.9686737061 70.0594482422
37.9398498535 -33.9787178040 69.8680725098
37.9611663818 -33.9905242920 69.6769104004
37.9861793518 -34.0057792664 69.4861602783
38.0158996582 -34.0254135132 69.2959365845
38.0513992310 -34.0504302979 69.1063766479
38.0940628052 -34.0821189880 68.9176406860
38.1446685791 -34.1212043762 68.7298278809
38.2020683289 -34.1666183472 68.5428314209
38.2627983093 -34.2151336670 68.3562850952
38.3220329285 -34.2622604370 68.1696624756
38.3753929138 -34.3039207458 67.9824447632
38.4208717346 -34.3382453918 67.7944030762
38.4602928162 -34.3669357300 67.6057205200
38.4991188049 -34.3950653076 67.4170150757
38.5438041687 -34.4286575317 67.2290420532
38.5980644226 -34.4711723328 67.0422515869
38.6604423523 -34.5212440491 66.8564910889
38.7245941162 -34.5729789734 66.6710281372
38.7818946838 -34.6183280945 66.4848251343
38.8250236511 -34.6504859924 66.2969970703
38.8508033752 -34.6664886475 66.1071090698
38.8610534668 -34.6680221558 65.9153518677
38.8617668152 -34.6606750488 65.7224197388
38.8611488342 -34.6520805359 65.5293045044
38.8666877747 -34.6492271423 65.3369369507
38.8825454712 -34.6559867859 65.1458663940
38.9090499878 -34.6726608276 64.9561386108
38.9440612793 -34.6972656250 64.7675323486
38.9844436646 -34.7268753052 64.5796432495
39.0269546509 -34.7584724426 64.3920898438
39.0689697266 -34.7896080017 64.2045135498
39.1089820862 -34.8188781738 64.0167388916
39.1465911865 -34.8459129333 63.8286895752
39.1820907593 -34.8709869385 63.6404075623
39.2159576416 -34.8945350647 63.4519500732
39.2482604980 -34.9166297913 63.2633209229
39.2783508301 -34.9366607666 63.0744285583
39.3052330017 -34.9537086487 62.8851356506
39.3286399841 -34.9675140381 62.6953964233
39.3496971130 -34.9791297913 62.5053558350
39.3705291748 -34.9905395508 62.3153038025
39.3934364319 -35.0038833618 62.1255569458
39.4206695557 -35.0212631226 61.9364318848
39.4546508789 -35.0449333191 61.7482833862
39.4972038269 -35.0765953064 61.5613861084
39.5477333069 -35.1156959534 61.3756752014
39.6021270752 -35.1584014893 61.1905822754
39.6539840698 -35.1987457275 61.0051994324
39.6974639893 -35.2312774658 60.8186721802
39.7295341492 -35.2531814575 60.6305389404
39.7503776550 -35.2646141052 60.4407997131
39.7623786926 -35.2677993774 60.2497787476
39.7689895630 -35.2659606934 60.0579605103
39.7741661072 -35.2627830505 59.8659248352
39.7819938660 -35.2620773315 59.6742744446
39.7958183289 -35.2669677734 59.4835243225
39.8169288635 -35.2786483765 59.2938804626
39.8437614441 -35.2956695557 59.1051254272
39.8725624084 -35.3145256042 58.9166984558
39.8991966248 -35.3313674927 58.7279663086
39.9208755493 -35.3435821533 58.5384979248
39.9368896484 -35.3505172729 58.3481674194
39.9484672546 -35.3533134460 58.1571502686
39.9581642151 -35.3543548584 57.9658432007
39.9690628052 -35.3565177917 57.7747230530
39.9838066101 -35.3622627258 57.5842170715
40.0040092468 -35.3731079102 57.3945846558
40.0305671692 -35.3898811340 57.2059898376
40.0643692017 -35.4134140015 57.0185890198
40.1063804626 -35.4446105957 56.8325538635
40.1569213867 -35.4837684631 56.6479644775
40.2147102356 -35.5296936035 56.4646263123
40.2763481140 -35.5792121887 56.2819976807
40.3367347717 -35.6275711060 56.0992469788
40.3905906677 -35.6698341370 55.9154968262
40.4345588684 -35.7028694153 55.7301635742
40.4687004089 -35.7267379761 55.5432395935
40.4964485168 -35.7446441650 55.3552780151
40.5229110718 -35.7613487244 55.1671257019
40.5526771545 -35.7811355591 54.9795646667
40.5884323120 -35.8065147400 54.7930564880
40.6306266785 -35.8379096985 54.6077003479
40.6774787903 -35.8736534119 54.4232025146
40.7252655029 -35.9102706909 54.2389259338
40.7697601318 -35.9438209534 54.0541343689
40.8083496094 -35.9718589783 53.8683700562
40.8405723572 -35.9939537048 53.6815261841
40.8663635254 -36.0100440979 53.4935836792
40.8842277527 -36.0187339783 53.3042564392
40.8918914795 -36.0178985596 53.1131210327
40.8890419006 -36.0072402954 52.9200973511
40.8794326782 -35.9902725220 52.7258300781
40.8703956604 -35.9738388062 52.5316352844
40.8701515198 -35.9656181335 52.3390045166
40.8847579956 -35.9712638855 52.1490745544
40.9160575867 -35.9925003052 51.9622116089
40.9610748291 -36.0265541077 51.7779121399
41.0129280090 -36.0669937134 51.5949363708
41.0631713867 -36.1059341431 51.4117317200
41.1048812866 -36.1369018555 51.2269973755
41.1347770691 -36.1568412781 51.0400962830
41.1532516479 -36.1661071777 50.8510780334
41.1628341675 -36.1670684814 50.6603889465
41.1668663025 -36.1628417969 50.4686393738
41.1692924500 -36.1571197510 50.2765769958
41.1750106812 -36.1544647217 50.0851287842
41.1893615723 -36.1598815918 49.8953399658
41.2166175842 -36.1773567200 49.7080497742
41.2584304810 -36.2084350586 49.5236206055
41.3132438660 -36.2516632080 49.3417816162
41.3765678406 -36.3028526306 49.1616821289
41.4417991638 -36.3558235168 48.9820480347
41.5013046265 -36.4034500122 48.8013687134
41.5477752686 -36.4388961792 48.6181907654
41.5757484436 -36.4570541382 48.4313812256
41.5831947327 -36.4560279846 48.2404937744
41.5725517273 -36.4380950928 48.0459632874
41.5503425598 -36.4093437195 47.8490676880
41.5252761841 -36.3779220581 47.6515388489
41.5058784485 -36.3517951965 47.4551010132
41.4988670349 -36.3372459412 47.2611465454
41.5083122253 -36.3380813599 47.0705375671
41.5346298218 -36.3546943665 46.8834037781
41.5737686157 -36.3832931519 46.6989479065
41.6182823181 -36.4169235229 46.5156555176
41.6604537964 -36.4483642578 46.3319320679
41.6950454712 -36.4727172852 46.1466751099
41.7200164795 -36.4880790710 45.9594345093
41.7359504700 -36.4949874878 45.7703132629
41.7456054688 -36.4960250854 45.5798721313
41.7536468506 -36.4955520630 45.3890876770
41.7659149170 -36.4990348816 45.1991996765
41.7880668640 -36.5117607117 45.0114326477
41.8237304688 -36.5371246338 44.8265914917
41.8728904724 -36.5751190186 44.6447105408
41.9316558838 -36.6220970154 44.4649734497
41.9936065674 -36.6720581055 44.2860107422
42.0515327454 -36.7182579041 44.1062545776
42.0989112854 -36.7545967102 43.9242668152
42.1315269470 -36.7771224976 43.7390861511
42.1488533020 -36.7853469849 43.5505676270
42.1539192200 -36.7821006775 43.3593444824
42.1514892578 -36.7718391418 43.1664390564
42.1462097168 -36.7589149475 42.9728775024
42.1419258118 -36.7469139099 42.7795143127
42.1419944763 -36.7389907837 42.5871047974
42.1496810913 -36.7381973267 42.3964004517
42.1677513123 -36.7471160889 42.2080459595
42.1971130371 -36.7666053772 42.0222740173
42.2354011536 -36.7944488525 41.8385734558
42.2768592834 -36.8252601624 41.6556434631
42.3141975403 -36.8522186279 41.4718208313
42.3415412903 -36.8698234558 41.2857360840
42.3566818237 -36.8760070801 41.0968475342
42.3612213135 -36.8722724915 40.9055023193
42.3590545654 -36.8622550964 40.7125816345
42.3545112610 -36.8500099182 40.5190849304
42.3512802124 -36.8389968872 40.3258705139
42.3520965576 -36.8317680359 40.1335868835
42.3589019775 -36.8301467896 39.9427070618
42.3730697632 -36.8354225159 39.7535705566
42.3952331543 -36.8481788635 39.5663490295
42.4246215820 -36.8677062988 39.3808746338
42.4586219788 -36.8915519714 39.1965370178
42.4932098389 -36.9159507751 39.0123863220
42.5240859985 -36.9368705750 38.8273735046
42.5477371216 -36.9510307312 38.6406440735
42.5624809265 -36.9568481445 38.4517669678
42.5693664551 -36.9553031921 38.2609786987
42.5722045898 -36.9499740601 38.0691909790
42.5764884949 -36.9459915161 37.8777465820
42.5877685547 -36.9485664368 37.6880187988
42.6101493835 -36.9615364075 37.5010414124
42.6447830200 -36.9859848022 37.3171310425
42.6888961792 -37.0193176270 37.1356239319
42.7365531921 -37.0559692383 36.9550590515
42.7812118530 -37.0898170471 36.7738037109
42.8183898926 -37.1166572571 36.5907211304
42.8466987610 -37.1351890564 36.4054412842
42.8672904968 -37.1464920044 36.2182388306
42.8826332092 -37.1528816223 36.0297164917
42.8951683044 -37.1566390991 35.8404884338
42.9064483643 -37.1592178345 35.6509399414
42.9173851013 -37.1614761353 35.4613037109
42.9291496277 -37.1645126343 35.2718849182
42.9434089661 -37.1698837280 35.0831108093
42.9614334106 -37.1787872314 34.8953208923
42.9832687378 -37.1912574768 34.7085380554
43.0077285767 -37.2061920166 34.5224571228
43.0328903198 -37.2217864990 34.3365821838
43.0564804077 -37.2359085083 34.1503219604
43.0764160156 -37.2466011047 33.9631195068
43.0915527344 -37.2528038025 33.7746658325
43.1019439697 -37.2545547485 33.5849571228
43.1083030701 -37.2525215149 33.3941802979
43.1115264893 -37.2475547791 33.2025566101
43.1131744385 -37.2411079407 33.0105018616
43.1164779663 -37.2362098694 32.8188781738
43.1263656616 -37.2374916077 32.6290130615
43.1473617554 -37.2491836548 32.4421501160
43.1806068420 -37.2723617554 32.2586250305
43.2225723267 -37.3037185669 32.0775108337
43.2664947510 -37.3369140625 31.8969841003
43.3052635193 -37.3652801514 31.7151031494
43.3337783813 -37.3840293884 31.5304546356
43.3496665955 -37.3909378052 31.3423614502
43.3527069092 -37.3857994080 31.1507301331
43.3443069458 -37.3699302673 30.9559192657
43.3279876709 -37.3466300964 30.7588768005
43.3100471497 -37.3218116760 30.5613365173
43.2989082336 -37.3033638000 30.3656501770
43.3030014038 -37.2992095947 30.1741981506
43.3285255432 -37.3151550293 29.9887599945
43.3776588440 -37.3532524109 29.8100051880
43.4476051331 -37.4108772278 29.6372013092
43.5310401917 -37.4811630249 29.4683227539
43.6180686951 -37.5548210144 29.3005886078
43.6985626221 -37.6223526001 29.1311187744
43.7638702393 -37.6756439209 28.9574222565
43.8078269958 -37.7089042664 28.7776889801
43.8277511597 -37.7196159363 28.5910968781
43.8254470825 -37.7094688416 28.3981018066
43.8071289063 -37.6842918396 28.2004489899
43.7818107605 -37.6525459290 28.0007171631
43.7591896057 -37.6233291626 27.8017082214
43.7480468750 -37.6048774719 27.6059970856
43.7550163269 -37.6034278870 27.4155559540
43.7829246521 -37.6216316223 27.2312583923
43.8289184570 -37.6568107605 27.0523185730
43.8840446472 -37.7005691528 26.8761348724
43.9357833862 -37.7411422729 26.6990242004
43.9727363586 -37.7678451538 26.5175895691
43.9885826111 -37.7747344971 26.3299121857
43.9834556580 -37.7619323730 26.1359786987
43.9634132385 -37.7351264954 25.9375495911
43.9388542175 -37.7040786743 25.7377128601
43.9218063354 -37.6800804138 25.5400810242
43.9224281311 -37.6726684570 25.3477401733
43.9462471008 -37.6870422363 25.1624107361
43.9930152893 -37.7229652405 24.9840774536
44.0568923950 -37.7749557495 24.8110160828
44.1277389526 -37.8334999084 24.6401748657
44.1935806274 -37.8873405457 24.4679012299
44.2437210083 -37.9264411926 24.2908992767
44.2718009949 -37.9448280334 24.1071701050
44.2776870728 -37.9423713684 23.9166145325
44.2671356201 -37.9244728088 23.7209625244
44.2489738464 -37.8994255066 23.5229129791
44.2314491272 -37.8749732971 23.3250102997
44.2200393677 -37.8562622070 23.1289730072
44.2176780701 -37.8460540771 22.9357318878
44.2260093689 -37.8458862305 22.7458248138
44.2458686829 -37.8565521240 22.5595417023
44.2767333984 -37.8775558472 22.3767490387
44.3161735535 -37.9066162109 22.1967029572
44.3600425720 -37.9398422241 22.0181121826
44.4032554626 -37.9724578857 21.8393688202
44.4407310486 -37.9996757507 21.6588516235
44.4683151245 -38.0176086426 21.4752178192
44.4835357666 -38.0239219666 21.2876472473
44.4858169556 -38.0180740356 21.0959243774
44.4766235352 -38.0014457703 20.9004917145
44.4598274231 -37.9776649475 20.7025680542
44.4417724609 -37.9527053833 20.5041923523
44.4300270081 -37.9336700439 20.3078174591
44.4310913086 -37.9266738892 20.1155776978
44.4484291077 -37.9349746704 19.9286346436
44.4815711975 -37.9581298828 19.7468776703
44.5261802673 -37.9920692444 19.5689239502
44.5752258301 -38.0301856995 19.3924884796
44.6209449768 -38.0651702881 19.2150192261
44.6565093994 -38.0906105042 19.0342521667
44.6766700745 -38.1015739441 18.8484191895
44.6776885986 -38.0945358276 18.6562385559
44.6574363708 -38.0675048828 18.4569568634
44.6164054871 -38.0209274292 18.2506790161
44.5590438843 -37.9589920044 18.0388450623
44.4937591553 -37.8895988464 17.8242340088
44.4308319092 -37.8224220276 17.6102924347
44.3798103333 -37.7664337158 17.4002437592
44.3476066589 -37.7281417847 17.1964588165
44.3374633789 -37.7105903625 17.0000820160
44.3488731384 -37.7133102417 16.8110027313
44.3781700134 -37.7328529358 16.6280193329
44.4189453125 -37.7631950378 16.4489917755
44.4628868103 -37.7965202332 16.2710990906
44.5018844604 -37.8251914978 16.0915660858
44.5302009583 -37.8438224792 15.9084053040
44.5451011658 -37.8498306274 15.7206449509
44.5467605591 -37.8433837891 15.5283117294
44.5387420654 -37.8278274536 15.3326072693
44.5277976990 -37.8095207214 15.1358547211
44.5213966370 -37.7954826355 14.9406499863
44.5239639282 -37.7898902893 14.7485494614
44.5344619751 -37.7917556763 14.5592136383
44.5470619202 -37.7955932617 14.3706140518
44.5544815063 -37.7945632935 14.1801967621
44.5515098572 -37.7837524414 13.9861097336
44.5363922119 -37.7615089417 13.7877063751
44.5103225708 -37.7289581299 13.5853796005
44.4766540527 -37.6892547607 13.3802909851
44.4402236938 -37.6469421387 13.1741447449
44.4065513611 -37.6072311401 12.9689044952
44.3812866211 -37.5754241943 12.7665967941
44.3696022034 -37.5564002991 12.5690994263
44.3749885559 -37.5534439087 12.3776998520
44.3978691101 -37.5669555664 12.1925954819
44.4353523254 -37.5942153931 12.0127859116
44.4824752808 -37.6305503845 11.8365116119
44.5337562561 -37.6708068848 11.6618080139
44.5838699341 -37.7099647522 11.4867496490
44.6277427673 -37.7432479858 11.3094835281
44.6613578796 -37.7668762207 11.1285266876
44.6830978394 -37.7793235779 10.9432601929
44.6939926147 -37.7815628052 10.7540321350
44.6965599060 -37.7759552002 10.5617408752
44.6935768127 -37.7651252747 10.3673906326
44.6877975464 -37.7516593933 10.1719846725
44.6819992065 -37.7381744385 9.9765434265
44.6785926819 -37.7269363403 9.7819623947
