-35.8760910034 -18.8626251221 31.6713218689
-35.9226646423 -18.8828907013 31.4836120605
-35.9631385803 -18.9001770020 31.2944736481
-35.9956626892 -18.9135818481 31.1034412384
-36.0176010132 -18.9218196869 30.9098567963
-36.0289344788 -18.9248790741 30.7136917114
-36.0349235535 -18.9253273010 30.5162162781
-36.0451774597 -18.9278583527 30.3197841644
-36.0690078735 -18.9370212555 30.1267032623
-36.1097984314 -18.9544639587 29.9378414154
-36.1623878479 -18.9776706696 29.7519512177
-36.2158432007 -19.0013008118 29.5663375854
-36.2591896057 -19.0199928284 29.3782577515
-36.2858467102 -19.0305385590 29.1860466003
-36.2949943542 -19.0325298309 28.9894580841
-36.2909698486 -19.0280895233 28.7895526886
-36.2816543579 -19.0210666656 28.5882873535
-36.2752647400 -19.0154705048 28.3877372742
-36.2762680054 -19.0134868622 28.1890392303
-36.2833061218 -19.0144481659 27.9918651581
-36.2909698486 -19.0157146454 27.7948436737
-36.2937736511 -19.0146102905 27.5965766907
-36.2892684937 -19.0099334717 27.3964195251
-36.2791252136 -19.0025024414 27.1947879791
-36.2684936523 -18.9948348999 26.9930019379
-36.2636795044 -18.9900054932 26.7926921844
-36.2687110901 -18.9899883270 26.5949172974
-36.2829360962 -18.9944591522 26.3995285034
-36.3013916016 -19.0009956360 26.2052478790
-36.3176918030 -19.0064830780 26.0104160309
-36.3271026611 -19.0086040497 25.8137836456
-36.3277854919 -19.0064582825 25.6148490906
-36.3204078674 -19.0003776550 25.4137763977
-36.3076438904 -18.9916648865 25.2112503052
-36.2936439514 -18.9823474884 25.0083637238
-36.2825584412 -18.9744529724 24.8062171936
-36.2765884399 -18.9690570831 24.6054058075
-36.2753982544 -18.9659976959 24.4058494568
-36.2772979736 -18.9644470215 24.2071037292
-36.2808456421 -18.9637031555 24.0087890625
-36.2857704163 -18.9636287689 23.8108367920
-36.2931518555 -18.9647560120 23.6135387421
-36.3051834106 -18.9681549072 23.4174957275
-36.3244552612 -18.9750938416 23.2234249115
-36.3527946472 -18.9864597321 23.0318336487
-36.3901939392 -19.0022563934 22.8427448273
-36.4349403381 -19.0216407776 22.6557064056
-36.4850311279 -19.0436401367 22.4701824188
-36.5396728516 -19.0678615570 22.2859668732
-36.5989074707 -19.0943298340 22.1030826569
-36.6611747742 -19.1222801208 21.9211063385
-36.7216072083 -19.1493358612 21.7386951447
-36.7740821838 -19.1725025177 21.5541400909
-36.8153495789 -19.1901931763 21.3665218353
-36.8463134766 -19.2028484344 21.1760635376
-36.8691368103 -19.2115268707 20.9833545685
-36.8843383789 -19.2164783478 20.7885208130
-36.8913192749 -19.2174129486 20.5913772583
-36.8908309937 -19.2146968842 20.3921184540
-36.8859176636 -19.2098178864 20.1915931702
-36.8807220459 -19.2048015594 19.9909629822
-36.8788261414 -19.2013969421 19.7912521362
-36.8820724487 -19.2005062103 19.5929889679
-36.8902015686 -19.2020015717 19.3961124420
-36.9016647339 -19.2051258087 19.2001857758
-36.9151802063 -19.2092533112 19.0048522949
-36.9309844971 -19.2145004272 18.8101806641
-36.9506072998 -19.2216148376 18.6166210175
-36.9750938416 -19.2311077118 18.4244804382
-37.0032424927 -19.2423877716 18.2334232330
-37.0318756104 -19.2539081573 18.0425319672
-37.0580253601 -19.2642135620 17.8509426117
-37.0807533264 -19.2728462219 17.6583747864
-37.1012992859 -19.2804126740 17.4651832581
-37.1219024658 -19.2880077362 17.2720241547
-37.1439895630 -19.2963275909 17.0793151855
-37.1668930054 -19.3050460815 16.8868637085
-37.1882781982 -19.3130245209 16.6939811707
-37.2060165405 -19.3192176819 16.5000305176
-37.2195968628 -19.3233795166 16.3048553467
-37.2302398682 -19.3261051178 16.1088085175
-37.2404403687 -19.3286132813 15.9126300812
-37.2536964417 -19.3326168060 15.7173652649
-37.2739067078 -19.3400211334 15.5241918564
-37.3037185669 -19.3521194458 15.3339214325
-37.3424949646 -19.3686027527 15.1463823318
-37.3857383728 -19.3872699738 14.9602336884
-37.4268264771 -19.4048824310 14.7734775543
-37.4598846436 -19.4185714722 14.5843267441
-37.4818305969 -19.4268264771 14.3918247223
-37.4927864075 -19.4297065735 14.1959848404
-37.4957008362 -19.4286518097 13.9976835251
-37.4956779480 -19.4261646271 13.7984733582
-37.4982643127 -19.4249496460 13.6000480652
-37.5062866211 -19.4263954163 13.4032869339
-37.5181350708 -19.4297122955 13.2077026367
-37.5300445557 -19.4330577850 13.0121393204
-37.5405082703 -19.4356956482 12.8161287308
-37.5519981384 -19.4388370514 12.6204376221
-37.5685234070 -19.4444408417 12.4263162613
-37.5919761658 -19.4534339905 12.2343683243
-37.6209449768 -19.4651222229 12.0441627502
-37.6524810791 -19.4780693054 11.8547906876
-37.6843681335 -19.4911880493 11.6655588150
-37.7153625488 -19.5038700104 11.4760751724
-37.7440567017 -19.5154285431 11.2858953476
-37.7688713074 -19.5250873566 11.0945110321
-37.7893638611 -19.5326347351 10.9017772675
-37.8069305420 -19.5387496948 10.7081260681
-37.8238677979 -19.5445575714 10.5142850876
-37.8421821594 -19.5510368347 10.3208923340
-37.8633155823 -19.5588989258 10.1284132004
-37.8885726929 -19.5687751770 9.9372720718
-37.9191780090 -19.5812702179 9.7478723526
-37.9555206299 -19.5965728760 9.5603504181
-37.9960823059 -19.6139392853 9.3742265701
-38.0372657776 -19.6316108704 9.1883478165
-38.0747032166 -19.6474494934 9.0012979507
-38.1052589417 -19.6599216461 8.8120479584
-38.1283645630 -19.6687507629 8.6203994751
-38.1457557678 -19.6747798920 8.4269008636
-38.1601371765 -19.6793403625 8.2324285507
-38.1739196777 -19.6836051941 8.0377635956
-38.1883621216 -19.6881942749 7.8433213234
-38.2030754089 -19.6929168701 7.6489739418
-38.2164306641 -19.6969738007 7.4541831017
-38.2272109985 -19.6997718811 7.2585453987
-38.2364921570 -19.7018356323 7.0624098778
-38.2477149963 -19.7048492432 6.8669176102
-38.2644157410 -19.7105426788 6.6732501984
-38.2872924805 -19.7192592621 6.4816527367
-38.3134880066 -19.7296009064 6.2911829948
-38.3386726379 -19.7394485474 6.1003975868
-38.3595771790 -19.7472000122 5.9081940651
-38.3749313354 -19.7522373199 5.7141375542
-38.3853034973 -19.7548351288 5.5184078217
-38.3929672241 -19.7561092377 5.3217625618
-38.4019126892 -19.7580070496 5.1255459785
-38.4172096252 -19.7630157471 4.9314837456
-38.4434471130 -19.7733802795 4.7411503792
-38.4825477600 -19.7900390625 4.5552229881
-38.5322761536 -19.8119029999 4.3729677200
-38.5870666504 -19.8362445831 4.1925010681
-38.6407661438 -19.8600540161 4.0117244720
-38.6887969971 -19.8810863495 3.8290591240
-38.7283134460 -19.8979530334 3.6435151100
-38.7579421997 -19.9099807739 3.4546005726
-38.7782897949 -19.9174633026 3.2625014782
-38.7921333313 -19.9217643738 3.0681622028
-38.8035087585 -19.9248561859 2.8729705811
-38.8164291382 -19.9287033081 2.6783173084
-38.8338394165 -19.9347476959 2.4852333069
-38.8565864563 -19.9434089661 2.2940251827
-38.8829345703 -19.9538288116 2.1040940285
-38.9096221924 -19.9644184113 1.9143052101
-38.9338684082 -19.9738140106 1.7236820459
-38.9542846680 -19.9813308716 1.5317270756
-38.9701576233 -19.9866256714 1.3381830454
-38.9805259705 -19.9892234802 1.1426992416
-38.9839973450 -19.9884471893 0.9447705150
-38.9793624878 -19.9836997986 0.7439520955
-38.9668655396 -19.9751033783 0.5403130054
-38.9498519897 -19.9642925262 0.3350287676
-38.9353256226 -19.9547004700 0.1305952817
-37.2999496460 -7.0411047935 80.7772064209
-37.2839698792 -7.0366544724 80.5792388916
-37.2580986023 -7.0308279991 80.3806304932
-37.2302055359 -7.0247187614 80.1818466187
-37.2064132690 -7.0191802979 79.9832687378
-37.1897621155 -7.0146350861 79.7851028442
-37.1813392639 -7.0112352371 79.5874252319
-37.1817245483 -7.0090608597 79.3902816772
-37.1912117004 -7.0081534386 79.1937255859
-37.2089996338 -7.0084018707 78.9977035522
-37.2321128845 -7.0093922615 78.8020477295
-37.2553710938 -7.0104026794 78.6064147949
-37.2733001709 -7.0106711388 78.4104385376
-37.2830162048 -7.0097961426 78.2139129639
-37.2855606079 -7.0079216957 78.0168914795
-37.2846221924 -7.0055632591 77.8196182251
-37.2841339111 -7.0032668114 77.6223602295
-37.2865333557 -7.0013723373 77.4252929688
-37.2924690247 -6.9999699593 77.2284698486
-37.3013954163 -6.9989848137 77.0318527222
-37.3123970032 -6.9982881546 76.8353805542
-37.3246841431 -6.9977707863 76.6390075684
-37.3376502991 -6.9973483086 76.4426803589
-37.3507308960 -6.9969415665 76.2463684082
-37.3632545471 -6.9964566231 76.0500183105
-37.3744621277 -6.9957895279 75.8535690308
-37.3837051392 -6.9948477745 75.6569671631
-37.3906135559 -6.9935812950 75.4601821899
-37.3952369690 -6.9919958115 75.2632217407
-37.3979225159 -6.9901404381 75.0661010742
-37.3991241455 -6.9880776405 74.8688507080
-37.3991928101 -6.9858574867 74.6714935303
-37.3982734680 -6.9834990501 74.4740524292
-37.3963546753 -6.9810013771 74.2765121460
-37.3934173584 -6.9783611298 74.0788650513
-37.3896026611 -6.9755988121 73.8811416626
-37.3853225708 -6.9727711678 73.6833496094
-37.3812637329 -6.9699745178 73.4855651855
-37.3784484863 -6.9673504829 73.2878570557
-37.3783721924 -6.9651083946 73.0903701782
-37.3829879761 -6.9635205269 72.8932647705
-37.3939399719 -6.9628157616 72.6967010498
-37.4111175537 -6.9629797935 72.5006713867
-37.4318313599 -6.9636373520 72.3049545288
-37.4519729614 -6.9642143250 72.1091995239
-37.4682998657 -6.9642596245 71.9131240845
-37.4797286987 -6.9636225700 71.7166213989
-37.4867820740 -6.9623742104 71.5197219849
-37.4904823303 -6.9606580734 71.3225173950
-37.4918746948 -6.9586205482 71.1250915527
-37.4920463562 -6.9564123154 70.9275436401
-37.4919662476 -6.9541683197 70.7299575806
-37.4918708801 -6.9519224167 70.5323562622
-37.4906272888 -6.9495158195 70.3346405029
-37.4861602783 -6.9466595650 70.1365966797
-37.4773483276 -6.9431967735 69.9381256104
-37.4656600952 -6.9393320084 69.7393569946
-37.4543151855 -6.9355149269 69.5405960083
-37.4455871582 -6.9320626259 69.3420486450
-37.4393463135 -6.9289574623 69.1437301636
-37.4342079163 -6.9260058403 68.9454879761
-37.4297561646 -6.9231495857 68.7472991943
-37.4279289246 -6.9206600189 68.5493469238
-37.4328002930 -6.9191055298 68.3520507813
-37.4483566284 -6.9190425873 68.1558151245
-37.4748382568 -6.9205050468 67.9606857300
-37.5066261292 -6.9227085114 67.7661209106
-37.5348129272 -6.9244098663 67.5712051392
-37.5527343750 -6.9246778488 67.3752670288
-37.5593948364 -6.9233727455 67.1781616211
-37.5584754944 -6.9210095406 66.9802703857
-37.5553054810 -6.9183316231 66.7821273804
-37.5548591614 -6.9160337448 66.5842514038
-37.5616302490 -6.9147443771 66.3871231079
-37.5798492432 -6.9150538445 66.1912155151
-37.6120681763 -6.9173188210 65.9968109131
-37.6569862366 -6.9213585854 65.8038101196
-37.7088775635 -6.9263730049 65.6116104126
-37.7596092224 -6.9312262535 65.4193344116
-37.8018875122 -6.9348988533 65.2261810303
-37.8318405151 -6.9368486404 65.0317001343
-37.8495635986 -6.9370908737 64.8358917236
-37.8578147888 -6.9360089302 64.6390304565
-37.8600769043 -6.9340901375 64.4414978027
-37.8592300415 -6.9317369461 64.2435989380
-37.8571357727 -6.9292092323 64.0455398560
-37.8548812866 -6.9266586304 63.8474502563
-37.8532409668 -6.9241933823 63.6494140625
-37.8530197144 -6.9219269753 63.4515228271
-37.8551330566 -6.9199862480 63.2538909912
-37.8605308533 -6.9185047150 63.0566329956
-37.8701744080 -6.9176173210 62.8598632813
-37.8850898743 -6.9174666405 62.6637153625
-37.9062347412 -6.9181866646 62.4683113098
-37.9339828491 -6.9198307991 62.2737121582
-37.9678153992 -6.9223256111 62.0798606873
-38.0069351196 -6.9255599976 61.8866767883
-38.0506210327 -6.9294338226 61.6940803528
-38.0963401794 -6.9335927963 61.5017776489
-38.1365089417 -6.9369750023 61.3088340759
-38.1589355469 -6.9378767014 61.1137466431
-38.1535720825 -6.9348907471 60.9152297974
-38.1203842163 -6.9280123711 60.7132339478
-38.0704269409 -6.9187870026 60.5090827942
-38.0185317993 -6.9092893600 60.3046112061
-37.9754600525 -6.9010262489 60.1011734009
-37.9469451904 -6.8947987556 59.8995170593
-37.9375724792 -6.8912491798 59.7002487183
-37.9523582458 -6.8910799026 59.5040550232
-37.9932632446 -6.8945660591 59.3112335205
-38.0542526245 -6.9008626938 59.1210517883
-38.1209449768 -6.9079589844 58.9316749573
-38.1773529053 -6.9136166573 58.7410240173
-38.2143783569 -6.9165616035 58.5478820801
-38.2322349548 -6.9168243408 58.3522453308
-38.2358818054 -6.9150972366 58.1547279358
-38.2293395996 -6.9119443893 57.9558448792
-38.2140197754 -6.9075617790 57.7557601929
-38.1915512085 -6.9021778107 57.5546836853
-38.1672859192 -6.8965420723 57.3533210754
-38.1491203308 -6.8917603493 57.1527442932
-38.1421127319 -6.8885402679 56.9536514282
-38.1459312439 -6.8868355751 56.7560195923
-38.1574859619 -6.8862147331 56.5594444275
-38.1726036072 -6.8860926628 56.3633651733
-38.1850776672 -6.8856005669 56.1669197083
-38.1887893677 -6.8838810921 55.9692573547
-38.1830711365 -6.8808407784 55.7702598572
-38.1740951538 -6.8773431778 55.5707817078
-38.1693992615 -6.8744454384 55.3718833923
-38.1717185974 -6.8725304604 55.1739616394
-38.1785926819 -6.8712534904 54.9766845703
-38.1865806580 -6.8701324463 54.7795600891
-38.1946411133 -6.8690214157 54.5824394226
-38.2043418884 -6.8681397438 54.3855552673
-38.2182884216 -6.8678536415 54.1892852783
-38.2384567261 -6.8684391975 53.9939308167
-38.2646331787 -6.8698673248 53.7994651794
-38.2938232422 -6.8717169762 53.6054649353
-38.3215675354 -6.8733654022 53.4112739563
-38.3446769714 -6.8743638992 53.2164154053
-38.3629684448 -6.8746871948 53.0208549500
-38.3787231445 -6.8746552467 52.8249206543
-38.3944511414 -6.8746194839 52.6289901733
-38.4103965759 -6.8746137619 52.4330978394
-38.4235687256 -6.8742198944 52.2367935181
-38.4298362732 -6.8728580475 52.0394363403
-38.4278030396 -6.8703317642 51.8408012390
-38.4206237793 -6.8670845032 51.6413650513
-38.4137840271 -6.8638839722 51.4419517517
-38.4111900330 -6.8612780571 51.2431755066
-38.4135437012 -6.8593673706 51.0451545715
-38.4197616577 -6.8579969406 50.8477210999
-38.4291725159 -6.8570752144 50.6507873535
-38.4425048828 -6.8567032814 50.4544677734
-38.4609222412 -6.8570442200 50.2589530945
-38.4839973450 -6.8580393791 50.0641899109
-38.5085182190 -6.8592376709 49.8696746826
-38.5297279358 -6.8599710464 49.6746444702
-38.5441894531 -6.8597579002 49.4785423279
-38.5516204834 -6.8585581779 49.2813110352
-38.5543975830 -6.8567056656 49.0833206177
-38.5559730530 -6.8546838760 48.8851242065
-38.5597496033 -6.8529715538 48.6872749329
-38.5686111450 -6.8519725800 48.4902496338
-38.5842781067 -6.8519287109 48.2943420410
-38.6063194275 -6.8527793884 48.0994949341
-38.6317405701 -6.8541045189 47.9052200317
-38.6563873291 -6.8553214073 47.7108345032
-38.6772689819 -6.8560104370 47.5158386230
-38.6938285828 -6.8560919762 47.3201293945
-38.7074508667 -6.8557615280 47.1239356995
-38.7206001282 -6.8553643227 46.9276618958
-38.7362174988 -6.8553142548 46.7318115234
-38.7569351196 -6.8559803963 46.5368347168
-38.7836685181 -6.8574910164 46.3428955078
-38.8147468567 -6.8596124649 46.1497268677
-38.8464202881 -6.8618173599 45.9566841125
-38.8739166260 -6.8634362221 45.7629470825
-38.8927040100 -6.8638319969 45.5677185059
-38.9006919861 -6.8627109528 45.3706207275
-38.9006958008 -6.8604688644 45.1721229553
-38.9001502991 -6.8581490517 44.9735145569
-38.9067535400 -6.8568334579 44.7761497498
-38.9234771729 -6.8569393158 44.5805702209
-38.9476394653 -6.8580908775 44.3863143921
-38.9748497009 -6.8596701622 44.1926193237
-39.0031166077 -6.8613982201 43.9991340637
-39.0326995850 -6.8633117676 43.8059043884
-39.0627441406 -6.8652906418 43.6127815247
-39.0892410278 -6.8667712212 43.4190444946
-39.1069908142 -6.8670225143 43.2237434387
-39.1137237549 -6.8657250404 43.0264434814
-39.1118774414 -6.8632225990 42.8275794983
-39.1063079834 -6.8601965904 42.6280136108
-39.1006851196 -6.8571624756 42.4284172058
-39.0965461731 -6.8543367386 42.2290725708
-39.0952873230 -6.8519153595 42.0302429199
-39.0998268127 -6.8503093719 41.8324737549
-39.1128768921 -6.8499002457 41.6362800598
-39.1330223083 -6.8504881859 41.4414176941
-39.1531219482 -6.8510694504 41.2465553284
-39.1633377075 -6.8502616882 41.0498466492
-39.1565551758 -6.8470635414 40.8499298096
-39.1334190369 -6.8415651321 40.6468887329
-39.1051750183 -6.8353481293 40.4428329468
-39.0913925171 -6.8311643600 40.2414855957
-39.1102867126 -6.8315763474 40.0463600159
-39.1663131714 -6.8372111320 39.8583755493
-39.2464523315 -6.8462381363 39.6750946045
-39.3308677673 -6.8558678627 39.4927253723
-39.4068069458 -6.8643064499 39.3088073730
-39.4705390930 -6.8710279465 39.1226005554
-39.5196342468 -6.8756914139 38.9336013794
-39.5488891602 -6.8775639534 38.7407646179
-39.5530700684 -6.8759088516 38.5430259705
-39.5308341980 -6.8705358505 38.3400688171
-39.4878234863 -6.8622393608 38.1329650879
-39.4379997253 -6.8529829979 37.9244346619
-39.3998031616 -6.8453626633 37.7181434631
-39.3881340027 -6.8414750099 37.5170860291
-39.4078216553 -6.8420000076 37.3222846985
-39.4516601563 -6.8459248543 37.1323432922
-39.5029144287 -6.8508939743 36.9439430237
-39.5433540344 -6.8543415070 36.7534065247
-39.5636138916 -6.8549480438 36.5588111877
-39.5672683716 -6.8532176018 36.3608474731
-39.5650138855 -6.8506546021 36.1616706848
-39.5654869080 -6.8484759331 35.9630355835
-39.5711822510 -6.8470320702 35.7654571533
-39.5803184509 -6.8460726738 35.5685844421
-39.5904388428 -6.8452515602 35.3719100952
-39.6005630493 -6.8444318771 35.1752357483
-39.6117401123 -6.8437595367 34.9787788391
-39.6265068054 -6.8435931206 34.7830734253
-39.6475639343 -6.8443126678 34.5886878967
-39.6759338379 -6.8460626602 34.3958511353
-39.7100715637 -6.8486251831 34.2042503357
-39.7468643188 -6.8515620232 34.0132408142
-39.7836456299 -6.8544983864 33.8222656250
-39.8193321228 -6.8572802544 33.6310882568
-39.8542900085 -6.8599600792 33.4397850037
-39.8897094727 -6.8627047539 33.2486114502
-39.9264411926 -6.8656349182 33.0577545166
-39.9636306763 -6.8686304092 32.8670272827
-39.9984893799 -6.8712968826 32.6758270264
-40.0278778076 -6.8731937408 32.4834785461
-40.0503044128 -6.8741092682 32.2896423340
-40.0664062500 -6.8741335869 32.0944404602
-40.0780754089 -6.8735327721 31.8982810974
-40.0875701904 -6.8726253510 31.7016468048
-40.0973281860 -6.8717556000 31.5050659180
-40.1098747253 -6.8712792397 31.3091011047
-40.1269836426 -6.8714451790 31.1141433716
-40.1482810974 -6.8722028732 30.9201221466
-40.1708717346 -6.8731422424 30.7264003754
-40.1908683777 -6.8737158775 30.5321159363
-40.2058563232 -6.8735837936 30.3367252350
-40.2159309387 -6.8727588654 30.1402378082
-40.2227401733 -6.8714733124 29.9430160522
-40.2278900146 -6.8699536324 29.7454147339
-40.2321586609 -6.8683099747 29.5476055145
-40.2356071472 -6.8665499687 29.3496036530
-40.2379951477 -6.8646407127 29.1513500214
-40.2390480042 -6.8625431061 28.9527816772
-40.2385673523 -6.8602285385 28.7538509369
-40.2365837097 -6.8577017784 28.5545578003
-40.2335510254 -6.8550271988 28.3550090790
-40.2304916382 -6.8523483276 28.1554374695
-40.2288665771 -6.8498716354 27.9561767578
-40.2300643921 -6.8477935791 27.7575569153
-40.2347869873 -6.8462123871 27.5597419739
-40.2426452637 -6.8450732231 27.3626499176
-40.2522811890 -6.8441853523 27.1659679413
-40.2618141174 -6.8432831764 26.9692630768
-40.2694358826 -6.8421106339 26.7721042633
-40.2741165161 -6.8405232430 26.5742492676
-40.2762336731 -6.8385739326 26.3757820129
-40.2776985168 -6.8365321159 26.1771469116
-40.2813148499 -6.8347945213 25.9790115356
-40.2894630432 -6.8336958885 25.7819461823
-40.3026733398 -6.8333125114 25.5860862732
-40.3194198608 -6.8334279060 25.3910751343
-40.3372383118 -6.8336949348 25.1963310242
-40.3539352417 -6.8338036537 25.0013237000
-40.3680343628 -6.8335456848 24.8056964874
-40.3790588379 -6.8328537941 24.6093311310
-40.3877372742 -6.8318305016 24.4123954773
-40.3955574036 -6.8306856155 24.2152462006
-40.4039497375 -6.8296217918 24.0182342529
-40.4139823914 -6.8287897110 23.8216209412
-40.4266929626 -6.8283357620 23.6256618500
-40.4435081482 -6.8284611702 23.4307136536
-40.4659423828 -6.8293814659 23.2371597290
-40.4946289063 -6.8311848640 23.0451679230
-40.5288581848 -6.8337712288 22.8545703888
-40.5678939819 -6.8370375633 22.6651973724
-40.6127433777 -6.8411250114 22.4773101807
-40.6653556824 -6.8463106155 22.2914047241
-40.7249603271 -6.8524851799 22.1073055267
-40.7854843140 -6.8587894440 21.9234981537
-40.8379974365 -6.8639631271 21.7377395630
-40.8770484924 -6.8672342300 21.5486354828
-40.9055862427 -6.8690199852 21.3569087982
-40.9343223572 -6.8708338737 21.1652545929
-40.9749450684 -6.8743286133 20.9766464233
-41.0308265686 -6.8799810410 20.7919673920
-41.0928306580 -6.8864984512 20.6089096069
-41.1450958252 -6.8916406631 20.4234218597
-41.1761398315 -6.8937835693 20.2325382233
-41.1851882935 -6.8928160667 20.0360145569
-41.1798477173 -6.8898139000 19.8357734680
-41.1696090698 -6.8861184120 19.6342430115
-41.1609764099 -6.8826503754 19.4331016541
-41.1564788818 -6.8797664642 19.2330131531
-41.1562500000 -6.8774862289 19.0340156555
-41.1597976685 -6.8757400513 18.8359909058
-41.1667594910 -6.8744764328 18.6388511658
-41.1769218445 -6.8736653328 18.4425487518
-41.1898269653 -6.8732433319 18.2469673157
-41.2040596008 -6.8730082512 18.0517368317
-41.2167243958 -6.8725514412 17.8560962677
-41.2244949341 -6.8714022636 17.6591606140
-41.2261276245 -6.8693847656 17.4605884552
-41.2240982056 -6.8668484688 17.2610282898
-41.2234802246 -6.8645119667 17.0618286133
-41.2290039063 -6.8630442619 16.8642578125
-41.2426071167 -6.8627204895 16.6688499451
-41.2628936768 -6.8633422852 16.4752445221
-41.2867507935 -6.8644695282 16.2826137543
-41.3120117188 -6.8657956123 16.0903797150
-41.3389434814 -6.8673586845 15.8986177444
-41.3697395325 -6.8694686890 15.7079257965
-41.4067077637 -6.8724527359 15.5189409256
-41.4502143860 -6.8763628006 15.3317737579
-41.4971389771 -6.8807573318 15.1455850601
-41.5410575867 -6.8847274780 14.9586191177
-41.5749206543 -6.8872733116 14.7689285278
-41.5952110291 -6.8878979683 14.5755290985
-41.6047782898 -6.8870043755 14.3791780472
-41.6116561890 -6.8857297897 14.1820812225
-41.6245422363 -6.8853058815 13.9866466522
-41.6484642029 -6.8864455223 13.7942838669
-41.6836853027 -6.8891844749 13.6050882339
-41.7275581360 -6.8931503296 13.4183425903
-41.7768516541 -6.8978843689 13.2331590652
-41.8285217285 -6.9029555321 13.0486907959
-41.8793945313 -6.9079146385 12.8640508652
-41.9258079529 -6.9122424126 12.6782054901
-41.9635925293 -6.9153480530 12.4899663925
-41.9886970520 -6.9166574478 12.2981681824
-41.9986419678 -6.9158191681 12.1020841599
-41.9939308167 -6.9129033089 11.9018259048
-41.9784202576 -6.9084577560 11.6984672546
-41.9583473206 -6.9033651352 11.4937696457
-41.9400444031 -6.8985223770 11.2895383835
-41.9275474548 -6.8945026398 11.0869379044
-41.9219322205 -6.8914575577 10.8862876892
-41.9226799011 -6.8893146515 10.6874513626
-41.9296493530 -6.8880534172 10.4904031754
-41.9442100525 -6.8878679276 10.2955484390
-41.9689979553 -6.8891329765 10.1036691666
-42.0065727234 -6.8922100067 9.9155292511
-42.0576477051 -6.8972024918 9.7313642502
-42.1195678711 -6.9037332535 9.5504217148
-42.1851768494 -6.9107875824 9.3706264496
-42.2436599731 -6.9168324471 9.1888093948
-42.2852020264 -6.9204754829 9.0020666122
-42.3067321777 -6.9212799072 8.8094596863
-42.3128814697 -6.9199042320 8.6123199463
-42.3113327026 -6.9174365997 8.4128932953
-42.3079833984 -6.9147129059 8.2129144669
-42.3059043884 -6.9121694565 8.0132970810
-42.3069725037 -6.9100723267 7.8145999908
-42.3132553101 -6.9087147713 7.6174492836
-42.3268089294 -6.9083886147 7.4224705696
-42.3483123779 -6.9091901779 7.2298803329
-42.3763008118 -6.9109125137 7.0392556190
-42.4086380005 -6.9132518768 6.8499641418
-42.4447174072 -6.9161224365 6.6618304253
-42.4850845337 -6.9196019173 6.4750280380
-42.5278739929 -6.9234256744 6.2889990807
-42.5664520264 -6.9266519547 6.1017298698
-42.5926551819 -6.9281229973 5.9107270241
-42.6036300659 -6.9274320602 5.7150921822
-42.6052322388 -6.9254112244 5.5165905952
-42.6085815430 -6.9236378670 5.3186120987
-42.6230697632 -6.9234461784 5.1240468025
-42.6515579224 -6.9252409935 4.9337968826
-42.6903610229 -6.9285016060 4.7467536926
-42.7331123352 -6.9323225021 4.5609674454
-42.7751121521 -6.9360375404 4.3749895096
-42.8147735596 -6.9394211769 4.1883263588
-42.8516349792 -6.9424071312 4.0008282661
-42.8840599060 -6.9447636604 3.8119802475
-42.9097557068 -6.9461646080 3.6210577488
-42.9283523560 -6.9465579987 3.4279320240
-42.9428215027 -6.9463648796 3.2335197926
-42.9578819275 -6.9462561607 3.0392987728
-42.9767684937 -6.9466910362 2.8462889194
-42.9991760254 -6.9476256371 2.6544005871
-43.0221748352 -6.9486446381 2.4627144337
-43.0429115295 -6.9493422508 2.2703258991
-43.0603485107 -6.9495716095 2.0769026279
-43.0750122070 -6.9494071007 1.8826054335
-43.0878372192 -6.9489808083 1.6877255440
-43.0993766785 -6.9483723640 1.4924381971
-43.1096458435 -6.9475831985 1.2967442274
-43.1182708740 -6.9465603828 1.1005216837
-43.1248207092 -6.9452428818 0.9036295414
-43.1291618347 -6.9436116219 0.7060198784
-43.1316795349 -6.9417204857 0.5078124404
-43.1333389282 -6.9397072792 0.3093169332
-43.1357421875 -6.9377999306 0.1110496223
-37.6427536011 4.8285098076 80.7767639160
-37.6176376343 4.8262858391 80.5782623291
-37.5764999390 4.8212151527 80.3787384033
-37.5323333740 4.8156070709 80.1789627075
-37.4980888367 4.8117623329 79.9797363281
-37.4816551208 4.8110828400 79.7815780640
-37.4835586548 4.8136630058 79.5845642090
-37.4990615845 4.8186588287 79.3884201050
-37.5227661133 4.8251118660 79.1928176880
-37.5513954163 4.8324389458 78.9975585938
-37.5828704834 4.8402724266 78.8025131226
-37.6144523621 4.8481235504 78.6074981689
-37.6432189941 4.8554749489 78.4123229980
-37.6685714722 4.8622193336 78.2169342041
-37.6936302185 4.8689112663 78.0215454102
-37.7238502502 4.8765201569 77.8265380859
-37.7635231018 4.8858075142 77.6322174072
-37.8119544983 4.8966493607 77.4385604858
-37.8620300293 4.9077825546 77.2450637817
-37.9032859802 4.9173498154 77.0509872437
-37.9274711609 4.9238848686 76.8557052612
-37.9317512512 4.9268851280 76.6589736938
-37.9181785583 4.9267153740 76.4609069824
-37.8924407959 4.9243860245 76.2619018555
-37.8634109497 4.9214730263 76.0626068115
-37.8413810730 4.9198031425 75.8637847900
-37.8339576721 4.9207267761 75.6660537720
-37.8423347473 4.9244561195 75.4695129395
-37.8612365723 4.9300537109 75.2737960815
-37.8827323914 4.9361114502 75.0783004761
-37.9008865356 4.9415755272 74.8825454712
-37.9137687683 4.9461045265 74.6863784790
-37.9223480225 4.9498686790 74.4898757935
-37.9282760620 4.9531626701 74.2931518555
-37.9322700500 4.9561142921 74.0962600708
-37.9332542419 4.9585313797 73.8991165161
-37.9282188416 4.9598793983 73.7014617920
-37.9133567810 4.9594850540 73.5029602051
-37.8865394592 4.9569697380 73.3034210205
-37.8495254517 4.9526448250 73.1029739380
-37.8079643250 4.9475140572 72.9020690918
-37.7688865662 4.9428253174 72.7013168335
-37.7375144958 4.9395036697 72.5011672974
-37.7157287598 4.9378833771 72.3018112183
-37.7030258179 4.9378752708 72.1032104492
-37.6988258362 4.9393754005 71.9053344727
-37.7039413452 4.9425287247 71.7082748413
-37.7200622559 4.9476342201 71.5121994019
-37.7477035522 4.9547829628 71.3171768188
-37.7843132019 4.9635219574 71.1230010986
-37.8242149353 4.9728441238 70.9291534424
-37.8606605530 4.9815535545 70.7350311279
-37.8888053894 4.9887900352 70.5401611328
-37.9075088501 4.9943523407 70.3444290161
-37.9188156128 4.9986028671 70.1480102539
-37.9258193970 5.0020899773 69.9511795044
-37.9308738708 5.0052313805 69.7541656494
-37.9350967407 5.0082259178 69.5570602417
-37.9387702942 5.0111231804 69.3598937988
-37.9418029785 5.0139064789 69.1626586914
-37.9439849854 5.0165390968 68.9653244019
-37.9450874329 5.0189805031 68.7678756714
-37.9449005127 5.0211939812 68.5702896118
-37.9432411194 5.0231456757 68.3725433350
-37.9397888184 5.0247807503 68.1745986938
-37.9338264465 5.0259709358 67.9763793945
-37.9241027832 5.0264940262 67.7777633667
-37.9095420837 5.0261602402 67.5786132813
-37.8907585144 5.0250787735 67.3790054321
-37.8708763123 5.0238027573 67.1792373657
-37.8541755676 5.0230913162 66.9797744751
-37.8435096741 5.0234494209 66.7809066772
-37.8390235901 5.0249028206 66.5826644897
-37.8391304016 5.0271701813 66.3848953247
-37.8422775269 5.0299773216 66.1874389648
-37.8481025696 5.0332579613 65.9902648926
-37.8575630188 5.0371832848 65.7934799194
-37.8720512390 5.0419983864 65.5972442627
-37.8916358948 5.0477175713 65.4015655518
-37.9138793945 5.0539073944 65.2061996460
-37.9346809387 5.0598406792 65.0106887817
-37.9505729675 5.0649051666 64.8146438599
-37.9603233337 5.0688815117 64.6179122925
-37.9648895264 5.0719394684 64.4205932617
-37.9668083191 5.0745286942 64.2229690552
-37.9696617126 5.0772833824 64.0254440308
-37.9773254395 5.0808901787 63.8284568787
-37.9922790527 5.0857882500 63.6323089600
-38.0133056641 5.0917615891 63.4368743896
-38.0343246460 5.0977330208 63.2414550781
-38.0461463928 5.1020760536 63.0449676514
-38.0408248901 5.1033835411 62.8464546204
-38.0160369873 5.1012449265 62.6456108093
-37.9768905640 5.0965642929 62.4430084229
-37.9339141846 5.0912065506 62.2398872375
-37.8982963562 5.0871520042 62.0375823975
-37.8772735596 5.0856819153 61.8369865417
-37.8723449707 5.0870614052 61.6383171082
-37.8807830811 5.0908069611 61.4412689209
-37.8990669250 5.0962958336 61.2454299927
-37.9258728027 5.1032929420 61.0506553650
-37.9622764587 5.1119875908 60.8570976257
-38.0090789795 5.1225228310 60.6648750305
-38.0636520386 5.1344332695 60.4736747742
-38.1188659668 5.1464557648 60.2826118469
-38.1649780273 5.1568675041 60.0904541016
-38.1936569214 5.1641931534 59.8961143494
-38.2018394470 5.1678919792 59.6991653442
-38.1928253174 5.1685481071 59.4999961853
-38.1735687256 5.1673927307 59.2994766235
-38.1506614685 5.1655917168 59.0984458923
-38.1284141541 5.1639075279 58.8974533081
-38.1099205017 5.1628880501 58.6969184875
-38.0992164612 5.1632471085 58.4973716736
-38.1020622253 5.1660032272 58.2996025085
-38.1243591309 5.1722002029 58.1044158936
-38.1685028076 5.1822614670 57.9121742249
-38.2299079895 5.1953749657 57.7223052979
-38.2973403931 5.2095546722 57.5333137512
-38.3584899902 5.2226209641 57.3435401917
-38.4060096741 5.2332773209 57.1519737244
-38.4380798340 5.2412004471 56.9583320618
-38.4541206360 5.2462887764 56.7625045776
-38.4520225525 5.2481689453 56.5641746521
-38.4302482605 5.2465701103 56.3630867004
-38.3925971985 5.2421655655 56.1597404480
-38.3504333496 5.2369632721 55.9556999207
-38.3187866211 5.2336211205 55.7530746460
-38.3088188171 5.2341117859 55.5534706116
-38.3230781555 5.2388858795 55.3572883606
-38.3557510376 5.2469158173 55.1637458801
-38.3951873779 5.2561407089 54.9712028503
-38.4272117615 5.2640542984 54.7776298523
-38.4396171570 5.2685008049 54.5812377930
-38.4266738892 5.2684664726 54.3811607361
-38.3918266296 5.2645602226 54.1778488159
-38.3472976685 5.2589449883 53.9730567932
-38.3097267151 5.2545595169 53.7692222595
-38.2933731079 5.2539243698 53.5684700012
-38.3049430847 5.2582240105 53.3718376160
-38.3416976929 5.2669734955 53.1789741516
-38.3929061890 5.2782778740 52.9883117676
-38.4446372986 5.2896728516 52.7977790833
-38.4857368469 5.2991890907 52.6056900024
-38.5111465454 5.3059325218 52.4112586975
-38.5220947266 5.3101215363 52.2146377563
-38.5251770020 5.3129205704 52.0168113708
-38.5299377441 5.3160166740 51.8192367554
-38.5441169739 5.3207759857 51.6231079102
-38.5691146851 5.3274459839 51.4286613464
-38.5997428894 5.3351111412 51.2351150513
-38.6288452148 5.3425059319 51.0413551331
-38.6526145935 5.3489584923 50.8467826843
-38.6720581055 5.3546471596 50.6515426636
-38.6906204224 5.3601803780 50.4561767578
-38.7114677429 5.3661165237 50.2611846924
-38.7363166809 5.3727588654 50.0668449402
-38.7651290894 5.3801012039 49.8731575012
-38.7956809998 5.3877506256 49.6797752380
-38.8237991333 5.3949704170 49.4860267639
-38.8452033997 5.4010038376 49.2912101746
-38.8579521179 5.4055085182 49.0949974060
-38.8632545471 5.4086990356 48.8975715637
-38.8640136719 5.4110879898 48.6993942261
-38.8626594543 5.4131035805 48.5008544922
-38.8600769043 5.4149022102 48.3021011353
-38.8559837341 5.4164347649 48.1030769348
-38.8499298096 5.4176220894 47.9037055969
-38.8420639038 5.4184889793 47.7040138245
-38.8332901001 5.4191961288 47.5041427612
-38.8249626160 5.4199819565 47.3043251038
-38.8183326721 5.4210677147 47.1047706604
-38.8140182495 5.4225630760 46.9055862427
-38.8118476868 5.4244365692 46.7067527771
-38.8115653992 5.4266433716 46.5082244873
-38.8141632080 5.4293580055 46.3101768494
-38.8221206665 5.4330196381 46.1130447388
-38.8371810913 5.4379334450 45.9171371460
-38.8575363159 5.4437818527 45.7221603394
-38.8780975342 5.4496660233 45.5272293091
-38.8936691284 5.4546704292 45.3314399719
-38.9014244080 5.4582953453 45.1342849731
-38.9007225037 5.4604282379 44.9356307983
-38.8922615051 5.4611935616 44.7355918884
-38.8784904480 5.4610214233 44.5345840454
-38.8642387390 5.4607663155 44.3334617615
-38.8558731079 5.4615488052 44.1333618164
-38.8593177795 5.4644141197 43.9353561401
-38.8789520264 5.4701352119 43.7402610779
-38.9170112610 5.4791054726 43.5485115051
-38.9715614319 5.4909825325 43.3597908020
-39.0343627930 5.5043153763 43.1726264954
-39.0930976868 5.5169291496 42.9847908020
-39.1383056641 5.5271577835 42.7945327759
-39.1691093445 5.5348458290 42.6016693115
-39.1923637390 5.5412030220 42.4074363708
-39.2168426514 5.5477757454 42.2134513855
-39.2477111816 5.5554742813 42.0206680298
-39.2847251892 5.5642561913 41.8290634155
-39.3239707947 5.5734314919 41.6379089355
-39.3604583740 5.5821199417 41.4462699890
-39.3891372681 5.5894312859 41.2531967163
-39.4051475525 5.5945100784 41.0577468872
-39.4052505493 5.5967845917 40.8592872620
-39.3892631531 5.5962238312 40.6577491760
-39.3584785461 5.5930557251 40.4533462524
-39.3121452332 5.5871477127 40.2459106445
-39.2474365234 5.5780029297 40.0348663330
-39.1651306152 5.5657582283 39.8203277588
-39.0750885010 5.5521516800 39.6041717529
-38.9939002991 5.5401067734 39.3896064758
-38.9358634949 5.5321421623 39.1794395447
-38.9065246582 5.5292348862 38.9748001099
-38.9036369324 5.5309872627 38.7752990723
-38.9214363098 5.5363855362 38.5798568726
-38.9543380737 5.5444426537 38.3874092102
-38.9996757507 5.5546908379 38.1974525452
-39.0583267212 5.5672836304 38.0101928711
-39.1309013367 5.5823283195 37.8257713318
-39.2127113342 5.5989985466 37.6432762146
-39.2943840027 5.6156435013 37.4608459473
-39.3686752319 5.6309871674 37.2770233154
-39.4356956482 5.6450500488 37.0918121338
-39.5006027222 5.6587395668 36.9062461853
-39.5663032532 5.6725678444 36.7209129333
-39.6277122498 5.6856403351 36.5347747803
-39.6722717285 5.6957445145 36.3452529907
-39.6873664856 5.7006602287 36.1497306824
-39.6696395874 5.6997976303 35.9474525452
-39.6278419495 5.6946973801 35.7401618958
-39.5764160156 5.6879024506 35.5308151245
-39.5270042419 5.6814637184 35.3218040466
-39.4861869812 5.6765389442 35.1145095825
-39.4583206177 5.6738939285 34.9098548889
-39.4467468262 5.6741170883 34.7085723877
-39.4519348145 5.6772913933 34.5107917786
-39.4710464478 5.6829171181 34.3159408569
-39.5010719299 5.6904621124 34.1234092712
-39.5418853760 5.6999058723 33.9332008362
-39.5952949524 5.7115664482 33.7457122803
-39.6612777710 5.7254381180 33.5609626770
-39.7358398438 5.7408199310 33.3781280518
-39.8121261597 5.7565031052 33.1957473755
-39.8823509216 5.7711186409 33.0121421814
-39.9391326904 5.7833685875 32.8257064819
-39.9767265320 5.7922415733 32.6351699829
-39.9922485352 5.7972316742 32.4398689270
-39.9864883423 5.7984776497 32.2399330139
-39.9646301270 5.7968907356 32.0364494324
-39.9362144470 5.7941517830 31.8314876556
-39.9122428894 5.7921948433 31.6274528503
-39.8999023438 5.7922844887 31.4259414673
-39.8993759155 5.7944517136 31.2270183563
-39.9055671692 5.7978014946 31.0295715332
-39.9127922058 5.8013324738 30.8323516846
-39.9188766479 5.8046636581 30.6348724365
-39.9262619019 5.8082232475 30.4376773834
-39.9393653870 5.8127880096 30.2417640686
-39.9608345032 5.8188242912 30.0477409363
-39.9904136658 5.8262863159 29.8555622101
-40.0261802673 5.8348355293 29.6648120880
-40.0652198792 5.8439602852 29.4748363495
-40.1034927368 5.8529500961 29.2847251892
-40.1369438171 5.8610916138 29.0935478210
-40.1637306213 5.8680615425 28.9008731842
-40.1852989197 5.8741126060 28.7070217133
-40.2051544189 5.8798637390 28.5127887726
-40.2263526917 5.8858499527 28.3188800812
-40.2490081787 5.8920927048 28.1253223419
-40.2696113586 5.8979744911 27.9313030243
-40.2835350037 5.9026818275 27.7357406616
-40.2893180847 5.9059581757 27.5382823944
-40.2903938293 5.9084081650 27.3397140503
-40.2920989990 5.9109683037 27.1412830353
-40.2976036072 5.9141960144 26.9437332153
-40.3077125549 5.9182333946 26.7472686768
-40.3238868713 5.9233365059 26.5522384644
-40.3490486145 5.9300184250 26.3593521118
-40.3840980530 5.9384374619 26.1688404083
-40.4248008728 5.9478497505 25.9797115326
-40.4639739990 5.9569921494 25.7902545929
-40.4971542358 5.9650816917 25.5993957520
-40.5253715515 5.9722990990 25.4073715210
-40.5524711609 5.9793195724 25.2151012421
-40.5803794861 5.9864826202 25.0230484009
-40.6068916321 5.9933991432 24.8306808472
-40.6273422241 5.9992508888 24.6368560791
-40.6382408142 6.0034251213 24.4407157898
-40.6399574280 6.0059871674 24.2423305511
-40.6371879578 6.0077610016 24.0428333282
-40.6371574402 6.0100164413 23.8439922333
-40.6461257935 6.0138521194 23.6473579407
-40.6663627625 6.0196666718 23.4535083771
-40.6962966919 6.0271835327 23.2620735168
-40.7330398560 6.0358958244 23.0723590851
-40.7738685608 6.0453248024 22.8836956024
-40.8157997131 6.0549473763 22.6953468323
-40.8557510376 6.0642209053 22.5065441132
-40.8922462463 6.0728878975 22.3169116974
-40.9265670776 6.0811724663 22.1267662048
-40.9615631104 6.0895757675 21.9368209839
-40.9990158081 6.0984096527 21.7475299835
-41.0382461548 6.1075553894 21.5587272644
-41.0774459839 6.1166954041 21.3699531555
-41.1157379150 6.1256747246 21.1809825897
-41.1529464722 6.1344642639 20.9917736053
-41.1878662109 6.1428513527 20.8020133972
-41.2184143066 6.1504712105 20.6111602783
-41.2439575195 6.1572132111 20.4190464020
-41.2662925720 6.1633906364 20.2261219025
-41.2878646851 6.1694345474 20.0330162048
-41.3097038269 6.1755261421 19.8399963379
-41.3309478760 6.1815118790 19.6468353271
-41.3493766785 6.1870040894 19.4529533386
-41.3624916077 6.1915636063 19.2576942444
-41.3690795898 6.1949782372 19.0607261658
-41.3704185486 6.1974725723 18.8623752594
-41.3698806763 6.1996369362 18.6635169983
-41.3712577820 6.2021379471 18.4651527405
-41.3772773743 6.2054538727 18.2680053711
-41.3890190125 6.2097725868 18.0723705292
-41.4062194824 6.2150487900 17.8781890869
-41.4281845093 6.2211608887 17.6852893829
-41.4548988342 6.2281055450 17.4936733246
-41.4877090454 6.2361187935 17.3037109375
-41.5286026001 6.2455492020 17.1159496307
-41.5778160095 6.2564377785 16.9304695129
-41.6314773560 6.2681059837 16.7462406158
-41.6821289063 6.2792453766 16.5612525940
-41.7224502563 6.2885732651 16.3735141754
-41.7490310669 6.2954921722 16.1820812225
-41.7630538940 6.3002090454 15.9872474670
-41.7682304382 6.3033752441 15.7900037766
-41.7685661316 6.3056926727 15.5914258957
-41.7672729492 6.3077249527 15.3923883438
-41.7666244507 6.3098702431 15.1935138702
-41.7680130005 6.3123726845 14.9951868057
-41.7721557617 6.3153586388 14.7976102829
-41.7794952393 6.3189039230 14.6009111404
-41.7907218933 6.3231310844 14.4052877426
-41.8072967529 6.3282957077 14.2111539841
-41.8315620422 6.3348073959 14.0191736221
-41.8658599854 6.3430767059 13.8300180435
-41.9104194641 6.3531436920 13.6437683105
-41.9613533020 6.3643279076 13.4593553543
-42.0113906860 6.3753528595 13.2747421265
-42.0536460876 6.3850154877 13.0879850388
-42.0853767395 6.3928327560 12.8982915878
-42.1083602905 6.3991174698 12.7061462402
-42.1264381409 6.4045433998 12.5126237869
-42.1426467896 6.4096412659 12.3185787201
-42.1579666138 6.4145832062 12.1242876053
-42.1724472046 6.4193782806 11.9297637939
-42.1875991821 6.4242906570 11.7354373932
-42.2069969177 6.4299473763 11.5423383713
-42.2337341309 6.4368882179 11.3513650894
-42.2677001953 6.4450950623 11.1625003815
-42.3060913086 6.4540767670 10.9749469757
-42.3458900452 6.4633040428 10.7878389359
-42.3848190308 6.4723787308 10.6005153656
-42.4205055237 6.4808859825 10.4122867584
-42.4505081177 6.4883971214 10.2224302292
-42.4739456177 6.4947586060 10.0306787491
-42.4929008484 6.5003352165 9.8376293182
-42.5121269226 6.5059590340 9.6446723938
-42.5373077393 6.5126252174 9.4534797668
-42.5726165771 6.5210642815 9.2652969360
-42.6184501648 6.5313448906 9.0802612305
-42.6708106995 6.5427670479 8.8972063065
-42.7231903076 6.5541925430 8.7142133713
-42.7701416016 6.5646672249 8.5296573639
-42.8098869324 6.5738801956 8.3429994583
-42.8439750671 6.5821027756 8.1546869278
-42.8743362427 6.5896730423 7.9652886391
-42.9009513855 6.5965871811 7.7747912407
-42.9227485657 6.6026577950 7.5828647614
-42.9403343201 6.6079912186 7.3896822929
-42.9566841125 6.6131086349 7.1961355209
-42.9748115540 6.6185374260 7.0031366348
-42.9957237244 6.6244525909 6.8109931946
-43.0190048218 6.6307826042 6.6195845604
-43.0442504883 6.6374554634 6.4287924767
-43.0708770752 6.6443696022 6.2384409904
-43.0973548889 6.6512579918 6.0480661392
-43.1221733093 6.6578559875 5.8572034836
-43.1458663940 6.6642570496 5.6660137177
-43.1711692810 6.6709389687 5.4753375053
-43.2004165649 6.6783103943 5.2858986855
-43.2330627441 6.6862764359 5.0975379944
-43.2662277222 6.6943325996 4.9093661308
-43.2973899841 6.7020382881 4.7206025124
-43.3262138367 6.7093343735 4.5311374664
-43.3540954590 6.7164659500 4.3414030075
-43.3824920654 6.7236866951 4.1518521309
-43.4113082886 6.7309813499 3.9624576569
-43.4386520386 6.7380180359 3.7726240158
-43.4625129700 6.7444453239 3.5817172527
-43.4830322266 6.7502884865 3.3897738457
-43.5024032593 6.7559304237 3.1974811554
-43.5218887329 6.7615928650 3.0052368641
-43.5392227173 6.7668781281 2.8123209476
-43.5498390198 6.7709898949 2.6172797680
-43.5513038635 6.7735018730 2.4193224907
-43.5463867188 6.7748985291 2.2193164825
-43.5418319702 6.7763590813 2.0194065571
-43.5443611145 6.7790570259 1.8217480183
-43.5575294495 6.7836146355 1.6274973154
-43.5809631348 6.7899661064 1.4365552664
-43.6116142273 6.7975788116 1.2479587793
-43.6462402344 6.8058853149 1.0606733561
-43.6833610535 6.8146281242 0.8742286563
-43.7229881287 6.8238081932 0.6886318326
-43.7650947571 6.8334207535 0.5038797259
-43.8093223572 6.8434033394 0.3198600411
-43.8559303284 6.8538012505 0.1366620511
-34.1607284546 16.1482181549 80.5698165894
-34.1533813477 16.1467990875 80.3722763062
-34.1430091858 16.1437683105 80.1745071411
-34.1328201294 16.1408329010 79.9767150879
-34.1241264343 16.1386966705 79.7790069580
-34.1161231995 16.1369304657 79.5813293457
-34.1081771851 16.1351928711 79.3836212158
-34.1016960144 16.1342372894 79.1860046387
-34.0997619629 16.1357078552 78.9887008667
-34.1059494019 16.1415119171 78.7919845581
-34.1233863831 16.1533126831 78.5961074829
-34.1531028748 16.1716632843 78.4011764526
-34.1919059753 16.1948604584 78.2069625854
-34.2323837280 16.2189502716 78.0129241943
-34.2661476135 16.2394580841 77.8184127808
-34.2875251770 16.2533607483 77.6229553223
-34.2946586609 16.2596683502 77.4263992310
-34.2886428833 16.2589607239 77.2287826538
-34.2727813721 16.2530021667 77.0303497314
-34.2520751953 16.2444648743 76.8314895630
-34.2318534851 16.2361812592 76.6326293945
-34.2158126831 16.2301311493 76.4340744019
-34.2052383423 16.2269973755 76.2359466553
-34.1997261047 16.2265625000 76.0382080078
-34.1984634399 16.2283916473 75.8408203125
-34.2011184692 16.2323093414 75.6437454224
-34.2080154419 16.2384910583 75.4470367432
-34.2192535400 16.2469882965 75.2506942749
-34.2331085205 16.2568798065 75.0545883179
-34.2453041077 16.2658843994 74.8583450317
-34.2506408691 16.2712345123 74.6614990234
-34.2463378906 16.2714462280 74.4637756348
-34.2345352173 16.2676563263 74.2653579712
-34.2219352722 16.2634449005 74.0668411255
-34.2164421082 16.2630195618 73.8689422607
-34.2227668762 16.2688961029 73.6721267700
-34.2405204773 16.2808666229 73.4763717651
-34.2662200928 16.2970733643 73.2813796997
-34.2966270447 16.3157863617 73.0868530273
-34.3298950195 16.3360271454 72.8926315308
-34.3646163940 16.3570404053 72.6985931396
-34.3989677429 16.3778591156 72.5045471191
-34.4304618835 16.3971500397 72.3102645874
-34.4556503296 16.4130802155 72.1153945923
-34.4704170227 16.4234561920 71.9195098877
-34.4717063904 16.4266490936 71.7222900391
-34.4594306946 16.4226093292 71.5237045288
-34.4366455078 16.4129676819 71.3240203857
-34.4080238342 16.4002189636 71.1236953735
-34.3784179688 16.3869457245 70.9232177734
-34.3526573181 16.3757209778 70.7230834961
-34.3354530334 16.3690586090 70.5237884521
-34.3300895691 16.3687057495 70.3256988525
-34.3365783691 16.3746700287 70.1288452148
-34.3512077332 16.3849735260 69.9328460693
-34.3682632446 16.3965702057 69.7371215820
-34.3826904297 16.4067668915 69.5411224365
-34.3917427063 16.4140968323 69.3445510864
-34.3949851990 16.4183311462 69.1473464966
-34.3936996460 16.4201545715 68.9496383667
-34.3903007507 16.4208507538 68.7516784668
-34.3875846863 16.4219112396 68.5537796021
-34.3877143860 16.4244880676 68.3561859131
-34.3913764954 16.4289474487 68.1589736938
-34.3977088928 16.4348278046 67.9620666504
-34.4049110413 16.4411735535 67.7652435303
-34.4111595154 16.4470119476 67.5683135986
-34.4153175354 16.4517364502 67.3711471558
-34.4172172546 16.4552574158 67.1736984253
-34.4174079895 16.4578666687 66.9760513306
-34.4166831970 16.4599895477 66.7782821655
-34.4156723022 16.4619598389 66.5804672241
-34.4146614075 16.4639301300 66.3826370239
-34.4137039185 16.4659290314 66.1847991943
-34.4129524231 16.4680385590 65.9869689941
-34.4132194519 16.4706897736 65.7892532349
-34.4164314270 16.4749107361 65.5918884277
-34.4255638123 16.4822845459 65.3952331543
-34.4434738159 16.4943351746 65.1996688843
-34.4707069397 16.5113525391 65.0052642822
-34.5035972595 16.5313854218 64.8115997314
-34.5349197388 16.5505790710 64.6177673340
-34.5572586060 16.5649890900 64.4228439331
-34.5665702820 16.5724582672 64.2262802124
-34.5633506775 16.5732536316 64.0281219482
-34.5517807007 16.5696010590 63.8288764954
-34.5379257202 16.5647277832 63.6293067932
-34.5271797180 16.5615158081 63.4301109314
-34.5218620300 16.5611934662 63.2315940857
-34.5210800171 16.5632877350 63.0336494446
-34.5227394104 16.5666809082 62.8360176086
-34.5246429443 16.5702075958 62.6384048462
-34.5240097046 16.5723819733 62.4404487610
-34.5181961060 16.5717964172 62.2417831421
-34.5070915222 16.5683917999 62.0423851013
-34.4937286377 16.5637874603 61.8426551819
-34.4817428589 16.5599155426 61.6430778503
-34.4728660583 16.5577011108 61.4439010620
-34.4671974182 16.5571937561 61.2451362610
-34.4652366638 16.5586643219 61.0468673706
-34.4686813354 16.5630092621 60.8493309021
-34.4785232544 16.5707645416 60.6526832581
-34.4925994873 16.5807743073 60.4566307068
-34.5058860779 16.5903606415 60.2604751587
-34.5136909485 16.5970306396 60.0635490417
-34.5144653320 16.5999565125 59.8656196594
-34.5099372864 16.6000595093 59.6669235229
-34.5034751892 16.5991306305 59.4679260254
-34.4983139038 16.5988979340 59.2691001892
-34.4965476990 16.6004695892 59.0707435608
-34.4990043640 16.6042919159 58.8729896545
-34.5059051514 16.6104793549 58.6758804321
-34.5176124573 16.6192264557 58.4794769287
-34.5345535278 16.6307621002 58.2838554382
-34.5560913086 16.6447410583 58.0889282227
-34.5795326233 16.6597385406 57.8943061829
-34.6007652283 16.6735553741 57.6993713379
-34.6162300110 16.6843013763 57.5035858154
-34.6249389648 16.6914539337 57.3067817688
-34.6294975281 16.6963939667 57.1093482971
-34.6353340149 16.7020168304 56.9121055603
-34.6476974487 16.7111129761 56.7158622742
-34.6678733826 16.7243671417 56.5208320618
-34.6918296814 16.7396335602 56.3264045715
-34.7126007080 16.7532062531 56.1315040588
-34.7248611450 16.7622470856 55.9352874756
-34.7285270691 16.7667121887 55.7377204895
-34.7286376953 16.7692852020 55.5395851135
-34.7312393188 16.7731857300 55.3418350220
-34.7390365601 16.7798500061 55.1449050903
-34.7509727478 16.7887172699 54.9486389160
-34.7653160095 16.7988681793 54.7527618408
