-23.1829891205 -42.5609855652 39.2770919800
-23.1673069000 -42.5276145935 39.0764007568
-23.1551151276 -42.5010299683 38.8769950867
-23.1481742859 -42.4846572876 38.6795730591
-23.1470546722 -42.4796066284 38.4843750000
-23.1511764526 -42.4847488403 38.2911987305
-23.1588401794 -42.4967803955 38.0993995667
-23.1673183441 -42.5103950500 37.9079284668
-23.1735248566 -42.5195922852 37.7155799866
-23.1753196716 -42.5202102661 37.5215034485
-23.1725368500 -42.5119247437 37.3256149292
-23.1668872833 -42.4980583191 37.1285743713
-23.1609020233 -42.4835433960 36.9313774109
-23.1569232941 -42.4729309082 36.7349510193
-23.1566200256 -42.4694671631 36.5399780273
-23.1607818604 -42.4746856689 36.3467826843
-23.1690864563 -42.4879646301 36.1552543640
-23.1801071167 -42.5065269470 35.9648361206
-23.1917610168 -42.5263175964 35.7746963501
-23.2019672394 -42.5432968140 35.5839843750
-23.2090206146 -42.5541381836 35.3920059204
-23.2115993500 -42.5562820435 35.1982040405
-23.2087802887 -42.5479240417 35.0021858215
-23.2002964020 -42.5285453796 34.8038215637
-23.1869201660 -42.4996528625 34.6034011841
-23.1705245972 -42.4648780823 34.4016838074
-23.1536083221 -42.4290962219 34.1996994019
-23.1386070251 -42.3970375061 33.9984588623
-23.1273021698 -42.3721694946 33.7987136841
-23.1203784943 -42.3558235168 33.6007652283
-23.1170368195 -42.3464431763 33.4043006897
-23.1149883270 -42.3395843506 33.2083587646
-23.1111621857 -42.3292579651 33.0116500854
-23.1029434204 -42.3103904724 32.8130569458
-23.0892601013 -42.2808914185 32.6121025085
-23.0708389282 -42.2421760559 32.4090766907
-23.0497379303 -42.1982460022 32.2048454285
-23.0286560059 -42.1543502808 32.0005569458
-23.0103015900 -42.1157608032 31.7973766327
-22.9967975616 -42.0866088867 31.5962409973
-22.9891185760 -42.0687866211 31.3975849152
-22.9867935181 -42.0613784790 31.2012290955
-22.9880790710 -42.0610008240 31.0064353943
-22.9904975891 -42.0628204346 30.8121299744
-22.9914798737 -42.0618515015 30.6171913147
-22.9889144897 -42.0539741516 30.4206809998
-22.9814891815 -42.0366439819 30.2220058441
-22.9689006805 -42.0092697144 30.0210151672
-22.9518909454 -41.9732933044 29.8180141449
-22.9321041107 -41.9319076538 29.6137218475
-22.9116992950 -41.8893203735 29.4090900421
-22.8926982880 -41.8494644165 29.2050247192
-22.8763637543 -41.8147926331 29.0020980835
-22.8630352020 -41.7859764099 28.8004741669
-22.8523578644 -41.7623138428 28.6000061035
-22.8434658051 -41.7421226501 28.4003086090
-22.8351097107 -41.7229766846 28.2008228302
-22.8260650635 -41.7024917603 28.0009899139
-22.8157539368 -41.6795387268 27.8005428314
-22.8046741486 -41.6550865173 27.5997066498
-22.7942523956 -41.6319160461 27.3991336823
-22.7860622406 -41.6130905151 27.1995544434
-22.7808876038 -41.6001319885 27.0013408661
-22.7784118652 -41.5924263000 26.8043537140
-22.7777004242 -41.5881538391 26.6081733704
-22.7777690887 -41.5853958130 26.4123458862
-22.7775955200 -41.5821685791 26.2163944244
-22.7758178711 -41.5758209229 26.0196781158
-22.7707386017 -41.5630416870 25.8213939667
-22.7609062195 -41.5410194397 25.6208419800
-22.7458953857 -41.5089149475 25.4178028107
-22.7268505096 -41.4689598083 25.2127971649
-22.7066268921 -41.4267082214 25.0071716309
-22.6892356873 -41.3899726868 24.8028335571
-22.6784591675 -41.3661079407 24.6016082764
-22.6762771606 -41.3589668274 24.4044685364
-22.6820735931 -41.3673553467 24.2111549377
-22.6930122375 -41.3857498169 24.0203285217
-22.7051792145 -41.4065361023 23.8301162720
-22.7148418427 -41.4224472046 23.6387100220
-22.7192707062 -41.4281768799 23.4447727203
-22.7170639038 -41.4209861755 23.2475967407
-22.7082881927 -41.4010124207 23.0471935272
-22.6944980621 -41.3712806702 22.8442955017
-22.6782569885 -41.3367729187 22.6401462555
-22.6622543335 -41.3027305603 22.4360618591
-22.6485176086 -41.2730979919 22.2330455780
-22.6380920410 -41.2499122620 22.0316238403
-22.6310462952 -41.2332992554 21.8318462372
-22.6265926361 -41.2217330933 21.6333332062
-22.6232700348 -41.2123680115 21.4353618622
-22.6192245483 -41.2015953064 21.2370109558
-22.6126403809 -41.1858863831 21.0373630524
-22.6022834778 -41.1628265381 20.8357868195
-22.5879230499 -41.1319770813 20.6321506500
-22.5703716278 -41.0949134827 20.4268512726
-22.5511035919 -41.0545043945 20.2206230164
-22.5318870544 -41.0142021179 20.0143623352
-22.5145797729 -40.9776077271 19.8090133667
-22.5006790161 -40.9476470947 19.6053524017
-22.4906558990 -40.9252357483 19.4036331177
-22.4837265015 -40.9088439941 19.2034702301
-22.4784164429 -40.8956069946 19.0041141510
-22.4734306335 -40.8829994202 18.8049011230
-22.4682388306 -40.8699913025 18.6055564880
-22.4631519318 -40.8571891785 18.4062461853
-22.4589729309 -40.8461494446 18.2073822021
-22.4565372467 -40.8385047913 18.0094089508
-22.4564208984 -40.8353767395 17.8126335144
-22.4588069916 -40.8371200562 17.6171627045
-22.4635086060 -40.8433685303 17.4229030609
-22.4700775146 -40.8532562256 17.2296333313
-22.4778308868 -40.8654479980 17.0369987488
-22.4857425690 -40.8779487610 16.8444557190
-22.4923667908 -40.8879432678 16.6512413025
-22.4959564209 -40.8920326233 16.4564170837
-22.4947242737 -40.8867263794 16.2590141296
-22.4872264862 -40.8692245483 16.0582447052
-22.4727840424 -40.8382034302 15.8537178040
-22.4516468048 -40.7941436768 15.6455402374
-22.4248256683 -40.7390174866 15.4342298508
-22.3938999176 -40.6758956909 15.2206201553
-22.3610153198 -40.6089591980 15.0058555603
-22.3287162781 -40.5431594849 14.7913122177
-22.2993736267 -40.4831199646 14.5782842636
-22.2744464874 -40.4316749573 14.3675804138
-22.2539691925 -40.3888893127 14.1592350006
-22.2364997864 -40.3519630432 13.9524755478
-22.2197723389 -40.3164825439 13.7460699081
-22.2019176483 -40.2788047791 13.5389871597
-22.1825904846 -40.2382621765 13.3310346603
-22.1632575989 -40.1977005005 13.1230154037
-22.1463470459 -40.1618576050 12.9162817001
-22.1339244843 -40.1347541809 12.7119913101
-22.1267566681 -40.1178855896 12.5105905533
-22.1241798401 -40.1099548340 12.3117275238
-22.1245632172 -40.1077880859 12.1145067215
-22.1260375977 -40.1077461243 11.9178905487
-22.1272144318 -40.1071243286 11.7210998535
-22.1276073456 -40.1049766541 11.5238609314
-22.1276340485 -40.1021118164 11.3264045715
-22.1282691956 -40.1004371643 11.1292829514
-22.1305160522 -40.1018981934 10.9330701828
-22.1348381042 -40.1074028015 10.7380361557
-22.1408538818 -40.1162033081 10.5439701080
-22.1474914551 -40.1262168884 10.3502664566
-22.1534671783 -40.1349411011 10.1561899185
-22.1577224731 -40.1403160095 9.9611301422
-22.1596527100 -40.1411628723 9.7647304535
-22.1591606140 -40.1372871399 9.5669269562
-22.1566581726 -40.1295013428 9.3679475784
-22.1530609131 -40.1195793152 9.1683149338
-22.1496868134 -40.1100883484 8.9687929153
-22.1478996277 -40.1036949158 8.7701787949
-22.1485671997 -40.1020812988 8.5729837418
-22.1516685486 -40.1052055359 8.3772048950
-22.1563358307 -40.1113777161 8.1823434830
-22.1612682343 -40.1180725098 7.9876413345
-22.1653137207 -40.1230392456 7.7924189568
-22.1680011749 -40.1253585815 7.5963945389
-22.1697597504 -40.1258659363 7.3998160362
-22.1716384888 -40.1266098022 7.2033042908
-22.1747455597 -40.1297454834 7.0075182915
-22.1798381805 -40.1367530823 6.8129143715
-22.1872558594 -40.1482849121 6.6197028160
-22.1971073151 -40.1645584106 6.4279584885
-22.2094783783 -40.1857414246 6.2377433777
-22.2244033813 -40.2118988037 6.0490870476
-22.2415428162 -40.2423706055 5.8617949486
-22.2598876953 -40.2751922607 5.6752672195
-22.2779560089 -40.3074722290 5.4886093140
-22.2944068909 -40.3366050720 5.3010082245
-22.3085632324 -40.3612670898 5.1120452881
-22.3204383850 -40.3814888000 4.9217200279
-22.3304233551 -40.3980255127 4.7302598953
-22.3390541077 -40.4119262695 4.5379877090
-22.3470268250 -40.4245452881 4.3453249931
-22.3551349640 -40.4374237061 4.1527557373
-22.3638687134 -40.4515266418 3.9605839252
-22.3729324341 -40.4662666321 3.7686281204
-22.3809089661 -40.4788932800 3.5760145187
-22.3852081299 -40.4843559265 3.3811306953
-22.3827247620 -40.4766006470 3.1820328236
-22.3715457916 -40.4519042969 2.9775028229
-22.3524971008 -40.4118766785 2.7680220604
-22.3288593292 -40.3629074097 2.5556101799
-22.3045158386 -40.3125610352 2.3426833153
-22.2823009491 -40.2663612366 2.1310181618
-22.2633571625 -40.2265319824 1.9213436842
-22.2473144531 -40.1923522949 1.7134371996
-22.2330760956 -40.1616935730 1.5066207647
-22.2198448181 -40.1329917908 1.3003926277
-22.2075881958 -40.1061897278 1.0947382450
-22.1969337463 -40.0825119019 0.8900606632
-22.1889095306 -40.0639533997 0.6870209575
-22.1847057343 -40.0528450012 0.4863904417
-22.1853942871 -40.0512657166 0.2888695300
-22.1917037964 -40.0606384277 0.0949456096
-51.8594169617 13.0243730545 71.6275253296
-51.8787155151 13.0275497437 71.4400100708
-51.9064064026 13.0325880051 71.2533035278
-51.9353065491 13.0378932953 71.0667419434
-51.9604759216 13.0423727036 70.8798446655
-51.9812431335 13.0458755493 70.6925582886
-52.0001640320 13.0489692688 70.5051116943
-52.0208053589 13.0524454117 70.3178482056
-52.0469703674 13.0571451187 70.1311416626
-52.0843353271 13.0643281937 69.9455718994
-52.1438064575 13.0764131546 69.7622375488
-52.2451705933 13.0977869034 69.5831604004
-52.4186630249 13.1351537704 69.4114608765
-52.6983604431 13.1960687637 69.2507324219
-53.1015853882 13.2843751907 69.1029434204
-53.6031341553 13.3944864273 68.9657440186
-54.1304855347 13.5103225708 68.8318481445
-54.5961837769 13.6124925613 68.6922225952
-54.9446411133 13.6886682510 68.5409469604
-55.1719970703 13.7379922867 68.3773803711
-55.3079071045 13.7670402527 68.2044296265
-55.3854637146 13.7831506729 68.0254364014
-55.4255256653 13.7909450531 67.8425216675
-55.4376907349 13.7925539017 67.6566467285
-55.4270515442 13.7891063690 67.4683151245
-55.3989448547 13.7817850113 67.2780609131
-55.3604393005 13.7721557617 67.0866165161
-55.3195381165 13.7619962692 66.8948516846
-55.2836990356 13.7529592514 66.7035903931
-55.2586250305 13.7463083267 66.5134735107
-55.2475967407 13.7427740097 66.3248977661
-55.2511177063 13.7424650192 66.1379394531
-55.2668342590 13.7448606491 65.9523696899
-55.2899513245 13.7488994598 65.7676467896
-55.3141250610 13.7531709671 65.5830764771
-55.3329010010 13.7562465668 65.3979034424
-55.3414764404 13.7570581436 65.2115631104
-55.3379859924 13.7551956177 65.0238189697
-55.3236045837 13.7509155273 64.8347854614
-55.3014068604 13.7449016571 64.6447982788
-55.2750701904 13.7379703522 64.4542922974
-55.2485351563 13.7309942245 64.2637176514
-55.2262649536 13.7249641418 64.0736160278
-55.2129096985 13.7209100723 63.8845520020
-55.2118339539 13.7195825577 63.6969528198
-55.2236747742 13.7211189270 63.5109176636
-55.2458267212 13.7249422073 63.3261566162
-55.2730712891 13.7298965454 63.1420402527
-55.2989997864 13.7345581055 62.9577903748
-55.3178710938 13.7376556396 62.7726898193
-55.3262100220 13.7384147644 62.5862884521
-55.3232269287 13.7366628647 62.3984642029
-55.3102569580 13.7326955795 62.2093696594
-55.2899436951 13.7270984650 62.0193214417
-55.2655754089 13.7206010818 61.8287162781
-55.2405471802 13.7139568329 61.6379928589
-55.2179222107 13.7078466415 61.4475364685
-55.2000923157 13.7027988434 61.2576637268
-55.1884651184 13.6991281509 61.0685729980
-55.1832275391 13.6968755722 60.8802947998
-55.1833457947 13.6958103180 60.6927070618
-55.1869201660 13.6955127716 60.5055694580
-55.1915664673 13.6954526901 60.3185729980
-55.1944999695 13.6950130463 60.1313438416
-55.1932144165 13.6936359406 59.9435462952
-55.1870040894 13.6911668777 59.7550773621
-55.1779747009 13.6880712509 59.5662117004
-55.1699447632 13.6851978302 59.3774604797
-55.1660461426 13.6832418442 59.1892585754
-55.1671142578 13.6823873520 59.0017280579
-55.1717796326 13.6823310852 58.8146858215
-55.1774253845 13.6824922562 58.6277809143
-55.1810722351 13.6822109222 58.4405937195
-55.1800041199 13.6808815002 58.2527465820
-55.1722984314 13.6780805588 58.0639610291
-55.1573638916 13.6736726761 57.8741302490
-55.1359443665 13.6678276062 57.6833610535
-55.1092872620 13.6608181000 57.4918060303
-55.0781364441 13.6528120041 57.2995643616
-55.0428924561 13.6438970566 57.1066894531
-55.0048866272 13.6343679428 56.9133644104
-54.9673919678 13.6249523163 56.7200546265
-54.9351310730 13.6166992188 56.5274543762
-54.9124031067 13.6105604172 56.3362007141
-54.9008445740 13.6069021225 56.1465492249
-54.8982734680 13.6052379608 55.9582061768
-54.8995475769 13.6044273376 55.7704200745
-54.8990898132 13.6032323837 55.5823745728
-54.8932075500 13.6008338928 55.3935050964
-54.8805007935 13.5969181061 55.2035980225
-54.8607635498 13.5914440155 55.0126075745
-54.8344955444 13.5845184326 54.8205909729
-54.8034286499 13.5765275955 54.6278076172
-54.7708396912 13.5681972504 54.4347419739
-54.7406234741 13.5603952408 54.2419891357
-54.7159805298 13.5538291931 54.0500526428
-54.6987800598 13.5489158630 53.8592262268
-54.6898460388 13.5458383560 53.6696586609
-54.6894111633 13.5446462631 53.4813957214
-54.6969184875 13.5452194214 53.2943687439
-54.7101516724 13.5470628738 53.1082496643
-54.7245864868 13.5491743088 52.9223251343
-54.7342376709 13.5502223969 52.7356567383
-54.7339324951 13.5490608215 52.5474090576
-54.7214927673 13.5452032089 52.3572082520
-54.6984519958 13.5389919281 52.1652832031
-54.6692695618 13.5314168930 51.9723320007
-54.6396942139 13.5237541199 51.7792739868
-54.6150665283 13.5171899796 51.5869712830
-54.5987892151 13.5124797821 51.3959960938
-54.5913162231 13.5097246170 51.2064323425
-54.5900840759 13.5083560944 51.0178756714
-54.5905799866 13.5073709488 50.8296012878
-54.5879020691 13.5056800842 50.6407890320
-54.5780372620 13.5023937225 50.4507751465
-54.5587997437 13.4970245361 50.2591705322
-54.5304222107 13.4896268845 50.0660018921
-54.4956245422 13.4808015823 49.8717117310
-54.4589195251 13.4715528488 49.6770439148
-54.4256172180 13.4630594254 49.4829025269
-54.4007492065 13.4564399719 49.2901458740
-54.3879013062 13.4524898529 49.0994033813
-54.3881721497 13.4514522552 48.9108848572
-54.3995780945 13.4528894424 48.7242813110
-54.4170799255 13.4556808472 48.5387382507
-54.4336128235 13.4582567215 48.3530426025
-54.4424972534 13.4591331482 48.1660270691
-54.4398193359 13.4574422836 47.9769973755
-54.4250373840 13.4530620575 47.7858314514
-54.3997192383 13.4463405609 47.5927848816
-54.3660964966 13.4377737045 47.3982315063
-54.3263816833 13.4278535843 47.2025451660
-54.2830276489 13.4171247482 47.0061531067
-54.2394561768 13.4063463211 46.8096580505
-54.2002029419 13.3965282440 46.6138725281
-54.1696662903 13.3886461258 46.4196014404
-54.1500778198 13.3831949234 46.2272567749
-54.1403923035 13.3799448013 46.0366783142
-54.1369934082 13.3780918121 45.8472213745
-54.1354026794 13.3766403198 45.6580848694
-54.1315231323 13.3746795654 45.4685211182
-54.1217460632 13.3714094162 45.2778587341
-54.1029586792 13.3661355972 45.0855140686
-54.0737800598 13.3585529327 44.8912124634
-54.0365257263 13.3491754532 44.6953659058
-53.9974060059 13.3393840790 44.4991188049
-53.9640426636 13.3308706284 44.3038864136
-53.9420166016 13.3248767853 44.1107368469
-53.9328079224 13.3217315674 43.9199638367
-53.9336128235 13.3208103180 43.7310638428
-53.9387779236 13.3208589554 43.5429840088
-53.9419631958 13.3204669952 43.3545303345
-53.9379615784 13.3184785843 43.1646995544
-53.9236259460 13.3141927719 42.9728736877
-53.8983650208 13.3074789047 42.7789268494
-53.8645248413 13.2988576889 42.5832786560
-53.8271331787 13.2894468307 42.3868942261
-53.7927894592 13.2807140350 42.1910476685
-53.7681236267 13.2741308212 41.9970359802
-53.7582168579 13.2708292007 41.8058662415
-53.7651596069 13.2712707520 41.6179847717
-53.7871742249 13.2750635147 41.4330711365
-53.8191032410 13.2810602188 41.2501373291
-53.8539428711 13.2877044678 41.0678138733
-53.8845214844 13.2934017181 40.8846817017
-53.9048690796 13.2968244553 40.6995391846
-53.9114990234 13.2971982956 40.5116767883
-53.9042739868 13.2944908142 40.3210296631
-53.8860549927 13.2893409729 40.1281547546
-53.8610725403 13.2826871872 39.9338836670
-53.8330879211 13.2753648758 39.7389640808
-53.8048515320 13.2679862976 39.5439491272
-53.7789611816 13.2611293793 39.3493690491
-53.7586822510 13.2555208206 39.1558952332
-53.7475090027 13.2519350052 38.9642562866
-53.7475318909 13.2508392334 38.7749023438
-53.7577590942 13.2520112991 38.5876502991
-53.7737045288 13.2544555664 38.4015846252
-53.7889366150 13.2567405701 38.2153854370
-53.7974090576 13.2575235367 38.0277938843
-53.7949676514 13.2558784485 37.8379173279
-53.7794609070 13.2513294220 37.6452941895
-53.7505264282 13.2437944412 37.4498176575
-53.7099075317 13.2336616516 37.2518272400
-53.6621627808 13.2219429016 37.0522727966
-53.6146583557 13.2102766037 36.8526954651
-53.5757827759 13.2005300522 36.6548919678
-53.5515327454 13.1940345764 36.4601516724
-53.5425109863 13.1909265518 36.2686386108
-53.5439453125 13.1901426315 36.0793533325
-53.5489044189 13.1901426315 35.8908233643
-53.5519866943 13.1897258759 35.7018852234
-53.5508880615 13.1883783340 35.5120391846
-53.5458793640 13.1861619949 35.3213310242
-53.5386772156 13.1834573746 35.1301345825
-53.5312995911 13.1807136536 34.9388809204
-53.5252037048 13.1782550812 34.7478904724
-53.5208053589 13.1761741638 34.5572586060
-53.5176773071 13.1743745804 34.3668975830
-53.5152091980 13.1727228165 34.1766662598
-53.5136108398 13.1712646484 33.9866218567
-53.5144004822 13.1703367233 33.7971000671
-53.5196189880 13.1703939438 33.6085586548
-53.5298805237 13.1715726852 33.4211463928
-53.5426597595 13.1733131409 33.2343101501
-53.5527191162 13.1744470596 33.0468673706
-53.5548248291 13.1738128662 32.8576316833
-53.5471458435 13.1710014343 32.6661758423
-53.5326690674 13.1666765213 32.4731559753
-53.5178413391 13.1622753143 32.2800331116
-53.5097236633 13.1593656540 32.0884170532
-53.5133819580 13.1590747833 31.8994808197
-53.5303535461 13.1617479324 31.7136020660
-53.5580444336 13.1668043137 31.5302104950
-53.5900878906 13.1728296280 31.3478546143
-53.6181983948 13.1779804230 31.1646194458
-53.6349525452 13.1806039810 30.9787731171
-53.6361770630 13.1797733307 30.7893218994
-53.6218719482 13.1754865646 30.5962352753
-53.5957832336 13.1685791016 30.4003601074
-53.5639457703 13.1603918076 30.2030925751
-53.5325126648 13.1522932053 30.0058727264
-53.5057220459 13.1452283859 29.8097000122
-53.4850578308 13.1395254135 29.6149387360
-53.4698638916 13.1350412369 29.4214439392
-53.4587936401 13.1314725876 29.2289028168
-53.4511299133 13.1286630630 29.0371551514
-53.4472274780 13.1266908646 28.8462924957
-53.4476547241 13.1256809235 28.6564579010
-53.4518585205 13.1255121231 28.4675254822
-53.4576530457 13.1256961823 28.2789745331
-53.4618797302 13.1255321503 28.0900459290
-53.4616241455 13.1243705750 27.9000263214
-53.4552841187 13.1218557358 27.7085170746
-53.4432144165 13.1180639267 27.5155925751
-53.4277839661 13.1135244370 27.3218231201
-53.4127349854 13.1090707779 27.1281204224
-53.4019660950 13.1055688858 26.9354438782
-53.3981781006 13.1036205292 26.7444705963
-53.4019660950 13.1033582687 26.5553569794
-53.4116973877 13.1044197083 26.3677158356
-53.4242897034 13.1061162949 26.1807918549
-53.4363632202 13.1076993942 25.9937477112
-53.4452819824 13.1085786819 25.8059215546
-53.4497413635 13.1084661484 25.6169853210
-53.4499816895 13.1074132919 25.4269847870
-53.4475097656 13.1057586670 25.2362937927
-53.4445304871 13.1039905548 25.0454654694
-53.4431648254 13.1025800705 24.8550338745
-53.4448394775 13.1018476486 24.6653652191
-53.4500160217 13.1018943787 24.4765834808
-53.4582748413 13.1026268005 24.2885875702
-53.4686088562 13.1038227081 24.1011257172
-53.4798049927 13.1052093506 23.9138927460
-53.4906463623 13.1065168381 23.7265720367
-53.4998626709 13.1074638367 23.5388431549
-53.5059394836 13.1077108383 23.3503055573
-53.5069084167 13.1068201065 23.1604442596
-53.5005531311 13.1043004990 22.9686775208
-53.4850883484 13.0997514725 22.7745208740
-53.4597282410 13.0929994583 22.5777549744
-53.4247207642 13.0840988159 22.3784236908
-53.3812828064 13.0733203888 22.1768283844
-53.3322448730 13.0612955093 21.9736957550
-53.2824401855 13.0490989685 21.7702884674
-53.2371788025 13.0379142761 21.5680122375
-53.1994819641 13.0284128189 21.3676738739
-53.1685791016 13.0204238892 21.1690826416
-53.1410140991 13.0131788254 20.9713325500
-53.1131172180 13.0058584213 20.7734508514
-53.0830230713 12.9980497360 20.5749397278
-53.0513687134 12.9898920059 20.3759613037
-53.0206069946 12.9819335938 20.1771755219
-52.9936790466 12.9748287201 19.9793758392
-52.9727020264 12.9690494537 19.7831401825
-52.9582481384 12.9647216797 19.5886363983
-52.9490737915 12.9615697861 19.3955421448
-52.9420623779 12.9588994980 19.2030143738
-52.9328231812 12.9557332993 19.0098648071
-52.9176597595 12.9512472153 18.8150749207
-52.8957710266 12.9452638626 18.6184158325
-52.8694992065 12.9383029938 18.4205150604
-52.8422775269 12.9311313629 18.2223129272
-52.8167533875 12.9243364334 18.0245361328
-52.7947654724 12.9183292389 17.8276958466
-52.7781295776 12.9135141373 17.6323051453
-52.7683830261 12.9102334976 17.4388008118
-52.7658805847 12.9085664749 17.2472934723
-52.7696723938 12.9083013535 17.0575351715
-52.7781600952 12.9090824127 16.8690872192
-52.7895660400 12.9105129242 16.6814613342
-52.8019142151 12.9121551514 16.4941101074
-52.8128700256 12.9134845734 16.3063735962
-52.8196830750 12.9138927460 16.1174736023
-52.8194351196 12.9127283096 15.9265766144
-52.8096351624 12.9094352722 15.7329597473
-52.7891654968 12.9037647247 15.5362882614
-52.7593345642 12.8960084915 15.3369150162
-52.7241935730 12.8870687485 15.1359767914
-52.6894035339 12.8782081604 14.9350862503
-52.6598892212 12.8705215454 14.7356586456
-52.6376953125 12.8644657135 14.5382890701
-52.6216468811 12.8597793579 14.3426580429
-52.6090660095 12.8558654785 14.1479997635
-52.5977859497 12.8522405624 13.9536952972
-52.5866851807 12.8486566544 13.7594203949
-52.5747642517 12.8448886871 13.5648841858
-52.5607261658 12.8406496048 13.3697090149
-52.5439567566 12.8358011246 13.1737089157
-52.5254478455 12.8305654526 12.9771709442
-52.5073127747 12.8254127502 12.7807111740
-52.4916076660 12.8208017349 12.5849351883
-52.4797172546 12.8170394897 12.3902559280
-52.4724731445 12.8143138885 12.1969280243
-52.4703979492 12.8127384186 12.0051126480
-52.4735794067 12.8123359680 11.8148498535
-52.4812660217 12.8129367828 11.6259222031
-52.4913558960 12.8140735626 11.4377136230
-52.5002899170 12.8149528503 11.2491674423
-52.5035858154 12.8145751953 11.0589361191
-52.4969940186 12.8119935989 10.8657331467
-52.4781188965 12.8066740036 10.6688213348
-52.4476242065 12.7987651825 10.4683761597
-52.4090728760 12.7890605927 10.2654504776
-52.3673858643 12.7786560059 10.0615177155
-52.3269424438 12.7685279846 9.8578996658
-52.2906150818 12.7593183517 9.6554746628
-52.2600593567 12.7513942719 9.4547519684
-52.2361640930 12.7449541092 9.2560157776
-52.2185554504 12.7399158478 9.0591650009
-52.2045288086 12.7356748581 8.8633813858
-52.1889076233 12.7310791016 8.6670818329
-52.1654930115 12.7247457504 8.4683570862
-52.1292533875 12.7155532837 8.2656345367
-52.0781745911 12.7030515671 8.0582704544
-52.0142669678 12.6876907349 7.8468575478
-51.9433326721 12.6707620621 7.6331715584
-51.8736572266 12.6541128159 7.4197764397
-51.8141136169 12.6397228241 7.2094430923
-51.7725906372 12.6293497086 7.0046558380
-51.7555160522 12.6244268417 6.8074631691
-51.7683296204 12.6261682510 6.6196188927
-51.8152313232 12.6355094910 6.4425015450
-51.8972549438 12.6526823044 6.2765045166
-52.0101013184 12.6767282486 6.1203393936
-52.1441345215 12.7054996490 5.9710168839
-52.2869224548 12.7362232208 5.8246374130
-52.4264945984 12.7662305832 5.6774158478
-52.5534057617 12.7934160233 5.5263366699
-52.6612319946 12.8163471222 5.3693289757
-52.7463874817 12.8342227936 5.2052083015
-52.8079986572 12.8468494415 5.0336499214
-52.8480606079 12.8546714783 4.8552479744
-52.8714294434 12.8587703705 4.6715226173
-52.8849868774 12.8606824875 4.4846591949
-52.8960075378 12.8620271683 4.2969856262
-52.9106140137 12.8641729355 4.1104803085
-52.9329566956 12.8680429459 3.9264945984
-52.9648704529 12.8740491867 3.7456402779
-53.0059967041 12.8821096420 3.5678193569
-53.0545463562 12.8918256760 3.3924655914
-53.1080131531 12.9026384354 3.2187743187
-53.1628303528 12.9137525558 3.0455884933
-53.2137069702 12.9239892960 2.8711740971
-53.2546348572 12.9320068359 2.6935479641
-53.2816352844 12.9369173050 2.5113782883
-53.2947044373 12.9387226105 2.3246397972
-53.2973556519 12.9382028580 2.1344645023
-53.2947807312 12.9365167618 1.9425532818
-53.2925682068 12.9349117279 1.7507517338
-53.2962608337 12.9346246719 1.5609054565
-53.3109817505 12.9367971420 1.3747314215
-53.3404197693 12.9422531128 1.1934858561
-53.3853302002 12.9511604309 1.0174486637
-53.4425277710 12.9628095627 0.8455838561
-53.5058937073 12.9758348465 0.6758585572
-53.5694389343 12.9889001846 0.5062684417
-53.6303215027 13.0013723373 0.3358553052
-53.6893844604 13.0134382248 0.1649004221
-31.1016597748 -32.8726081848 69.0400772095
-31.1308250427 -32.9027557373 68.8484344482
-31.1848068237 -32.9602279663 68.6598968506
-31.2573451996 -33.0381317139 68.4737548828
-31.3411731720 -33.1284675598 68.2891464233
-31.4292793274 -33.2235145569 68.1052169800
-31.5154151917 -33.3163948059 67.9211807251
-31.5940437317 -33.4010086060 67.7363357544
-31.6600360870 -33.4717102051 67.5499954224
-31.7087650299 -33.5234069824 67.3615188599
-31.7371501923 -33.5527038574 67.1704635620
-31.7450199127 -33.5594100952 66.9767608643
-31.7353935242 -33.5468521118 66.7807388306
-31.7134819031 -33.5207672119 66.5830612183
-31.6852931976 -33.4877700806 66.3844909668
-31.6566333771 -33.4542541504 66.1857986450
-31.6324100494 -33.4256248474 65.9876480103
-31.6160030365 -33.4055976868 65.7905197144
-31.6090183258 -33.3959465027 65.5946426392
-31.6116447449 -33.3968811035 65.4000854492
-31.6232986450 -33.4077568054 65.2067794800
-31.6429347992 -33.4274177551 65.0146026611
-31.6689128876 -33.4540634155 64.8233566284
-31.6988277435 -33.4850463867 64.6326980591
-31.7295627594 -33.5169334412 64.4422073364
-31.7575149536 -33.5457572937 64.2513580322
-31.7788295746 -33.5672683716 64.0595932007
-31.7899742126 -33.5775833130 63.8663711548
-31.7888202667 -33.5743560791 63.6713600159
-31.7754783630 -33.5577011108 63.4745445251
-31.7521457672 -33.5300483704 63.2762107849
-31.7223377228 -33.4952621460 63.0768623352
-31.6902084351 -33.4579200745 62.8771057129
-31.6599445343 -33.4226341248 62.6775627136
-31.6350269318 -33.3932304382 62.4787712097
-31.6175746918 -33.3720512390 62.2810630798
-31.6080608368 -33.3596115112 62.0845413208
-31.6051845551 -33.3544807434 61.8890151978
-31.6059017181 -33.3533096313 61.6940345764
-31.6058597565 -33.3513031006 61.4989318848
-31.6004371643 -33.3433723450 61.3029708862
-31.5862216949 -33.3257522583 61.1056022644
-31.5624198914 -33.2975769043 60.9066772461
-31.5312442780 -33.2612800598 60.7065200806
-31.4968338013 -33.2214202881 60.5057792664
-31.4634609222 -33.1826972961 60.3051376343
-31.4341564178 -33.1484603882 60.1050910950
-31.4100856781 -33.1199836731 59.9058341980
-31.3904190063 -33.0963592529 59.7072525024
-31.3728618622 -33.0750579834 59.5089759827
-31.3548069000 -33.0532073975 59.3105773926
-31.3344688416 -33.0288429260 59.1117553711
-31.3112468719 -33.0013008118 58.9124069214
-31.2852420807 -32.9706916809 58.7125358582
-31.2565517426 -32.9371261597 58.5121574402
-31.2251148224 -32.9005317688 58.3112487793
-31.1914100647 -32.8614425659 58.1098899841
-31.1571998596 -32.8217926025 57.9083709717
-31.1252517700 -32.7846336365 57.7071762085
-31.0980834961 -32.7527427673 57.5067520142
-31.0768451691 -32.7273826599 57.3073043823
-31.0609493256 -32.7079048157 57.1087493896
-31.0480976105 -32.6917762756 56.9106979370
-31.0344600677 -32.6747856140 56.7124748230
-31.0156288147 -32.6520767212 56.5132904053
-30.9885997772 -32.6203346252 56.3125953674
-30.9536514282 -32.5798645020 56.1104125977
-30.9144897461 -32.5347557068 55.9073982239
-30.8764362335 -32.4908676147 55.7045059204
-30.8440246582 -32.4531898499 55.5025672913
-30.8195991516 -32.4243164063 55.3020362854
-30.8033790588 -32.4044761658 55.1029663086
-30.7942771912 -32.3924789429 54.9051780701
-30.7906265259 -32.3864822388 54.7083854675
-30.7904510498 -32.3843193054 54.5122299194
-30.7915000916 -32.3835029602 54.3162918091
-30.7912883759 -32.3812980652 54.1201095581
-30.7871723175 -32.3747901917 53.9231796265
-30.7764949799 -32.3610572815 53.7249755859
-30.7569618225 -32.3375663757 53.5250473022
-30.7273635864 -32.3029861450 53.3231353760
-30.6883144379 -32.2579917908 53.1193351746
-30.6423873901 -32.2054214478 52.9141159058
-30.5934410095 -32.1495208740 52.7082138062
-30.5455188751 -32.0947494507 52.5024185181
-30.5016117096 -32.0443992615 52.2973213196
-30.4625835419 -31.9994277954 52.0931053162
-30.4269485474 -31.9581890106 51.8894844055
-30.3920288086 -31.9177417755 51.6859359741
-30.3558139801 -31.8758621216 51.4820556641
-30.3178577423 -31.8320674896 51.2777519226
-30.2787475586 -31.7869987488 51.0731391907
-30.2393760681 -31.7416419983 50.8683929443
-30.2010517120 -31.6974372864 50.6637840271
-30.1656360626 -31.6564369202 50.4596939087
-30.1348342896 -31.6205196381 50.2564811707
-30.1093006134 -31.5904064178 50.0542984009
-30.0886859894 -31.5657138824 49.8530807495
-30.0724353790 -31.5458259583 49.6527328491
-30.0602722168 -31.5304431915 49.4532012939
-30.0517711639 -31.5190963745 49.2544097900
-30.0453624725 -31.5100536346 49.0560417175
-30.0378150940 -31.4997577667 48.8574066162
-30.0249595642 -31.4836120605 48.6576194763
-30.0032711029 -31.4577331543 48.4559097290
-29.9711742401 -31.4203834534 48.2519149780
-29.9295005798 -31.3724803925 48.0457878113
-29.8813610077 -31.3174514771 47.8381729126
-29.8315277100 -31.2605552673 47.6300964355
-29.7850646973 -31.2073707581 47.4226608276
-29.7454719543 -31.1617584229 47.2166366577
-29.7134685516 -31.1245079041 47.0122108459
-29.6870727539 -31.0934352875 46.8089561462
-29.6625957489 -31.0644760132 46.6060752869
-29.6357650757 -31.0329246521 46.4026145935
-29.6027469635 -30.9945526123 46.1977157593
-29.5611763000 -30.9467544556 45.9908218384
-29.5110797882 -30.8895606995 45.7819213867
-29.4551582336 -30.8259468079 45.5716056824
-29.3981094360 -30.7610893250 45.3609237671
-29.3453063965 -30.7009086609 45.1511001587
-29.3011989594 -30.6503105164 44.9431686401
-29.2677917480 -30.6115055084 44.7376136780
-29.2438411713 -30.5831203461 44.5341720581
-29.2252941132 -30.5606899261 44.3319358826
-29.2065830231 -30.5380783081 44.1296195984
-29.1818981171 -30.5088825226 43.9258613586
-29.1461200714 -30.4674606323 43.7194519043
-29.0956478119 -30.4098415375 43.5095062256
-29.0292129517 -30.3346309662 43.2956886292
-28.9483203888 -30.2434844971 43.0783157349
-28.8566703796 -30.1404781342 42.8582229614
-28.7587547302 -30.0305671692 42.6364631653
-28.6586952209 -29.9182891846 42.4140052795
-28.5601692200 -29.8076972961 42.1917304993
-28.4672107697 -29.7032432556 41.9706153870
-28.3847541809 -29.6103630066 41.7518730164
-28.3179836273 -29.5347709656 41.5367965698
-28.2707443237 -29.4807033539 41.3263664246
-28.2443981171 -29.4496631622 41.1209678650
-28.2381458282 -29.4407711029 40.9204635620
-28.2501373291 -29.4519901276 40.7244453430
-28.2778129578 -29.4804935455 40.5323295593
-28.3170623779 -29.5217590332 40.3431358337
-28.3615970612 -29.5688476563 40.1553192139
-28.4039840698 -29.6135692596 39.9670410156
-28.4383449554 -29.6494464874 39.7768058777
-28.4625854492 -29.6741676331 39.5840721130
-28.4782428741 -29.6894283295 39.3891983032
-28.4885272980 -29.6987667084 39.1929740906
-28.4963760376 -29.7054214478 38.9961395264
-28.5033302307 -29.7110862732 38.7990837097
-28.5091819763 -29.7155399323 38.6017456055
-28.5127906799 -29.7175178528 38.4038314819
-28.5136680603 -29.7164859772 38.2052078247
-28.5127601624 -29.7134876251 38.0061149597
-28.5113887787 -29.7099761963 37.8068885803
-28.5096931458 -29.7061080933 37.6075668335
-28.5063076019 -29.7003765106 37.4077911377
-28.4991550446 -29.6904907227 37.2070121765
-28.4862232208 -29.6742362976 37.0046806335
-28.4663257599 -29.6503009796 36.8004722595
-28.4402122498 -29.6195125580 36.5945701599
-28.4112606049 -29.5855941772 36.3878517151
-28.3843803406 -29.5539608002 36.1816291809
-28.3633995056 -29.5288295746 35.9769363403
-28.3489322662 -29.5108776093 35.7739486694
-28.3383407593 -29.4972000122 35.5719757080
-28.3275375366 -29.4832878113 35.3699188232
-28.3131999969 -29.4654769897 35.1668701172
-28.2941303253 -29.4424514771 34.9624938965
-28.2713489532 -29.4153308868 34.7570610046
-28.2472171783 -29.3867244720 34.5512046814
-28.2242050171 -29.3593502045 34.3456077576
-28.2035961151 -29.3346233368 34.1406250000
-28.1849155426 -29.3120250702 33.9361305237
-28.1669425964 -29.2902050018 33.7317924500
-28.1495532990 -29.2690277100 33.5275764465
-28.1343822479 -29.2502956390 33.3239402771
-28.1235408783 -29.2363376617 33.1214866638
-28.1176452637 -29.2278327942 32.9203987122
-28.1146621704 -29.2225379944 32.7201156616
-28.1103076935 -29.2157325745 32.5194282532
-28.0997943878 -29.2021350861 32.3169708252
-28.0800476074 -29.1783580780 32.1118507385
-28.0513687134 -29.1447296143 31.9041290283
-28.0176792145 -29.1055774689 31.6949062347
-27.9847717285 -29.0672836304 31.4858398438
-27.9572448730 -29.0349254608 31.2782630920
-27.9363842010 -29.0099143982 31.0725593567
-27.9203853607 -28.9902667999 30.8682250977
-27.9061450958 -28.9725551605 30.6643657684
-27.8907966614 -28.9536228180 30.4601478577
-27.8721599579 -28.9310665131 30.2549285889
-27.8485622406 -28.9030342102 30.0482063293
-27.8188724518 -28.8682861328 29.8396339417
-27.7830123901 -28.8267345428 29.6291732788
-27.7422904968 -28.7798194885 29.4171924591
-27.6989860535 -28.7300548553 29.2043628693
-27.6553688049 -28.6799468994 28.9913520813
-27.6130104065 -28.6312217712 28.7786312103
-27.5727024078 -28.5847606659 28.5664424896
-27.5345802307 -28.5407085419 28.3548316956
-27.4981517792 -28.4985237122 28.1436576843
-27.4625434875 -28.4572410583 27.9326572418
-27.4269866943 -28.4160156250 27.7216014862
-27.3912181854 -28.3745555878 27.5104084015
-27.3554668427 -28.3331146240 27.2991466522
-27.3202590942 -28.2922725677 27.0879783630
-27.2862663269 -28.2527675629 26.8771133423
-27.2541065216 -28.2152843475 26.6667442322
-27.2242012024 -28.1802883148 26.4570083618
-27.1970615387 -28.1483421326 26.2480678558
-27.1736183167 -28.1204700470 26.0402202606
-27.1546535492 -28.0975379944 25.8337211609
-27.1396465302 -28.0789699554 25.6284198761
-27.1264801025 -28.0624313354 25.4236602783
-27.1125335693 -28.0450325012 25.2186222076
-27.0960922241 -28.0248813629 25.0127620697
-27.0770778656 -28.0018920898 24.8060493469
-27.0569992065 -27.9777297974 24.5989551544
-27.0383148193 -27.9551048279 24.3922615051
-27.0233993530 -27.9366340637 24.1867275238
-27.0135822296 -27.9237880707 23.9827919006
-27.0087738037 -27.9164657593 23.7804412842
-27.0077114105 -27.9132747650 23.5792770386
-27.0082721710 -27.9118747711 23.3786277771
-27.0074520111 -27.9089527130 23.1775245667
-27.0012512207 -27.9000930786 22.9746627808
-26.9854869843 -27.8806838989 22.7686634064
-26.9578990936 -27.8482341766 22.5587654114
-26.9198513031 -27.8042469025 22.3453845978
-26.8755855560 -27.7533988953 22.1298828125
-26.8295745850 -27.7006244659 21.9137191772
-26.7845764160 -27.6489658356 21.6977958679
-26.7416400909 -27.5995826721 21.4824695587
-26.7010211945 -27.5527534485 21.2678241730
-26.6626529694 -27.5084075928 21.0538482666
-26.6259670258 -27.4659156799 20.8403549194
-26.5896263123 -27.4238052368 20.6269035339
-26.5519657135 -27.3802356720 20.4129352570
-26.5121212006 -27.3342571259 20.1981544495
-26.4708786011 -27.2867355347 19.9828224182
-26.4304237366 -27.2400817871 19.7676734924
-26.3934459686 -27.1972637177 19.5536231995
-26.3622131348 -27.1607837677 19.3414535522
-26.3376655579 -27.1316776276 19.1314964294
-26.3185482025 -27.1085586548 18.9233417511
-26.3014011383 -27.0876140594 18.7158203125
-26.2820358276 -27.0642261505 18.5074996948
-26.2575073242 -27.0351352692 18.2973518372
-26.2270736694 -26.9995346069 18.0851135254
-26.1920642853 -26.9588813782 17.8712272644
-26.1553211212 -26.9163150787 17.6566658020
-26.1205310822 -26.8759040833 17.4427089691
-26.0912189484 -26.8415374756 17.2305946350
-26.0695095062 -26.8155555725 17.0210800171
-26.0549907684 -26.7975063324 16.8140392303
-26.0441799164 -26.7835483551 16.6082668304
-26.0310840607 -26.7670688629 16.4016609192
-26.0091133118 -26.7407989502 16.1918869019
-25.9736194611 -26.6996059418 15.9772691727
-25.9236660004 -26.6424598694 15.7574415207
-25.8623027802 -26.5727233887 15.5334501266
-25.7954292297 -26.4969062805 15.3073730469
-25.7295570374 -26.4221916199 15.0815238953
-25.6692733765 -26.3536434174 14.8575544357
-25.6161918640 -26.2930393219 14.6360597610
-25.5700340271 -26.2400760651 14.4169578552
-25.5303020477 -26.1942005157 14.2000885010
-25.4968452454 -26.1552467346 13.9854125977
-25.4695835114 -26.1231307983 13.7729206085
-25.4483680725 -26.0976829529 13.5625724792
-25.4331169128 -26.0788192749 13.3543558121
-25.4238700867 -26.0665779114 13.1483011246
-25.4205608368 -26.0608882904 12.9443998337
-25.4226608276 -26.0611667633 12.7424736023
-25.4289035797 -26.0660190582 12.5420703888
-25.4372787476 -26.0732231140 12.3424577713
-25.4452400208 -26.0799713135 12.1426973343
-25.4499778748 -26.0831604004 11.9417448044
-25.4488105774 -26.0798358917 11.7385931015
-25.4399681091 -26.0680408478 11.5325651169
-25.4236755371 -26.0480213165 11.3237247467
-25.4027919769 -26.0229396820 11.1131238937
-25.3820724487 -25.9980354309 10.9025392532
-25.3662261963 -25.9785099030 10.6937437057
-25.3581848145 -25.9675960541 10.4878597260
-25.3586845398 -25.9661083221 10.2851867676
-25.3668365479 -25.9730663300 10.0854110718
-25.3808784485 -25.9865226746 9.8878803253
-25.3988933563 -26.0043659210 9.6918830872
-25.4195766449 -26.0251522064 9.4969282150
-25.4426269531 -26.0485515594 9.3029079437
-25.4684658051 -26.0750293732 9.1099920273
-25.4975605011 -26.1050987244 8.9183654785
-25.5298767090 -26.1387252808 8.7280263901
-25.5645561218 -26.1749610901 8.5386505127
-25.5996856689 -26.2116947174 8.3495025635
-25.6322555542 -26.2456035614 8.1594133377
-25.6585826874 -26.2726211548 7.9669427872
-25.6751785278 -26.2889003754 7.7707118988
-25.6796894073 -26.2918415070 7.5697741508
-25.6717548370 -26.2810459137 7.3639540672
-25.6535854340 -26.2589550018 7.1540889740
-25.6297664642 -26.2306289673 6.9419565201
-25.6060657501 -26.2024307251 6.7298188210
-25.5878849030 -26.1803226471 6.5198135376
-25.5789356232 -26.1684074402 6.3134288788
-25.5801773071 -26.1677398682 6.1110706329
-25.5893478394 -26.1758213043 5.9118638039
-25.6017246246 -26.1874427795 5.7139458656
-25.6119499207 -26.1966915131 5.5151796341
-25.6159019470 -26.1990146637 5.3139066696
-25.6119461060 -26.1926097870 5.1094527245
-25.6014060974 -26.1789360046 4.9023294449
-25.5881843567 -26.1623001099 4.6940946579
-25.5773754120 -26.1483306885 4.4868040085
-25.5731449127 -26.1416206360 4.2821540833
-25.5770149231 -26.1438522339 4.0807800293
-25.5877170563 -26.1536254883 3.8821873665
-25.6021041870 -26.1674671173 3.6851103306
-25.6156311035 -26.1803588867 3.4876976013
-25.6225261688 -26.1859321594 3.2875809669
-25.6172084808 -26.1780204773 3.0824470520
-25.5968132019 -26.1534652710 2.8710842133
-25.5627269745 -26.1137962341 2.6540238857
-25.5197620392 -26.0643272400 2.4332206249
-25.4738788605 -26.0116348267 2.2111198902
-25.4299640656 -25.9611129761 1.9897463322
-25.3905944824 -25.9156093597 1.7701768875
-25.3561515808 -25.8755416870 1.5525840521
-25.3262310028 -25.8404674530 1.3368114233
-25.3014488220 -25.8110656738 1.1231296062
-25.2844085693 -25.7902088165 0.9126458764
-25.2792663574 -25.7824897766 0.7071309686
-25.2900848389 -25.7923889160 0.5083301663
-25.3180332184 -25.8211994171 0.3167808652
-25.3575801849 -25.8628139496 0.1301857978
-44.4103736877 24.8059139252 72.3461074829
-44.4209365845 24.8101902008 72.1562042236
-44.4377899170 24.8177394867 71.9669418335
-44.4637413025 24.8300266266 71.7786178589
-44.5027656555 24.8491191864 71.5916442871
-44.5573539734 24.8763103485 71.4063110352
-44.6248855591 24.9102420807 71.2223739624
-44.6961402893 24.9461116791 71.0389175415
-44.7574005127 24.9767818451 70.8545074463
-44.7950286865 24.9951496124 70.6677017212
-50.2660827637 27.8335857391 69.7473220825
-50.2842597961 27.8418540955 69.5624160767
-50.3182487488 27.8583507538 69.3793029785
-50.3699493408 27.8840713501 69.1982345581
-50.4358444214 27.9171810150 69.0188369751
-50.5063018799 27.9526653290 68.8400497437
-50.5690765381 27.9841537476 68.6604766846
-50.6138992310 28.0062923431 68.4788970947
-50.6352729797 28.0162258148 68.2946548462
-50.6331405640 28.0139198303 68.1076736450
-50.6116943359 28.0015602112 67.9184112549
-50.5769042969 27.9822521210 67.7275314331
-50.5340919495 27.9587669373 67.5356292725
-50.4871635437 27.9331359863 67.3431701660
-50.4395065308 27.9071292877 67.1505508423
-50.3950195313 27.8827686310 66.9582443237
-50.3581123352 27.8623542786 66.7667846680
-50.3326377869 27.8478946686 66.5766754150
-50.3201828003 27.8402137756 66.3881301880
-50.3186874390 27.8382377625 66.2009124756
-50.3227310181 27.8391475677 66.0143814087
-50.3257179260 27.8395042419 65.8277206421
-50.3225212097 27.8366432190 65.6402740479
-50.3109970093 27.8294448853 65.4517517090
-50.2918663025 27.8182868958 65.2622375488
-50.2677001953 27.8045043945 65.0720443726
-50.2416954041 27.7897663116 64.8815689087
-50.2167205811 27.7755641937 64.6911849976
-50.1948356628 27.7629699707 64.5011596680
-50.1772804260 27.7526302338 64.3116607666
-50.1646347046 27.7448482513 64.1227798462
-50.1567649841 27.7395515442 63.9345092773
-50.1525497437 27.7361583710 63.7467079163
-50.1498260498 27.7335414886 63.5590896606
-50.1458549500 27.7302742004 63.3712959290
-50.1382026672 27.7250919342 63.1829872131
-50.1255760193 27.7173175812 62.9939842224
-50.1080589294 27.7069969177 62.8042831421
-50.0867385864 27.6946945190 62.6140289307
-50.0632286072 27.6812534332 62.4234313965
-50.0397796631 27.6678428650 62.2328033447
-50.0195808411 27.6561241150 62.0425872803
-50.0061988831 27.6479530334 61.8532943726
-50.0017738342 27.6444492340 61.6652412415
-50.0055465698 27.6452140808 61.4783363342
-50.0141563416 27.6485004425 61.2921180725
-50.0231857300 27.6520023346 61.1059646606
-50.0282020569 27.6534156799 60.9192390442
-50.0251045227 27.6506023407 60.7313385010
-50.0109329224 27.6420211792 60.5418167114
-49.9856643677 27.6276626587 60.3506431580
-49.9534568787 27.6096878052 60.1584053040
-49.9215850830 27.5918884277 59.9661636353
-49.8976478577 27.5782184601 59.7750473022
-49.8870964050 27.5715217590 59.5858840942
-49.8922805786 27.5730228424 59.3990554810
-49.9124259949 27.5823135376 59.2144775391
-49.9437332153 27.5974197388 59.0316085815
-49.9797210693 27.6149635315 58.8494873047
-50.0122947693 27.6307296753 58.6668891907
-50.0336608887 27.6406593323 58.4826087952
-50.0384330750 27.6419448853 58.2957992554
-50.0251083374 27.6338024139 58.1061859131
-49.9964904785 27.6176967621 57.9141693115
-49.9588699341 27.5969009399 57.7206993103
-49.9200859070 27.5754966736 57.5269851685
-49.8873062134 27.5572204590 57.3341560364
-49.8653678894 27.5445919037 57.1429862976
-49.8561134338 27.5385704041 56.9537963867
-49.8585929871 27.5386600494 56.7664604187
-49.8698730469 27.5433349609 56.5805320740
-49.8859291077 27.5504970551 56.3953781128
-49.9021720886 27.5577564240 56.2102737427
-49.9138259888 27.5626258850 56.0244369507
-49.9169311523 27.5630435944 55.8372154236
-49.9099197388 27.5581893921 55.6483306885
-49.8944625854 27.5489349365 55.4580345154
-49.8746032715 27.5373859406 55.2669868469
-49.8549385071 27.5259399414 55.0759315491
-49.8393478394 27.5166168213 54.8855209351
-49.8306922913 27.5109062195 54.6962432861
-49.8306846619 27.5097007751 54.5083999634
-49.8394927979 27.5130863190 54.3220367432
-49.8553848267 27.5201625824 54.1368827820
-49.8746681213 27.5290069580 53.9523200989
-49.8921089172 27.5368919373 53.7674636841
-49.9021759033 27.5409336090 53.5813560486
-49.9009933472 27.5391159058 53.3933181763
-49.8877944946 27.5310363770 53.2031860352
-49.8647994995 27.5178546906 53.0113220215
-49.8362541199 27.5017795563 52.8184509277
-49.8076324463 27.4856643677 52.6255187988
-49.7848892212 27.4726123810 52.4335746765
-49.7728462219 27.4651336670 52.2434806824
-49.7731933594 27.4641132355 52.0555610657
-49.7838134766 27.4684429169 51.8694610596
-49.8001060486 27.4757289886 51.6843872070
-49.8173446655 27.4835071564 51.4995002747
-49.8322143555 27.4900531769 51.3142013550
-49.8430252075 27.4944820404 51.1281814575
-49.8491668701 27.4964790344 50.9413223267
-49.8507080078 27.4960803986 50.7536201477
-49.8482742310 27.4936065674 50.5651893616
-49.8431282043 27.4897232056 50.3762474060
-49.8374900818 27.4855823517 50.1871986389
-49.8345336914 27.4828376770 49.9986305237
-49.8374176025 27.4831371307 49.8111381531
-49.8475685120 27.4872245789 49.6250000000
-49.8638038635 27.4944801331 49.4400100708
-49.8832969666 27.5034351349 49.2556457520
-49.9034004211 27.5127067566 49.0714187622
-49.9226570129 27.5215396881 48.8870506287
-49.9406127930 27.5296916962 48.7024574280
-49.9571800232 27.5371227264 48.5176162720
-49.9723739624 27.5438346863 48.3325271606
-49.9863471985 27.5499153137 48.1472167969
-49.9995269775 27.5555801392 47.9617652893
-50.0125770569 27.5611763000 47.7763023376
-50.0262069702 27.5670757294 47.5909614563
-50.0409545898 27.5735607147 47.4058494568
-50.0571517944 27.5807991028 47.2210350037
-50.0750579834 27.5889263153 47.0365753174
-50.0948143005 27.5980186462 46.8524971008
-50.1159133911 27.6078109741 46.6687049866
-50.1365585327 27.6173686981 46.4848442078
-50.1537246704 27.6251125336 46.3003120422
-50.1641082764 27.6293220520 46.1144371033
-50.1655197144 27.6288528442 45.9267692566
-50.1579971313 27.6237316132 45.7372932434
-50.1440773010 27.6152725220 45.5465011597
-50.1276893616 27.6055278778 45.3551826477
-50.1124420166 27.5963783264 45.1640663147
-50.1004562378 27.5889263153 44.9735870361
-50.0923080444 27.5834770203 44.7838706970
-50.0877189636 27.5798816681 44.5948677063
-50.0863189697 27.5779495239 44.4065093994
-50.0880813599 27.5776634216 44.2187957764
-50.0932655334 27.5791606903 44.0317916870
-50.1019821167 27.5825004578 43.8455238342
-50.1138305664 27.5874729156 43.6599197388
-50.1279144287 27.5936107635 43.4747924805
-50.1432533264 27.6004028320 43.2899436951
-50.1593513489 27.6075878143 43.1052703857
-50.1764984131 27.6153221130 42.9208335876
-50.1956214905 27.6240882874 42.7368354797
-50.2176322937 27.6343574524 42.5534744263
-50.2425537109 27.6461429596 42.3707618713
-50.2691078186 27.6587810516 42.1884269714
-50.2952232361 27.6711902618 42.0060272217
-50.3189201355 27.6823425293 41.8231353760
-50.3387107849 27.6914539337 41.6394195557
-50.3535079956 27.6979656219 41.4546356201
-50.3627815247 27.7015953064 41.2686576843
-50.3667526245 27.7024612427 41.0815200806
-50.3662986755 27.7010231018 40.8934059143
-50.3627281189 27.6979560852 40.7045974731
-50.3577194214 27.6941413879 40.5154533386
-50.3529891968 27.6904735565 40.3263587952
-50.3495864868 27.6874961853 40.1375465393
-50.3475914001 27.6852512360 39.9490356445
-50.3465499878 27.6835060120 39.7607307434
-50.3460502625 27.6820430756 39.5725364685
-50.3459358215 27.6807765961 39.3844223022
-50.3462333679 27.6797294617 39.1963920593
-50.3470458984 27.6789493561 39.0084724426
-50.3483657837 27.6784324646 38.8206634521
-50.3499984741 27.6780796051 38.6329193115
-50.3515930176 27.6777076721 38.4451599121
-50.3527259827 27.6770954132 38.2572898865
-50.3530540466 27.6760616302 38.0692291260
-50.3524742126 27.6745567322 37.8809509277
-50.3512229919 27.6726989746 37.6925048828
-50.3497619629 27.6707324982 37.5040054321
-50.3485603333 27.6689014435 37.3155517578
-50.3479232788 27.6673660278 37.1272239685
-50.3479537964 27.6661758423 36.9390449524
-50.3487014771 27.6653633118 36.7510299683
-50.3503570557 27.6650218964 36.5632171631
-50.3532409668 27.6653194427 36.3756942749
-50.3576736450 27.6664257050 36.1885375977
-50.3637886047 27.6684093475 36.0017814636
