-15.8823194504 -33.5117759705 74.1998901367
-15.8836412430 -33.5095481873 74.0018081665
-15.8891191483 -33.5151100159 73.8044204712
-15.8993015289 -33.5294990540 73.6078567505
-15.9150791168 -33.5543823242 73.4122695923
-15.9369363785 -33.5906715393 73.2177886963
-15.9636859894 -33.6361389160 73.0242156982
-15.9919605255 -33.6844711304 72.8309631348
-16.0176391602 -33.7279319763 72.6373062134
-16.0382823944 -33.7619476318 72.4427795410
-16.0542316437 -33.7871589661 72.2474288940
-16.0674953461 -33.8073310852 72.0516052246
-16.0796890259 -33.8255004883 71.8556060791
-16.0909175873 -33.8418540955 71.6594314575
-16.1002426147 -33.8546371460 71.4629135132
-16.1069793701 -33.8625679016 71.2659072876
-16.1113834381 -33.8661193848 71.0684585571
-16.1143341064 -33.8669471741 70.8707199097
-16.1166648865 -33.8666114807 70.6728515625
-16.1188392639 -33.8659820557 70.4749374390
-16.1210269928 -33.8653717041 70.2770156860
-16.1232738495 -33.8648757935 70.0790863037
-16.1256160736 -33.8645591736 69.8811721802
-16.1280879974 -33.8644866943 69.6832656860
-16.1306934357 -33.8646621704 69.4853744507
-16.1333808899 -33.8649940491 69.2874908447
-16.1360454559 -33.8652801514 69.0895919800
-16.1385383606 -33.8652458191 68.8916397095
-16.1407012939 -33.8645896912 68.6936111450
-16.1424255371 -33.8631134033 68.4954757690
-16.1437187195 -33.8608245850 68.2972412109
-16.1447162628 -33.8579826355 68.0989227295
-16.1457004547 -33.8551101685 67.9005889893
-16.1470966339 -33.8530158997 67.7023239136
-16.1494026184 -33.8526229858 67.5042419434
-16.1529960632 -33.8546562195 67.3064270020
-16.1579380035 -33.8592109680 67.1088943481
-16.1638679504 -33.8656234741 66.9115753174
-16.1700916290 -33.8725852966 66.7143173218
-16.1757411957 -33.8784751892 66.5169296265
-16.1799793243 -33.8817100525 66.3192214966
-16.1821784973 -33.8811187744 66.1210479736
-16.1819591522 -33.8759880066 65.9223175049
-16.1791229248 -33.8659439087 65.7229690552
-16.1737518311 -33.8511428833 65.5230178833
-16.1666336060 -33.8330612183 65.3226318359
-16.1594600677 -33.8148765564 65.1221923828
-16.1541748047 -33.8002319336 64.9221572876
-16.1518383026 -33.7911224365 64.7227783203
-16.1521511078 -33.7869873047 64.5239944458
-16.1539611816 -33.7856597900 64.3255538940
-16.1560783386 -33.7849121094 64.1271667480
-16.1577281952 -33.7832832336 63.9286537170
-16.1585884094 -33.7801742554 63.7299385071
-16.1587409973 -33.7757377625 63.5310363770
-16.1585903168 -33.7707290649 63.3320388794
-16.1587982178 -33.7663917542 63.1331138611
-16.1602134705 -33.7643241882 62.9344635010
-16.1637916565 -33.7663154602 62.7363357544
-16.1704349518 -33.7740631104 62.5389595032
-16.1806068420 -33.7884330750 62.3424644470
-16.1937828064 -33.8084411621 62.1467361450
-16.2083549500 -33.8310775757 61.9513740540
-16.2224540710 -33.8528251648 61.7559127808
-16.2351379395 -33.8719139099 61.5601119995
-16.2468948364 -33.8892631531 61.3640861511
-16.2590484619 -33.9073524475 61.1681709290
-16.2726154327 -33.9281044006 60.9726409912
-16.2874050140 -33.9511451721 60.7774467468
-16.3019294739 -33.9736938477 60.5822029114
-16.3142967224 -33.9921913147 60.3864135742
-16.3233127594 -34.0043945313 60.1897468567
-16.3288421631 -34.0100479126 59.9921607971
-16.3314075470 -34.0101394653 59.7937736511
-16.3318080902 -34.0061607361 59.5947952271
-16.3311538696 -34.0002059937 59.3955154419
-16.3310203552 -33.9952239990 59.1963539124
-16.3332939148 -33.9947662354 58.9978294373
-16.3396415710 -34.0019569397 58.8004112244
-16.3509140015 -34.0183982849 58.6043472290
-16.3666839600 -34.0432853699 58.4095420837
-16.3850898743 -34.0731239319 58.2154922485
-16.4032630920 -34.1025276184 58.0214042664
-16.4185295105 -34.1264724731 57.8265342712
-16.4296550751 -34.1426429749 57.6305160522
-16.4370365143 -34.1517753601 57.4334487915
-16.4418182373 -34.1560287476 57.2356376648
-16.4449653625 -34.1572074890 57.0373573303
-16.4469642639 -34.1562309265 56.8387298584
-16.4479923248 -34.1534309387 56.6398124695
-16.4480800629 -34.1488647461 56.4406051636
-16.4470729828 -34.1422386169 56.2410621643
-16.4445323944 -34.1327323914 56.0410423279
-16.4399318695 -34.1193580627 55.8403968811
-16.4332580566 -34.1020889282 55.6391029358
-16.4255142212 -34.0828056335 55.4374542236
-16.4184741974 -34.0648422241 55.2359771729
-16.4138565063 -34.0514335632 55.0351867676
-16.4127750397 -34.0446662903 54.8354301453
-16.4157104492 -34.0454406738 54.6368675232
-16.4225883484 -34.0536270142 54.4394912720
-16.4327945709 -34.0680656433 54.2431297302
-16.4452857971 -34.0867958069 54.0474777222
-16.4587039948 -34.1072692871 53.8521270752
-16.4713420868 -34.1262779236 53.6565513611
-16.4812889099 -34.1402282715 53.4601516724
-16.4871234894 -34.1464538574 53.2624816895
-16.4888706207 -34.1450004578 53.0635261536
-16.4882068634 -34.1390151978 52.8638000488
-16.4875030518 -34.1329536438 52.6640357971
-16.4885082245 -34.1301002502 52.4647979736
-16.4916343689 -34.1312370300 52.2662162781
-16.4960479736 -34.1347923279 52.0680351257
-16.5004901886 -34.1383972168 51.8698577881
-16.5045356750 -34.1412582397 51.6715469360
-16.5092353821 -34.1453514099 51.4734382629
-16.5162830353 -34.1538543701 51.2760887146
-16.5264568329 -34.1682319641 51.0797576904
-16.5389709473 -34.1870079041 50.8842048645
-16.5522670746 -34.2072563171 50.6889266968
-16.5651855469 -34.2267951965 50.4935379028
-16.5773105621 -34.2448387146 50.2979011536
-16.5886363983 -34.2613830566 50.1020088196
-16.5992469788 -34.2765846252 49.9058914185
-16.6089687347 -34.2901153564 49.7094879150
-16.6169662476 -34.3004074097 49.5125045776
-16.6219406128 -34.3050155640 49.3145027161
-16.6236209869 -34.3034286499 49.1153717041
-16.6246299744 -34.3005828857 48.9160003662
-16.6301708221 -34.3062553406 48.7181663513
-16.6441917419 -34.3278656006 48.5232429504
-16.6653099060 -34.3628196716 48.3307952881
-16.6875209808 -34.3998298645 48.1387634277
-16.7050743103 -34.4280853271 47.9451522827
-16.7159366608 -34.4437637329 47.7492294312
-16.7209167480 -34.4483795166 47.5512504578
-16.7210597992 -34.4439048767 47.3515625000
-16.7166042328 -34.4307823181 47.1502265930
-16.7080631256 -34.4099845886 46.9474143982
-16.6977672577 -34.3858795166 46.7439308167
-16.6896533966 -34.3658790588 46.5411834717
-16.6869258881 -34.3559989929 46.3403244019
-16.6897411346 -34.3565483093 46.1414413452
-16.6953868866 -34.3624153137 45.9435691833
-16.7004280090 -34.3671455383 45.7454757690
-16.7026119232 -34.3665046692 45.5463333130
-16.7015247345 -34.3597106934 45.3459815979
-16.6986160278 -34.3494911194 45.1449394226
-16.6967220306 -34.3411788940 44.9442443848
-16.6986656189 -34.3400840759 44.7449455261
-16.7056484222 -34.3484611511 44.5475006104
-16.7167243958 -34.3645362854 44.3515853882
-16.7295112610 -34.3838310242 44.1563186646
-16.7413330078 -34.4013099670 43.9607009888
-16.7504615784 -34.4137306213 43.7640876770
-16.7571544647 -34.4215660095 43.5665588379
-16.7635383606 -34.4288177490 43.3689079285
-16.7722263336 -34.4404029846 43.1721343994
-16.7847328186 -34.4591751099 42.9768257141
-16.8006839752 -34.4844207764 42.7828521729
-16.8180198669 -34.5122718811 42.5894317627
-16.8341484070 -34.5378532410 42.3955764771
-16.8474102020 -34.5580444336 42.2006340027
-16.8578853607 -34.5729942322 42.0046272278
-16.8670272827 -34.5854415894 41.8081054688
-16.8765201569 -34.5985412598 41.6117286682
-16.8870582581 -34.6136131287 41.4157714844
-16.8978672028 -34.6291885376 41.2199249268
-16.9073925018 -34.6423530579 41.0235862732
-16.9145851135 -34.6511306763 40.8263244629
-16.9195842743 -34.6557807922 40.6281929016
-16.9233589172 -34.6581268311 40.4295616150
-16.9270038605 -34.6602325439 40.2308731079
-16.9313850403 -34.6637153625 40.0324707031
-16.9372787476 -34.6700515747 39.8346710205
-16.9456291199 -34.6810073853 39.6378631592
-16.9571666718 -34.6979560852 39.4423561096
-16.9712276459 -34.7196540833 39.2478904724
-16.9851932526 -34.7411766052 39.0534057617
-16.9961013794 -34.7569389343 38.8576812744
-17.0031814575 -34.7655067444 38.6603927612
-17.0085830688 -34.7709121704 38.4624061584
-17.0155696869 -34.7793006897 38.2650794983
-17.0261707306 -34.7944946289 38.0692520142
-17.0402107239 -34.8161544800 37.8748703003
-17.0560035706 -34.8411140442 37.6812400818
-17.0713577271 -34.8652458191 37.4874496460
-17.0838260651 -34.8839530945 37.2924652100
-17.0909118652 -34.8925285339 37.0952224731
-17.0911598206 -34.8882369995 36.8950767517
-17.0857429504 -34.8732910156 36.6925048828
-17.0790443420 -34.8559303284 36.4893531799
-17.0773696899 -34.8480186462 36.2883148193
-17.0859889984 -34.8594779968 36.0916709900
-17.1061897278 -34.8927383423 35.9000244141
-17.1346302032 -34.9415016174 35.7119750977
-17.1656513214 -34.9951210022 35.5251007080
-17.1947917938 -35.0452041626 35.3374748230
-17.2206611633 -35.0891342163 35.1484832764
-17.2437324524 -35.1277999878 34.9583129883
-17.2637805939 -35.1607742310 34.7668647766
-17.2792835236 -35.1851959229 34.5734481812
-17.2893695831 -35.1994209290 34.3776626587
-17.2954330444 -35.2060775757 34.1800994873
-17.3003063202 -35.2104949951 33.9820098877
-17.3063735962 -35.2171592712 33.7844429016
-17.3147583008 -35.2281799316 33.5879096985
-17.3257045746 -35.2440299988 33.3925285339
-17.3389587402 -35.2642211914 33.1982002258
-17.3536052704 -35.2870330811 33.0045127869
-17.3679828644 -35.3093414307 32.8107261658
-17.3803691864 -35.3278999329 32.6160583496
-17.3899726868 -35.3412170410 32.4201316833
-17.3972320557 -35.3501243591 32.2231445313
-17.4032402039 -35.3566818237 32.0255889893
-17.4090366364 -35.3628349304 31.8279285431
-17.4153728485 -35.3700027466 31.6305141449
-17.4228992462 -35.3794174194 31.4336471558
-17.4325389862 -35.3928031921 31.2377624512
-17.4456901550 -35.4128074646 31.0435180664
-17.4636993408 -35.4419517517 30.8515529633
-17.4864635468 -35.4800529480 30.6618423462
-17.5114173889 -35.5222778320 30.4731998444
-17.5343742371 -35.5607376099 30.2836685181
-17.5516090393 -35.5884323120 30.0914821625
-17.5611267090 -35.6015968323 29.8956718445
-17.5625381470 -35.5994949341 29.6960220337
-17.5568294525 -35.5839881897 29.4929714203
-17.5464210510 -35.5596313477 29.2876415253
-17.5345993042 -35.5326118469 29.0815906525
-17.5242652893 -35.5083885193 28.8761997223
-17.5170726776 -35.4900856018 28.6722755432
-17.5135402679 -35.4786720276 28.4700775146
-17.5135345459 -35.4738998413 28.2695579529
-17.5166778564 -35.4750556946 28.0705451965
-17.5227069855 -35.4816474915 27.8729286194
-17.5317993164 -35.4940071106 27.6768035889
-17.5445175171 -35.5131950378 27.4824581146
-17.5611476898 -35.5397491455 27.2900485992
-17.5807685852 -35.5719375610 27.0991344452
-17.6009769440 -35.6052322388 26.9085483551
-17.6189136505 -35.6342506409 26.7168712616
-17.6330127716 -35.6560440063 26.5233211517
-17.6441783905 -35.6723098755 26.3283309937
-17.6553096771 -35.6885108948 26.1333332062
-17.6693172455 -35.7101287842 25.9397869110
-17.6870098114 -35.7386932373 25.7481079102
-17.7067852020 -35.7711753845 25.5575046539
-17.7263622284 -35.8032875061 25.3668365479
-17.7445850372 -35.8328514099 25.1755199432
-17.7615222931 -35.8599929810 24.9835796356
-17.7772350311 -35.8848266602 24.7910442352
-17.7908763885 -35.9057617188 24.5974769592
-17.8010578156 -35.9201774597 24.4021568298
-17.8071460724 -35.9268836975 24.2047500610
-17.8103199005 -35.9281005859 24.0058422089
-17.8133373260 -35.9290199280 23.8068428040
-17.8189830780 -35.9348945618 23.6091899872
-17.8286018372 -35.9482498169 23.4135913849
-17.8421325684 -35.9689788818 23.2200336456
-17.8592224121 -35.9964103699 23.0283451080
-17.8796577454 -36.0301475525 22.8384304047
-17.9029941559 -36.0693511963 22.6500740051
-17.9286804199 -36.1129798889 22.4629917145
-17.9566001892 -36.1608238220 22.2771396637
-17.9866237640 -36.2126274109 22.0924510956
-18.0171947479 -36.2654685974 21.9081172943
-18.0450153351 -36.3131294250 21.7223892212
-18.0668258667 -36.3494644165 21.5335216522
-18.0814838409 -36.3723182678 21.3408813477
-18.0903091431 -36.3841896057 21.1451454163
-18.0957794189 -36.3897361755 20.9476165771
-18.1001491547 -36.3932075500 20.7494907379
-18.1049232483 -36.3974456787 20.5515785217
-18.1110534668 -36.4042320251 20.3543891907
-18.1193256378 -36.4150581360 20.1583595276
-18.1306209564 -36.4315834045 19.9639720917
-18.1458625793 -36.4555435181 19.7717437744
-18.1656417847 -36.4880599976 19.5820121765
-18.1895809174 -36.5284118652 19.3945903778
-18.2158927917 -36.5732383728 19.2085151672
-18.2417030334 -36.6171226501 19.0222167969
-18.2641639709 -36.6546897888 18.8341255188
-18.2816886902 -36.6829605103 18.6433506012
-18.2945556641 -36.7024459839 18.4500255585
-18.3045749664 -36.7165718079 18.2551364899
-18.3141822815 -36.7299194336 18.0600261688
-18.3255004883 -36.7464904785 17.8658771515
-18.3396282196 -36.7683601379 17.6733112335
-18.3561840057 -36.7948036194 17.4821243286
-18.3734397888 -36.8225708008 17.2913589478
-18.3893489838 -36.8478012085 17.0998611450
-18.4028415680 -36.8684730530 16.9070243835
-18.4143848419 -36.8854675293 16.7131004333
-18.4256114960 -36.9018745422 16.5190124512
-18.4386520386 -36.9216918945 16.3259639740
-18.4555110931 -36.9487113953 16.1351108551
-18.4773998260 -36.9852180481 15.9471578598
-18.5041179657 -37.0308265686 15.7620134354
-18.5339794159 -37.0823631287 15.5787267685
-18.5643444061 -37.1348495483 15.3957920074
-18.5923175812 -37.1828269958 15.2115411758
-18.6153659821 -37.2215232849 15.0245018005
-18.6318950653 -37.2479286194 14.8337259293
-18.6415328979 -37.2613410950 14.6389732361
-18.6448421478 -37.2628211975 14.4405412674
-18.6428642273 -37.2543373108 14.2390136719
-18.6372146606 -37.2389221191 14.0353126526
-18.6304550171 -37.2214164734 13.8309249878
-18.6258277893 -37.2079315186 13.6277542114
-18.6262340546 -37.2039337158 13.4275169373
-18.6332664490 -37.2124328613 13.2311754227
-18.6468200684 -37.2332267761 13.0386934280
-18.6653537750 -37.2634162903 12.8491859436
-18.6869812012 -37.2994384766 12.6615486145
-18.7109241486 -37.3398284912 12.4753332138
-18.7380352020 -37.3861923218 12.2910556793
-18.7695331573 -37.4408302307 12.1094617844
-18.8052749634 -37.5034751892 11.9304809570
-18.8434658051 -37.5707397461 11.7530536652
-18.8818454742 -37.6383590698 11.5758256912
-18.9184226990 -37.7025871277 11.3975944519
-18.9512386322 -37.7597236633 11.2171669006
-18.9786300659 -37.8066253662 11.0335159302
-19.0004367828 -37.8429985046 10.8465232849
-19.0185012817 -37.8723144531 10.6572895050
-19.0353870392 -37.8994064331 10.4673652649
-19.0524997711 -37.9269256592 10.2776069641
-19.0693264008 -37.9539108276 10.0877017975
-19.0842742920 -37.9773483276 9.8966665268
-19.0961742401 -37.9950408936 9.7037744522
-19.1051044464 -38.0071296692 9.5090589523
-19.1123085022 -38.0159645081 9.3132801056
-19.1198959351 -38.0255203247 9.1177406311
-19.1304798126 -38.0407295227 8.9240655899
-19.1462345123 -38.0656929016 8.7336263657
-19.1676902771 -38.1014137268 8.5467739105
-19.1935520172 -38.1454429626 8.3627195358
-19.2216777802 -38.1937484741 8.1801404953
-19.2497081757 -38.2418746948 7.9975585938
-19.2749080658 -38.2846603394 7.8132505417
-19.2946529388 -38.3171577454 7.6255450249
-19.3077354431 -38.3370857239 7.4336562157
-19.3148422241 -38.3457374573 7.2379918098
-19.3176498413 -38.3462829590 7.0395936966
-19.3181419373 -38.3424568176 6.8397078514
-19.3189277649 -38.3391838074 6.6399917603
-19.3231754303 -38.3424415588 6.4424738884
-19.3332996368 -38.3567848206 6.2487187386
-19.3495140076 -38.3826255798 6.0588879585
-19.3695564270 -38.4156913757 5.8715496063
-19.3899211884 -38.4493598938 5.6844539642
-19.4078464508 -38.4784278870 5.4958171844
-19.4225959778 -38.5015068054 5.3051514626
-19.4353027344 -38.5207290649 5.1131792068
-19.4479942322 -38.5399208069 4.9212131500
-19.4625511169 -38.5626373291 4.7304806709
-19.4797267914 -38.5902938843 4.5414810181
-19.4986972809 -38.6213417053 4.3536863327
-19.5177841187 -38.6526031494 4.1659994125
-19.5358619690 -38.6819686890 3.9776833057
-19.5529880524 -38.7095336914 3.7887697220
-19.5696315765 -38.7361907959 3.5995657444
-19.5856895447 -38.7617416382 3.4099998474
-19.6006145477 -38.7851600647 3.2197079659
-19.6144542694 -38.8065223694 3.0287153721
-19.6283493042 -38.8279953003 2.8377790451
-19.6438102722 -38.8524246216 2.6479079723
-19.6614322662 -38.8809280396 2.4595053196
-19.6803321838 -38.9118499756 2.2719895840
-19.6989402771 -38.9422187805 2.0843093395
-19.7164077759 -38.9704360962 1.8958947659
-19.7333412170 -38.9976463318 1.7071486712
-19.7512416840 -39.0266838074 1.5190833807
-19.7713184357 -39.0598297119 1.3325226307
-19.7937049866 -39.0973320007 1.1475646496
-19.8175277710 -39.1375503540 0.9636276960
-19.8414802551 -39.1780166626 0.7798258662
-19.8643989563 -39.2165298462 0.5953638554
-19.8858947754 -39.2523612976 0.4099729955
-19.9068851471 -39.2872352600 0.2242752314
-19.9294395447 -39.3250656128 0.0396907553
-25.7073974609 -27.2965564728 80.3552093506
-25.7159042358 -27.3016834259 80.1584930420
-25.7297668457 -27.3119697571 79.9622421265
-25.7457218170 -27.3242702484 79.7661819458
-25.7609386444 -27.3358592987 79.5700683594
-25.7739086151 -27.3452873230 79.3737640381
-25.7843189240 -27.3522472382 79.1772384644
-25.7926330566 -27.3571872711 78.9805221558
-25.7998561859 -27.3610801697 78.7837066650
-25.8071041107 -27.3649940491 78.5868911743
-25.8150100708 -27.3695430756 78.3901367188
-25.8235721588 -27.3747234344 78.1934356689
-25.8324890137 -27.3802433014 77.9967651367
-25.8416976929 -27.3860473633 77.8001251221
-25.8516883850 -27.3926048279 77.6035614014
-25.8630619049 -27.4004936218 77.4071350098
-25.8753604889 -27.4092731476 77.2108001709
-25.8862972260 -27.4167404175 77.0143356323
-25.8926181793 -27.4197635651 76.8174133301
-25.8919410706 -27.4160423279 76.6197814941
-25.8836727142 -27.4050083160 76.4213638306
-25.8686161041 -27.3874359131 76.2222213745
-25.8484210968 -27.3649101257 76.0225067139
-25.8253135681 -27.3395786285 75.8224334717
-25.8016338348 -27.3136940002 75.6222457886
-25.7793617249 -27.2891654968 75.4221496582
-25.7601737976 -27.2676067352 75.2223281860
-25.7455005646 -27.2503986359 75.0229492188
-25.7360477448 -27.2382183075 74.8240890503
-25.7314605713 -27.2307262421 74.6257247925
-25.7307872772 -27.2270030975 74.4277725220
-25.7332572937 -27.2263107300 74.2301483154
-25.7387828827 -27.2285614014 74.0328521729
-25.7481136322 -27.2344779968 73.8359832764
-25.7627563477 -27.2455139160 73.6397094727
-25.7843341827 -27.2632331848 73.4442520142
-25.8130855560 -27.2878627777 73.2496337891
-25.8465385437 -27.3170242310 73.0555953979
-25.8801021576 -27.3462944031 72.8616180420
-25.9098091125 -27.3718471527 72.6672210693
-25.9348011017 -27.3928565979 72.4723052979
-25.9572467804 -27.4114151001 72.2771072388
-25.9798889160 -27.4301605225 72.0819625854
-26.0035228729 -27.4498653412 71.8869552612
-26.0264549255 -27.4688911438 71.6918869019
-26.0462226868 -27.4848670959 71.4964599609
-26.0618629456 -27.4968681335 71.3005294800
-26.0744762421 -27.5059528351 71.1042404175
-26.0858116150 -27.5138034821 70.9077911377
-26.0964202881 -27.5209560394 70.7112579346
-26.1048412323 -27.5259971619 70.5144424438
-26.1079063416 -27.5258789063 70.3169403076
-26.1018543243 -27.5169715881 70.1182479858
-26.0839233398 -27.4966163635 69.9179840088
-26.0540790558 -27.4647769928 69.7161102295
-26.0160179138 -27.4250164032 69.5130844116
-25.9765453339 -27.3838958740 69.3097839355
-25.9431076050 -27.3485889435 69.1072158813
-25.9206752777 -27.3238887787 68.9060440063
-25.9098529816 -27.3103809357 68.7063903809
-25.9074211121 -27.3049583435 68.5078506470
-25.9087886810 -27.3031978607 68.3098068237
-25.9105548859 -27.3018207550 68.1118011475
-25.9118900299 -27.3000297546 67.9137268066
-25.9143962860 -27.2993659973 67.7158050537
-25.9205894470 -27.3022575378 67.5183868408
-25.9316215515 -27.3098144531 67.3216476440
-25.9459171295 -27.3205146790 67.1253738403
-25.9601554871 -27.3311614990 66.9291000366
-25.9719619751 -27.3394622803 66.7324905396
-25.9821205139 -27.3461761475 66.5356445313
-25.9946269989 -27.3551540375 66.3391342163
-26.0142269135 -27.3709697723 66.1436767578
-26.0427398682 -27.3953800201 65.9495544434
-26.0770969391 -27.4254226685 65.7563323975
-26.1110839844 -27.4551105499 65.5630950928
-26.1390609741 -27.4790039063 65.3690032959
-26.1582927704 -27.4944686890 65.1736221313
-26.1688899994 -27.5016059875 64.9769439697
-26.1726589203 -27.5021610260 64.7792282104
-26.1720886230 -27.4985313416 64.5808258057
-26.1695499420 -27.4930038452 64.3821105957
-26.1666164398 -27.4870948792 64.1833114624
-26.1636352539 -27.4811401367 63.9844856262
-26.1597213745 -27.4742851257 63.7854881287
-26.1531810760 -27.4648971558 63.5860519409
-26.1423721313 -27.4513931274 63.3859138489
-26.1269779205 -27.4334678650 63.1850013733
-26.1088809967 -27.4129333496 62.9836158752
-26.0917778015 -27.3933601379 62.7823410034
-26.0799007416 -27.3788223267 62.5818710327
-26.0772933960 -27.3732242584 62.3828773499
-26.0877513885 -27.3802261353 62.1860084534
-26.1139354706 -27.4023933411 61.9917373657
-26.1551895142 -27.4390945435 61.7999954224
-26.2060260773 -27.4850368500 61.6099090576
-26.2574424744 -27.5315399170 61.4199905396
-26.3006782532 -27.5701541901 61.2287673950
-26.3307685852 -27.5960903168 61.0353775024
-26.3476181030 -27.6092605591 60.8397674561
-26.3544292450 -27.6127471924 60.6424560547
-26.3551025391 -27.6103134155 60.4440803528
-26.3525028229 -27.6047229767 60.2451210022
-26.3481979370 -27.5974884033 60.0458488464
-26.3429965973 -27.5893878937 59.8463935852
-26.3375244141 -27.5810279846 59.6468658447
-26.3325653076 -27.5731582642 59.4474029541
-26.3291110992 -27.5667438507 59.2481842041
-26.3281841278 -27.5627651215 59.0493927002
-26.3304443359 -27.5618591309 58.8511505127
-26.3357868195 -27.5639266968 58.6534538269
-26.3430557251 -27.5678558350 58.4560966492
-26.3501911163 -27.5716514587 58.2587127686
-26.3552322388 -27.5734291077 58.0609436035
-26.3579978943 -27.5730113983 57.8627471924
-26.3605098724 -27.5723495483 57.6644935608
-26.3649177551 -27.5735149384 57.4665794373
-26.3710632324 -27.5763568878 57.2689819336
-26.3769569397 -27.5789566040 57.0713272095
-26.3811798096 -27.5799446106 56.8733558655
-26.3836765289 -27.5792655945 56.6750488281
-26.3846416473 -27.5771083832 56.4764404297
-26.3839988708 -27.5734024048 56.2775115967
-26.3822345734 -27.5686130524 56.0783500671
-26.3809852600 -27.5643196106 55.8792648315
-26.3821315765 -27.5623359680 55.6806297302
-26.3860721588 -27.5630512238 55.4825172424
-26.3910751343 -27.5647888184 55.2846031189
-26.3945293427 -27.5650329590 55.0863800049
-26.3945274353 -27.5619411469 54.8874664307
-26.3902130127 -27.5546894073 54.6876869202
-26.3815879822 -27.5432777405 54.4870262146
-26.3700313568 -27.5290374756 54.2857475281
-26.3589134216 -27.5152187347 54.0845222473
-26.3527927399 -27.5062217712 53.8842658997
-26.3554000854 -27.5056457520 53.6857452393
-26.3679981232 -27.5147113800 53.4892387390
-26.3890113831 -27.5318984985 53.2944488525
-26.4148025513 -27.5536937714 53.1006584167
-26.4414272308 -27.5762939453 52.9070663452
-26.4667549133 -27.5976448059 52.7132377625
-26.4913997650 -27.6183376312 52.5192985535
-26.5175514221 -27.6404838562 52.3256950378
-26.5464210510 -27.6652545929 52.1326942444
-26.5761928558 -27.6908931732 51.9399108887
-26.6023082733 -27.7130069733 51.7463989258
-26.6200714111 -27.7270584106 51.5511474609
-26.6271953583 -27.7308425903 51.3536491394
-26.6243591309 -27.7250156403 51.1540260315
-26.6142673492 -27.7121849060 50.9528236389
-26.6003952026 -27.6957054138 50.7507781982
-26.5855979919 -27.6783332825 50.5484924316
-26.5709667206 -27.6611175537 50.3461952209
-26.5561313629 -27.6437053680 50.1438140869
-26.5411033630 -27.6261081696 49.9413490295
-26.5276966095 -27.6100749969 49.7391967773
-26.5188217163 -27.5984153748 49.5380058289
-26.5165691376 -27.5931453705 49.3382415771
-26.5213108063 -27.5946292877 49.1400146484
-26.5324668884 -27.6023006439 48.9432106018
-26.5493659973 -27.6155204773 48.7476921082
-26.5711002350 -27.6334037781 48.5532760620
-26.5960674286 -27.6544094086 48.3596076965
-26.6224575043 -27.6767883301 48.1662902832
-26.6491031647 -27.6994171143 47.9730644226
-26.6753673553 -27.7216758728 47.7797775269
-26.7004013062 -27.7427482605 47.5862426758
-26.7233009338 -27.7617607117 47.3922424316
-26.7439785004 -27.7786273956 47.1977500916
-26.7628345490 -27.7937374115 47.0028610229
-26.7790184021 -27.8062667847 46.8073616028
-26.7896728516 -27.8134593964 46.6105880737
-26.7920608521 -27.8126697540 46.4118766785
-26.7866268158 -27.8043289185 46.2113151550
-26.7774620056 -27.7923851013 46.0098419189
-26.7697296143 -27.7818241119 45.8086814880
-26.7670421600 -27.7761325836 45.6086845398
-26.7708988190 -27.7767601013 45.4102363586
-26.7814617157 -27.7838630676 45.2133827209
-26.7980556488 -27.7967891693 45.0179786682
-26.8189792633 -27.8138942719 44.8236389160
-26.8413887024 -27.8324356079 44.6296730042
-26.8621120453 -27.8493499756 44.4353256226
-26.8790626526 -27.8626213074 44.2400741577
-26.8918895721 -27.8719100952 44.0438270569
-26.9013748169 -27.8779735565 43.8467674255
-26.9084243774 -27.8816833496 43.6491050720
-26.9134922028 -27.8834800720 43.4509468079
-26.9164924622 -27.8832798004 43.2522659302
-26.9168548584 -27.8805351257 43.0529212952
-26.9137058258 -27.8743953705 42.8526763916
-26.9064865112 -27.8643245697 42.6513900757
-26.8960323334 -27.8511314392 42.4492607117
-26.8851776123 -27.8375511169 42.2469940186
-26.8779869080 -27.8275070190 42.0456199646
-26.8783206940 -27.8247299194 41.8461341858
-26.8890647888 -27.8320083618 41.6492919922
-26.9115715027 -27.8506450653 41.4554710388
-26.9442539215 -27.8791084290 41.2642898560
-26.9817676544 -27.9122409821 41.0743980408
-27.0174083710 -27.9435653687 40.8840675354
-27.0475425720 -27.9695720673 40.6923561096
-27.0735340118 -27.9915752411 40.4995994568
-27.0993938446 -28.0134563446 40.3068351746
-27.1281890869 -28.0381679535 40.1148757935
-27.1604137421 -28.0661964417 39.9238510132
-27.1943950653 -28.0959224701 39.7333297729
-27.2272186279 -28.1245288849 39.5425491333
-27.2559585571 -28.1491928101 39.3507194519
-27.2794170380 -28.1687545776 39.1575164795
-27.2992534637 -28.1848163605 38.9633674622
-27.3190860748 -28.2008762360 38.7692337036
-27.3416137695 -28.2195415497 38.5758476257
-27.3657627106 -28.2397727966 38.3829269409
-27.3864707947 -28.2566795349 38.1890945435
-27.3981895447 -28.2649021149 37.9928321838
-27.3997535706 -28.2633152008 37.7938041687
-27.3961315155 -28.2567195892 37.5933380127
-27.3951854706 -28.2527084351 37.3935852051
-27.4025936127 -28.2567653656 37.1961212158
-27.4193038940 -28.2698116302 37.0012245178
-27.4426822662 -28.2892990112 36.8081932068
-27.4694824219 -28.3120918274 36.6161422729
-27.4981021881 -28.3366432190 36.4246292114
-27.5284252167 -28.3628444672 36.2336273193
-27.5599002838 -28.3901557922 36.0429840088
-27.5901107788 -28.4162464142 35.8520278931
-27.6151485443 -28.4373397827 35.6596412659
-27.6311721802 -28.4497261047 35.4647254944
-27.6361656189 -28.4514522552 35.2666816711
-27.6311016083 -28.4434604645 35.0657577515
-27.6197052002 -28.4293518066 34.8629951477
-27.6065330505 -28.4135265350 34.6596870422
-27.5946235657 -28.3989181519 34.4566993713
-27.5844326019 -28.3859729767 34.2541732788
-27.5745811462 -28.3733539581 34.0517120361
-27.5635375977 -28.3595809937 33.8488693237
-27.5512619019 -28.3446178436 33.6456298828
-27.5398807526 -28.3305187225 33.4426155090
-27.5329055786 -28.3206768036 33.2408599854
-27.5335731506 -28.3182201385 33.0413208008
-27.5436477661 -28.3248558044 32.8445472717
-27.5631713867 -28.3406200409 32.6505737305
-27.5907573700 -28.3641777039 32.4590110779
-27.6241893768 -28.3933849335 32.2692260742
-27.6607627869 -28.4256286621 32.0804176331
-27.6972236633 -28.4577655792 31.8916282654
-27.7299861908 -28.4863300323 31.7017745972
-27.7562160492 -28.5085773468 31.5099906921
-27.7749252319 -28.5235595703 31.3159637451
-27.7871932983 -28.5323143005 31.1200008392
-27.7956161499 -28.5373554230 30.9228725433
-27.8036231995 -28.5419921875 30.7256164551
-27.8147010803 -28.5495986938 30.5292968750
-27.8313541412 -28.5625953674 30.3346920013
-27.8539943695 -28.5813751221 30.1419410706
-27.8807773590 -28.6041622162 29.9504928589
-27.9090061188 -28.6283473969 29.7595233917
-27.9368114471 -28.6521244049 29.5684547424
-27.9632377625 -28.6745681763 29.3769912720
-27.9872703552 -28.6946983337 29.1848106384
-28.0081291199 -28.7117614746 28.9916629791
-28.0268478394 -28.7267551422 28.7978630066
-28.0461826324 -28.7423439026 28.6042728424
-28.0678234100 -28.7601623535 28.4114303589
-28.0901565552 -28.7786521912 28.2188282013
-28.1095981598 -28.7943477631 28.0253314972
-28.1237392426 -28.8049163818 27.8301639557
-28.1325683594 -28.8103504181 27.6333103180
-28.1371669769 -28.8116970062 27.4351024628
-28.1381874084 -28.8095817566 27.2357368469
-28.1359825134 -28.8043498993 27.0353183746
-28.1320819855 -28.7974758148 26.8343334198
-28.1300735474 -28.7924327850 26.6339359283
-28.1342735291 -28.7933902740 26.4355335236
-28.1468563080 -28.8024539948 26.2398490906
-28.1662826538 -28.8181343079 26.0464057922
-28.1887741089 -28.8367786407 25.8539829254
-28.2113647461 -28.8555202484 25.6616153717
-28.2338180542 -28.8741283417 25.4692268372
-28.2582893372 -28.8946857452 25.2775249481
-28.2872161865 -28.9195556641 25.0873260498
-28.3205299377 -28.9486656189 24.8986167908
-28.3541088104 -28.9780330658 24.7100391388
-28.3813762665 -29.0012989044 24.5193996429
-28.3970661163 -29.0133686066 24.3249206543
-28.3999328613 -29.0130405426 24.1261539459
-28.3928909302 -29.0031280518 23.9240474701
-28.3814964294 -28.9890079498 23.7204437256
-28.3718681335 -28.9765930176 23.5174007416
-28.3686714172 -28.9703998566 23.3165035248
-28.3739223480 -28.9723739624 23.1184520721
-28.3867549896 -28.9816799164 22.9229755402
-28.4040565491 -28.9953079224 22.7290306091
-28.4219360352 -29.0094966888 22.5352973938
-28.4375438690 -29.0214881897 22.3408012390
-28.4499721527 -29.0304050446 22.1452217102
-28.4598579407 -29.0368614197 21.9487705231
-28.4685783386 -29.0421924591 21.7519187927
-28.4778919220 -29.0480957031 21.5552692413
-28.4899482727 -29.0566539764 21.3595752716
-28.5072460175 -29.0702800751 21.1657123566
-28.5320072174 -29.0911254883 20.9744701385
-28.5646858215 -29.1196289063 20.7860317230
-28.6024742126 -29.1530761719 20.5994281769
-28.6397953033 -29.1860713959 20.4127101898
-28.6713104248 -29.2134513855 20.2239933014
-28.6949291229 -29.2331943512 20.0325202942
-28.7121543884 -29.2467536926 19.8388061523
-28.7262477875 -29.2572841644 19.6439914703
-28.7406215668 -29.2680854797 19.4492855072
-28.7584323883 -29.2822113037 19.2558174133
-28.7824478149 -29.3023395538 19.0645885468
-28.8142852783 -29.3300361633 18.8761959076
-28.8535289764 -29.3648967743 18.6905078888
-28.8977565765 -29.4045791626 18.5066738129
-28.9435863495 -29.4458141327 18.3234825134
-28.9878597260 -29.4855442047 18.1397914886
-29.0282936096 -29.5215587616 17.9547653198
-29.0636768341 -29.5526905060 17.7679557800
-29.0937194824 -29.5786552429 17.5792388916
-29.1183261871 -29.5993595123 17.3885669708
-29.1369094849 -29.6142387390 17.1957130432
-29.1490306854 -29.6228656769 17.0004940033
-29.1559410095 -29.6264514923 16.8033580780
-29.1608219147 -29.6280727386 16.6054687500
-29.1669788361 -29.6309280396 16.4080429077
-29.1759414673 -29.6364994049 16.2116546631
-29.1874141693 -29.6444988251 16.0162010193
-29.2007503510 -29.6543006897 15.8214464188
-29.2165012360 -29.6664390564 15.6276044846
-29.2369632721 -29.6831359863 15.4355411530
-29.2650222778 -29.7071857452 15.2463560104
-29.3016242981 -29.7395038605 15.0604257584
-29.3438358307 -29.7772464752 14.8766632080
-29.3860130310 -29.8149604797 14.6929473877
-29.4236297607 -29.8482608795 14.5075578690
-29.4560699463 -29.8765544891 14.3202495575
-29.4858112335 -29.9022350311 14.1319522858
-29.5156612396 -29.9280223846 13.9437332153
-29.5473861694 -29.9556236267 13.7562694550
-29.5822105408 -29.9862270355 13.5700368881
-29.6211032867 -30.0207653046 13.3854150772
-29.6638488770 -30.0590362549 13.2023353577
-29.7082786560 -30.0989360809 13.0199661255
-29.7508239746 -30.1370143890 12.8369283676
-29.7880477905 -30.1699409485 12.6518821716
-29.8180332184 -30.1958656311 12.4640665054
-29.8409442902 -30.2149410248 12.2735252380
-29.8588924408 -30.2292156219 12.0810670853
-29.8754577637 -30.2421531677 11.8880815506
-29.8947925568 -30.2577686310 11.6961975098
-29.9202079773 -30.2792720795 11.5067281723
-29.9528713226 -30.3077888489 11.3201484680
-29.9915237427 -30.3421039581 11.1359815598
-30.0335292816 -30.3796653748 10.9531984329
-30.0762767792 -30.4179477692 10.7707681656
-30.1178379059 -30.4550819397 10.5879249573
-30.1567974091 -30.4896984100 10.4041004181
-30.1922855377 -30.5209560394 10.2189388275
-30.2244873047 -30.5490341187 10.0325069427
-30.2545356750 -30.5750255585 9.8452501297
-30.2831840515 -30.5996646881 9.6574659348
-30.3096160889 -30.6221561432 9.4688215256
-30.3318557739 -30.6405906677 9.2785110474
-30.3483543396 -30.6534671783 9.0858945847
-30.3590221405 -30.6607017517 8.8909215927
-30.3650379181 -30.6634311676 8.6940555573
-30.3681507111 -30.6633472443 8.4959974289
-30.3702487946 -30.6622829437 8.2975149155
-30.3732852936 -30.6621284485 8.0994033813
-30.3792572021 -30.6648120880 7.9024863243
-30.3900718689 -30.6721878052 7.7075595856
-30.4071540833 -30.6856307983 7.5152215958
-30.4308166504 -30.7054443359 7.3256206512
-30.4599952698 -30.7306003571 7.1383323669
-30.4926528931 -30.7591247559 6.9525251389
-30.5263767242 -30.7886829376 6.7672038078
-30.5586528778 -30.8168392181 6.5813217163
-30.5873527527 -30.8415336609 6.3939857483
-30.6116847992 -30.8619995117 6.2048540115
-30.6327171326 -30.8792705536 6.0143637657
-30.6528530121 -30.8956737518 5.8235173225
-30.6746482849 -30.9136829376 5.6333899498
-30.6996669769 -30.9348144531 5.4446477890
-30.7281608582 -30.9593143463 5.2574062347
-30.7599792480 -30.9870319366 5.0716094971
-30.7956371307 -31.0184669495 4.8874864578
-30.8358764648 -31.0543403625 4.7053627968
-30.8798980713 -31.0938796997 4.5249114037
-30.9244384766 -31.1339187622 4.3447432518
-30.9648666382 -31.1699790955 4.1628756523
-30.9975051880 -31.1984958649 3.9777154922
-31.0214061737 -31.2185497284 3.7888336182
-31.0386505127 -31.2321586609 3.5971057415
-31.0532665253 -31.2432212830 3.4042549133
-31.0694751740 -31.2558269501 3.2121040821
-31.0901699066 -31.2727775574 3.0219137669
-31.1163692474 -31.2950592041 2.8341400623
-31.1478233337 -31.3224334717 2.6486885548
-31.1837768555 -31.3541641235 2.4652423859
-31.2231025696 -31.3891620636 2.2833206654
-31.2642993927 -31.4259738922 2.1022748947
-31.3058013916 -31.4630813599 1.9214195013
-31.3458919525 -31.4988250732 1.7400010824
-31.3821926117 -31.5308971405 1.5569647551
-31.4118957520 -31.5565776825 1.3710582256
-31.4331760406 -31.5741004944 1.1814552546
-31.4465065002 -31.5839233398 0.9883430004
-31.4548473358 -31.5889110565 0.7930164337
-31.4628143311 -31.5935382843 0.5975229144
-31.4753570557 -31.6025981903 0.4040713906
-31.4964847565 -31.6199741364 0.2144693434
-31.5287895203 -31.6481781006 0.0299032424
-32.8885116577 -18.0210552216 80.5528411865
-32.9003143311 -18.0243358612 80.3562850952
-32.9227409363 -18.0327816010 80.1604537964
-32.9546394348 -18.0458316803 79.9652862549
-32.9937400818 -18.0623836517 79.7706527710
-33.0346221924 -18.0798034668 79.5761795044
-33.0685768127 -18.0938549042 79.3812637329
-33.0873184204 -18.1005096436 79.1852874756
-33.0879592896 -18.0983657837 78.9880218506
-33.0749435425 -18.0895824432 78.7897415161
-33.0573806763 -18.0785903931 78.5910949707
-33.0446014404 -18.0699234009 78.3927612305
-33.0433731079 -18.0668678284 78.1952667236
-33.0571365356 -18.0711040497 77.9988861084
-33.0857887268 -18.0825786591 77.8036499023
-33.1255912781 -18.0994739532 77.6092910767
-33.1700096130 -18.1186141968 77.4153366089
-33.2112884521 -18.1362304688 77.2211837769
-33.2424278259 -18.1489143372 77.0262680054
-33.2597389221 -18.1548767090 76.8302841187
-33.2643089294 -18.1546421051 76.6332778931
-33.2599601746 -18.1500740051 76.4355392456
-33.2494926453 -18.1425285339 76.2372741699
-33.2337455750 -18.1324138641 76.0385513306
-33.2136154175 -18.1201686859 75.8394165039
-33.1908912659 -18.1066627502 75.6400299072
-33.1669845581 -18.0925788879 75.4404907227
-33.1426506042 -18.0782871246 75.2408752441
-33.1195144653 -18.0645771027 75.0413055420
-33.1007843018 -18.0530109406 74.8420791626
-33.0898666382 -18.0452423096 74.6434860229
-33.0883750916 -18.0420589447 74.4457015991
-33.0951652527 -18.0429019928 74.2486343384
-33.1067123413 -18.0460567474 74.0519866943
-33.1189270020 -18.0495395660 73.8554000854
-33.1295394897 -18.0522422791 73.6586685181
-33.1389770508 -18.0543708801 73.4618301392
-33.1491432190 -18.0568580627 73.2650604248
-33.1617774963 -18.0605430603 73.0685195923
-33.1778793335 -18.0659160614 72.8722991943
-33.1982002258 -18.0733394623 72.6764907837
-33.2236137390 -18.0832405090 72.4811859131
-33.2546501160 -18.0958786011 72.2864303589
-33.2904548645 -18.1108360291 72.0921707153
-33.3284378052 -18.1268539429 71.8981552124
-33.3651542664 -18.1422538757 71.7040481567
-33.3974113464 -18.1554870605 71.5095443726
-33.4225234985 -18.1652450562 71.3143615723
-33.4382400513 -18.1704311371 71.1182556152
-33.4432945251 -18.1704311371 70.9210891724
-33.4381484985 -18.1654663086 70.7228698730
-33.4254150391 -18.1568126678 70.5238571167
-33.4095306396 -18.1466255188 70.3244934082
-33.3953170776 -18.1372489929 70.1252593994
-33.3861846924 -18.1303462982 69.9265289307
-33.3835639954 -18.1266098022 69.7284469604
-33.3877830505 -18.1262016296 69.5310668945
-33.3987274170 -18.1290645599 69.3343963623
-33.4151840210 -18.1346130371 69.1383132935
-33.4340782166 -18.1413421631 68.9425048828
-33.4512863159 -18.1472568512 68.7465209961
-33.4636955261 -18.1508312225 68.5500259399
-33.4702987671 -18.1515846252 68.3528976440
-33.4715576172 -18.1497344971 68.1551666260
-33.4680061340 -18.1455440521 67.9568939209
-33.4595603943 -18.1389732361 67.7580490112
-33.4460792542 -18.1299514771 67.5586090088
-33.4287147522 -18.1190357208 67.3587036133
-33.4106140137 -18.1077651978 67.1586685181
-33.3959236145 -18.0981521606 66.9589843750
-33.3878326416 -18.0917530060 66.7600250244
-33.3878021240 -18.0892734528 66.5619812012
-33.3963623047 -18.0909748077 66.3649215698
-33.4138031006 -18.0970001221 66.1689071655
-33.4393081665 -18.1069507599 65.9738464355
-33.4694175720 -18.1191387177 65.7793579102
-33.4982261658 -18.1306991577 65.5847473145
-33.5201683044 -18.1389141083 65.3893280029
-33.5331573486 -18.1427726746 65.1928405762
-33.5391616821 -18.1432304382 64.9955139160
-33.5417709351 -18.1420364380 64.7977600098
-33.5436553955 -18.1404895782 64.5999069214
-33.5459709167 -18.1391525269 64.4020919800
-33.5491447449 -18.1382331848 64.2043762207
-33.5533943176 -18.1378364563 64.0067825317
-33.5586624146 -18.1379356384 63.8093109131
-33.5644721985 -18.1382999420 63.6118965149
-33.5700492859 -18.1385478973 63.4144477844
-33.5745811462 -18.1382904053 63.2168579102
-33.5774612427 -18.1372261047 63.0190467834
-33.5783538818 -18.1351947784 62.8209686279
-33.5771713257 -18.1321544647 62.6226043701
-33.5740585327 -18.1281719208 62.4239730835
-33.5693817139 -18.1234283447 62.2251167297
-33.5637893677 -18.1182403564 62.0261192322
-33.5581359863 -18.1130218506 61.8270874023
-33.5533638000 -18.1082286835 61.6281547546
-33.5502471924 -18.1042442322 61.4294204712
-33.5492172241 -18.1012763977 61.2309455872
-33.5502815247 -18.0993270874 61.0327415466
-33.5531349182 -18.0982475281 60.8347702026
-33.5573921204 -18.0978546143 60.6369743347
-33.5628013611 -18.0980205536 60.4393348694
-33.5693321228 -18.0987319946 60.2418403625
-33.5771293640 -18.1000614166 60.0445137024
-33.5862464905 -18.1020317078 59.8473701477
-33.5961875916 -18.1044044495 59.6503410339
-33.6054420471 -18.1064434052 59.4532127380
-33.6112442017 -18.1067981720 59.2555923462
-33.6100997925 -18.1037731171 59.0569725037
-33.5996437073 -18.0962123871 58.8570022583
-33.5811882019 -18.0847549438 58.6558532715
-33.5605888367 -18.0722522736 58.4543495178
-33.5453643799 -18.0623664856 58.2535820007
-33.5400314331 -18.0572986603 58.0542297363
-33.5441741943 -18.0568447113 57.8562393188
-33.5544815063 -18.0593948364 57.6591567993
-33.5678443909 -18.0634326935 57.4625205994
-33.5827293396 -18.0682125092 57.2661209106
-33.5989646912 -18.0736484528 57.0699234009
-33.6164932251 -18.0797176361 56.8739318848
-33.6340522766 -18.0857982635 56.6779556274
-33.6493072510 -18.0907592773 56.4816360474
-33.6604385376 -18.0937099457 56.2846946716
-33.6668930054 -18.0943832397 56.0870399475
-33.6682128906 -18.0925559998 55.8885841370
-33.6625366211 -18.0873184204 55.6890373230
-33.6473236084 -18.0774345398 55.4879875183
-33.6224403381 -18.0628395081 55.2853927612
-33.5924339294 -18.0457477570 55.0819435120
-33.5647583008 -18.0297927856 54.8788032532
-33.5455856323 -18.0179767609 54.6769561768
-33.5380477905 -18.0118312836 54.4769134521
-33.5440444946 -18.0122795105 54.2790031433
-33.5653228760 -18.0201721191 54.0835342407
-33.6010169983 -18.0350914001 53.8904037476
-33.6452980042 -18.0541915894 53.6986923218
-33.6899223328 -18.0734615326 53.5070838928
-33.7299766541 -18.0905056000 53.3147773743
-33.7659988403 -18.1055850983 53.1218528748
-33.8004264832 -18.1198863983 52.9286994934
-33.8332405090 -18.1334037781 52.7353172302
-33.8616523743 -18.1447753906 52.5412330627
-33.8828239441 -18.1526203156 52.3459701538
-33.8960227966 -18.1565780640 52.1493873596
-33.9026603699 -18.1573410034 51.9517059326
-33.9054565430 -18.1562309265 51.7533721924
-33.9078369141 -18.1549167633 51.5549583435
-33.9135856628 -18.1552448273 51.3571052551
-33.9260520935 -18.1588459015 51.1603889465
-33.9466743469 -18.1664237976 50.9650764465
-33.9734954834 -18.1770210266 50.7708435059
-34.0011444092 -18.1880245209 50.5767784119
-34.0231666565 -18.1962833405 50.3817558289
-34.0351867676 -18.1996688843 50.1850128174
-34.0366744995 -18.1979217529 49.9864234924
-34.0307998657 -18.1925830841 49.7865295410
-34.0233840942 -18.1864948273 49.5863418579
-34.0210876465 -18.1828994751 49.3870353699
-34.0284156799 -18.1839962006 49.1894187927
-34.0451774597 -18.1896934509 48.9934844971
-34.0670852661 -18.1978988647 48.7984809875
-34.0890502930 -18.2061290741 48.6035003662
-34.1079292297 -18.2128601074 48.4079780579
-34.1228828430 -18.2176742554 48.2117576599
-34.1342811584 -18.2207565308 48.0148963928
-34.1428298950 -18.2224483490 47.8175163269
-34.1491889954 -18.2230739594 47.6197280884
-34.1540069580 -18.2229480743 47.4216537476
-34.1582565308 -18.2225437164 47.2234649658
-34.1637611389 -18.2227516174 47.0255012512
-34.1733245850 -18.2249393463 46.8282814026
-34.1894493103 -18.2303256989 46.6322898865
-34.2119522095 -18.2388210297 46.4375038147
-34.2371635437 -18.2486381531 46.2432441711
-34.2606697083 -18.2576236725 46.0486793518
-34.2808227539 -18.2649745941 45.8534965515
-34.2987480164 -18.2712383270 45.6579055786
-34.3156166077 -18.2769889832 45.4621238708
-34.3313064575 -18.2821636200 45.2661209106
-34.3452606201 -18.2864933014 45.0697937012
-34.3574562073 -18.2899627686 44.8731307983
-34.3683319092 -18.2927913666 44.6762123108
-34.3784675598 -18.2952575684 44.4791526794
-34.3884124756 -18.2976322174 44.2820510864
-34.3987388611 -18.3001918793 44.0850257874
-34.4102592468 -18.3033332825 43.8882369995
-34.4241638184 -18.3076381683 43.6919174194
-34.4415359497 -18.3136329651 43.4962882996
-34.4621353149 -18.3212051392 43.3013153076
-34.4837036133 -18.3292465210 43.1065444946
-34.5030555725 -18.3362083435 42.9113464355
-34.5183029175 -18.3411674500 42.7153358459
-34.5299110413 -18.3443527222 42.5186004639
-34.5398979187 -18.3467483521 42.3215370178
-34.5503387451 -18.3493633270 42.1245613098
-34.5623359680 -18.3527374268 41.9279060364
-34.5757102966 -18.3567848206 41.7315330505
-34.5892677307 -18.3609218597 41.5352020264
-34.6016120911 -18.3644657135 41.3386230469
-34.6122512817 -18.3671798706 41.1416969299
-34.6222152710 -18.3695621490 40.9446296692
-34.6333198547 -18.3725013733 40.7477989197
-34.6462669373 -18.3763408661 40.5513534546
-34.6594505310 -18.3802947998 40.3549613953
-34.6702804565 -18.3830986023 40.1580772400
-34.6779441833 -18.3843593597 39.9605255127
-34.6842575073 -18.3849639893 39.7626838684
-34.6916084290 -18.3860721588 39.5650558472
-34.7009658813 -18.3881587982 39.3678512573
-34.7123794556 -18.3912487030 39.1710815430
-34.7265548706 -18.3956871033 38.9749107361
-34.7450447083 -18.4022293091 38.7796669006
-34.7689399719 -18.4114112854 38.5856056213
-34.7980041504 -18.4231128693 38.3926773071
-34.8309478760 -18.4367103577 38.2006225586
-34.8659858704 -18.4513282776 38.0090522766
-34.9008674622 -18.4658718109 37.8174819946
-34.9334983826 -18.4793148041 37.6254539490
-34.9632530212 -18.4913578033 37.4328231812
-34.9912109375 -18.5025234222 37.2398223877
-35.0182571411 -18.5132427216 37.0466461182
-35.0433006287 -18.5229873657 36.8530464172
-35.0639381409 -18.5305805206 36.6584854126
-35.0784797668 -18.5352001190 36.4625740051
-35.0867271423 -18.5367469788 36.2652587891
-35.0887260437 -18.5352458954 36.0665321350
-35.0840339661 -18.5304775238 35.8662834167
-35.0736999512 -18.5229549408 35.6647377014
-35.0630569458 -18.5152816772 35.4630889893
-35.0600700378 -18.5113449097 35.2631568909
-35.0686836243 -18.5130710602 35.0658569336
-35.0847663879 -18.5184402466 34.8702659607
-35.0999298096 -18.5233631134 34.6744689941
-35.1079559326 -18.5248012543 34.4770355225
-35.1063995361 -18.5215625763 34.2773780823
-35.0945472717 -18.5132980347 34.0753173828
-35.0728034973 -18.5002040863 33.8709182739
-35.0442123413 -18.4837665558 33.6648788452
-35.0147361755 -18.4668960571 33.4585723877
-34.9906349182 -18.4526519775 33.2534751892
-34.9756813049 -18.4428691864 33.0504837036
-34.9709777832 -18.4380893707 32.8498764038
-34.9769248962 -18.4385128021 32.6517715454
-34.9944190979 -18.4445705414 32.4564056396
-35.0241317749 -18.4565944672 32.2639617920
-35.0652389526 -18.4741821289 32.0742721558
-35.1155204773 -18.4962482452 31.8868217468
-35.1727600098 -18.5217132568 31.7011051178
-35.2352828979 -18.5497570038 31.5167255402
-35.3001976013 -18.5789699554 31.3330001831
-35.3618621826 -18.6065979004 31.1485633850
-35.4141273499 -18.6296367645 30.9619102478
-35.4550018311 -18.6471157074 30.7725353241
-35.4883728027 -18.6609306335 30.5813674927
-35.5205726624 -18.6741733551 30.3899421692
-35.5553550720 -18.6886768341 30.1991844177
-35.5916061401 -18.7039012909 30.0088253021
-35.6249618530 -18.7177085876 29.8177833557
-35.6511383057 -18.7280120850 29.6249904633
-35.6680068970 -18.7337703705 29.4299030304
-35.6756057739 -18.7350025177 29.2325077057
-35.6758384705 -18.7326354980 29.0332641602
-35.6731681824 -18.7288513184 28.8332767487
-35.6746368408 -18.7270908356 28.6343116760
-35.6873741150 -18.7308311462 28.4381809235
-35.7148742676 -18.7417831421 28.2457923889
-35.7553558350 -18.7590732574 28.0567264557
-35.8029403687 -18.7798328400 27.8695087433
-35.8500480652 -18.8003616333 27.6822242737
-35.8900260925 -18.8174095154 27.4931640625
-35.9195365906 -18.8293437958 27.3014564514
-35.9396362305 -18.8366813660 27.1073532104
-35.9548034668 -18.8416118622 26.9119892120
-35.9704551697 -18.8467769623 26.7167568207
-35.9901046753 -18.8538951874 26.5225696564
-36.0139083862 -18.8630447388 26.3294773102
-36.0398178101 -18.8732204437 26.1369533539
-36.0665397644 -18.8837966919 25.9446620941
-36.0954132080 -18.8954219818 25.7529602051
-36.1291732788 -18.9094352722 25.5625705719
-36.1686058044 -18.9262199402 25.3737106323
-36.2104454041 -18.9441814423 25.1855278015
-36.2490768433 -18.9605751038 24.9965381622
-36.2804908752 -18.9734439850 24.8056678772
-36.3043708801 -18.9826316833 24.6128177643
-36.3228530884 -18.9891834259 24.4185428619
-36.3383293152 -18.9942665100 24.2234725952
-36.3523864746 -18.9986553192 24.0280265808
-36.3657302856 -19.0026969910 23.8323936462
-36.3783607483 -19.0063896179 23.6365718842
-36.3899955750 -19.0095958710 23.4404830933
-36.4006881714 -19.0123424530 23.2441406250
-36.4114685059 -19.0151309967 23.0478210449
-36.4245338440 -19.0190353394 22.8521251678
-36.4426536560 -19.0254096985 22.6578178406
-36.4677391052 -19.0351886749 22.4654331207
