-40.1917114258 13.7235736847 62.8360328674
-40.3876419067 13.7865724564 62.6595001221
-40.5846710205 13.8499345779 62.4833221436
-40.7817306519 13.9133090973 62.3073844910
-40.9767189026 13.9760017395 62.1314659119
-41.1623344421 14.0356063843 61.9547576904
-41.3296470642 14.0891742706 61.7762718201
-41.4734764099 14.1349983215 61.5953941345
-41.5938987732 14.1731033325 61.4120941162
-41.6931610107 14.2042293549 61.2265739441
-41.7715950012 14.2284879684 61.0388336182
-41.8266830444 14.2450437546 60.8485488892
-41.8553504944 14.2528858185 60.6553268433
-41.8559875488 14.2514820099 60.4589309692
-41.8288269043 14.2409076691 60.2593383789
-41.7764778137 14.2220239639 60.0567932129
-41.7047958374 14.1967620850 59.8519325256
-41.6222801208 14.1679248810 59.6457023621
-41.5390281677 14.1388435364 59.4392738342
-41.4671173096 14.1135044098 59.2340698242
-41.4206809998 14.0965662003 59.0317802429
-41.4131202698 14.0924549103 58.8340568542
-41.4519386292 14.1036443710 58.6418685913
-41.5334167480 14.1289091110 58.4548568726
-41.6422767639 14.1632089615 58.2712516785
-41.7603912354 14.2005624771 58.0889053345
-41.8783874512 14.2378787994 57.9066810608
-41.9975051880 14.2755651474 57.7247352600
-42.1203460693 14.3144817352 57.5433921814
-42.2424163818 14.3531455994 57.3620986938
-42.3530769348 14.3880453110 57.1795234680
-42.4428329468 14.4160490036 56.9944534302
-42.5090560913 14.4362878799 56.8065223694
-42.5557708740 14.4500904083 56.6161880493
-42.5890426636 14.4594573975 56.4241943359
-42.6123046875 14.4655208588 56.2309494019
-42.6249465942 14.4680805206 56.0363578796
-42.6244163513 14.4662933350 55.8400650024
-42.6098861694 14.4598846436 55.6419448853
-42.5842399597 14.4498100281 55.4423484802
-42.5529556274 14.4378719330 55.2419624329
-42.5214195251 14.4258518219 55.0415000916
-42.4935112000 14.4150276184 54.8414649963
-42.4720001221 14.4063148499 54.6422348022
-42.4599723816 14.4007320404 54.4442367554
-42.4624519348 14.3999366760 54.2481651306
-42.4873924255 14.4065532684 54.0551185608
-42.5441627502 14.4236764908 53.8664093018
-42.6383590698 14.4531536102 53.6828651428
-42.7660255432 14.4936780930 53.5040130615
-42.9134292603 14.5407180786 53.3280296326
-43.0638694763 14.5887613297 53.1526412964
-43.2055168152 14.6339054108 52.9762115479
-43.3338050842 14.6746406555 52.7980918884
-43.4478874207 14.7106866837 52.6181335449
-43.5458602905 14.7414178848 52.4360427856
-43.6239814758 14.7655963898 52.2512588501
-43.6799507141 14.7824630737 52.0634193420
-43.7153663635 14.7925462723 51.8727073669
-43.7346496582 14.7973031998 51.6797218323
-43.7425689697 14.7983093262 51.4851112366
-43.7432403564 14.7969217300 51.2894554138
-43.7399406433 14.7942247391 51.0932159424
-43.7339210510 14.7906284332 50.8965606689
-43.7229995728 14.7854146957 50.6991729736
-43.7033424377 14.7773141861 50.5004768372
-43.6745033264 14.7661848068 50.3003883362
-43.6422462463 14.7539262772 50.0997467041
-43.6151466370 14.7433691025 49.8998184204
-43.5993118286 14.7365303040 49.7015342712
-43.5972938538 14.7342538834 49.5052986145
-43.6112213135 14.7372426987 49.3114547729
-43.6458930969 14.7470808029 49.1207618713
-43.7081260681 14.7660198212 48.9342956543
-43.8016662598 14.7952957153 48.7526855469
-43.9218864441 14.8333826065 48.5752754211
-44.0569839478 14.8763837814 48.4003028870
-44.1954994202 14.9205141068 48.2260208130
-44.3304901123 14.9634819031 48.0513572693
-44.4554290771 15.0031328201 47.8752861023
-44.5600738525 15.0360822678 47.6961860657
-44.6345520020 15.0590715408 47.5124664307
-44.6768074036 15.0714187622 47.3237380981
-44.6938209534 15.0754327774 47.1310577393
-44.6964721680 15.0747022629 46.9361000061
-44.6945037842 15.0724477768 46.7403984070
-44.6950225830 15.0710134506 46.5450820923
-44.7022743225 15.0718021393 46.3508415222
-44.7162780762 15.0748224258 46.1576919556
-44.7313156128 15.0781822205 45.9647178650
-44.7368011475 15.0783872604 45.7701950073
-44.7211685181 15.0716190338 45.5722160339
-44.6776351929 15.0556344986 45.3696212769
-44.6102714539 15.0317792892 45.1630325317
-44.5361404419 15.0056877136 44.9552307129
-44.4789085388 14.9851760864 44.7501296997
-44.4572143555 14.9764032364 44.5508728027
-44.4772109985 14.9814004898 44.3585624695
-44.5332412720 14.9982995987 44.1723213196
-44.6137695313 15.0232934952 43.9902763367
-44.7091941833 15.0532073975 43.8108444214
-44.8167114258 15.0871162415 43.6335792542
-44.9368019104 15.1251811981 43.4585914612
-45.0641746521 15.1656522751 43.2849884033
-45.1846694946 15.2038526535 43.1103591919
-45.2833290100 15.2348403931 42.9321022034
-45.3545951843 15.2567787170 42.7492179871
-45.4036407471 15.2713785172 42.5625534058
-45.4384956360 15.2812900543 42.3734664917
-45.4611968994 15.2871866226 42.1822853088
-45.4657859802 15.2870979309 41.9879379272
-45.4444732666 15.2784528732 41.7890205383
-45.3946647644 15.2603940964 41.5850219727
-45.3188629150 15.2337446213 41.3763313293
-45.2208442688 15.1997547150 41.1635780334
-45.1073646545 15.1606550217 40.9479179382
-44.9934196472 15.1214008331 40.7320251465
-44.9001960754 15.0889911652 40.5197067261
-44.8456611633 15.0693655014 40.3142547607
-44.8388404846 15.0655040741 40.1173820496
-44.8802528381 15.0775804520 39.9292755127
-44.9614448547 15.1028013229 39.7484779358
-45.0641746521 15.1351404190 39.5717239380
-45.1677932739 15.1677732468 39.3952560425
-45.2625083923 15.1974658966 39.2172660828
-45.3539505005 15.2260789871 39.0387802124
-45.4527015686 15.2571067810 38.8617553711
-45.5600891113 15.2909898758 38.6864624023
-45.6649856567 15.3240518570 38.5108299255
-45.7532806396 15.3516263962 38.3321990967
-45.8189468384 15.3717241287 38.1494102478
-45.8663291931 15.3857803345 37.9632339478
-45.9033355713 15.3964080811 37.7751426697
-45.9321098328 15.4043149948 37.5855178833
-45.9444694519 15.4067964554 37.3927879333
-45.9265060425 15.3992567062 37.1942481995
-45.8702888489 15.3790721893 36.9883232117
-45.7832069397 15.3486862183 36.7763595581
-45.6857147217 15.3148574829 36.5622634888
-45.5984725952 15.2844171524 36.3500213623
-45.5301437378 15.2602272034 36.1413421631
-45.4755859375 15.2405872345 35.9352569580
-45.4245300293 15.2221040726 35.7297782898
-45.3732147217 15.2035350800 35.5241775513
-45.3306694031 15.1878652573 35.3202285767
-45.3151855469 15.1811389923 35.1215744019
-45.3436508179 15.1889419556 34.9316253662
-45.4210586548 15.2129240036 34.7514533997
-45.5362625122 15.2494010925 34.5789299011
-45.6656150818 15.2905569077 34.4093780518
-45.7820968628 15.3274593353 34.2373962402
-45.8652153015 15.3533325195 34.0588150024
-45.9079856873 15.3658666611 33.8721580505
-45.9181747437 15.3676309586 33.6789283752
-45.9117851257 15.3639125824 33.4823265076
-45.9025268555 15.3592472076 33.2851181030
-45.8956527710 15.3553695679 33.0883750916
-45.8894462585 15.3517122269 32.8917503357
-45.8799400330 15.3469638824 32.6944274902
-45.8640632629 15.3401088715 32.4957656860
-45.8403625488 15.3306665421 32.2954483032
-45.8083572388 15.3184795380 32.0933609009
-45.7670783997 15.3032236099 31.8892860413
-45.7136764526 15.2839593887 31.6826076508
-45.6440467834 15.2593297958 31.4724407196
-45.5566215515 15.2288131714 31.2584228516
-45.4575843811 15.1944570541 31.0418300629
-45.3634834290 15.1617317200 30.8261470795
-45.2981109619 15.1385049820 30.6164436340
-45.2833633423 15.1320180893 30.4174480438
-45.3274688721 15.1449937820 30.2310161591
-45.4188156128 15.1735925674 30.0547714233
-45.5331382751 15.2097911835 29.8835792542
-45.6504402161 15.2469758987 29.7131671906
-45.7660675049 15.2836074829 29.5425319672
-45.8851051331 15.3213691711 29.3727741241
-46.0079689026 15.3603963852 29.2039928436
-46.1246070862 15.3973655701 29.0339984894
-46.2221870422 15.4280338287 28.8599662781
-46.2941894531 15.4502429962 28.6804294586
-46.3406944275 15.4640188217 28.4953536987
-46.3644065857 15.4702568054 28.3052902222
-46.3707046509 15.4707355499 28.1113891602
-46.3692703247 15.4686565399 27.9157657623
-46.3701705933 15.4673490524 27.7206497192
-46.3754920959 15.4675035477 27.5265140533
-46.3753166199 15.4658412933 27.3311424255
-46.3533401489 15.4569664001 27.1308593750
-46.2982826233 15.4371490479 26.9230785370
-46.2114486694 15.4068183899 26.7080307007
-46.1048164368 15.3699388504 26.4883708954
-45.9924926758 15.3311738968 26.2672710419
-45.8838729858 15.2936344147 26.0468635559
-45.7856254578 15.2595243454 25.8286781311
-45.7091445923 15.2326135635 25.6153488159
-45.6695976257 15.2179212570 25.4104061127
-45.6719322205 15.2170839310 25.2150592804
-45.7012557983 15.2251758575 25.0259475708
-45.7323875427 15.2338666916 24.8372840881
-45.7467803955 15.2370185852 24.6447563171
-45.7390556335 15.2328538895 24.4470806122
-45.7136840820 15.2228498459 24.2452583313
-45.6801719666 15.2101526260 24.0414848328
-45.6483268738 15.1980047226 23.8380489349
-45.6234359741 15.1881589890 23.6362037659
-45.6046752930 15.1803407669 23.4357643127
-45.5878257751 15.1731548309 23.2357444763
-45.5682792664 15.1650762558 23.0350532532
-45.5411529541 15.1544895172 22.8325176239
-45.4995155334 15.1390991211 22.6264724731
-45.4351196289 15.1161794662 22.4149112701
-45.3443336487 15.0845251083 22.1969165802
-45.2352142334 15.0468034744 21.9743824005
-45.1271171570 15.0094194412 21.7519435883
-45.0404243469 14.9791164398 21.5345382690
-44.9859237671 14.9594650269 21.3248291016
-44.9641113281 14.9506320953 21.1229953766
-44.9726600647 14.9518451691 20.9285335541
-45.0121612549 14.9633035660 20.7416458130
-45.0847549438 14.9857139587 20.5629196167
-45.1887626648 15.0185222626 20.3920021057
-45.3148956299 15.0586528778 20.2266635895
-45.4465789795 15.1006221771 20.0628490448
-45.5646018982 15.1380710602 19.8958072662
-45.6546249390 15.1662549973 19.7219467163
-45.7126426697 15.1838455200 19.5402183533
-45.7437591553 15.1925325394 19.3518314362
-45.7561569214 15.1950244904 19.1587867737
-45.7560653687 15.1933822632 18.9626121521
-45.7461318970 15.1884832382 18.7639484406
-45.7254753113 15.1800327301 18.5625572205
-45.6900215149 15.1666851044 18.3573856354
-45.6341857910 15.1465902328 18.1469860077
-45.5548591614 15.1187181473 17.9305324554
-45.4556541443 15.0842638016 17.7088985443
-45.3473777771 15.0468072891 17.4848098755
-45.2432518005 15.0107221603 17.2616348267
-45.1521492004 14.9789476395 17.0416622162
-45.0764846802 14.9522829056 16.8255367279
-45.0179939270 14.9313030243 16.6137390137
-44.9863510132 14.9192104340 16.4088039398
-45.0000343323 14.9221248627 16.2155780792
-45.0748100281 14.9452629089 16.0382461548
-45.2075767517 14.9876022339 15.8761196136
-45.3715667725 15.0402812958 15.7223138809
-45.5311622620 15.0915060043 15.5675573349
-45.6632919312 15.1336383820 15.4057807922
-45.7637062073 15.1652727127 15.2358150482
-45.8359565735 15.1875820160 15.0585336685
-45.8804512024 15.2007007599 14.8739919662
-45.8942718506 15.2036647797 14.6813621521
-45.8766975403 15.1962327957 14.4803943634
-45.8330726624 15.1801729202 14.2724514008
-45.7747688293 15.1592540741 14.0605211258
-45.7150802612 15.1378746033 13.8481349945
-45.6633567810 15.1191329956 13.6378002167
-45.6224098206 15.1039590836 13.4302883148
-45.5905723572 15.0918016434 13.2251710892
-45.5651359558 15.0817632675 13.0217332840
-45.5436096191 15.0730180740 12.8193111420
-45.5225219727 15.0644197464 12.6169710159
-45.4953536987 15.0538063049 12.4129381180
-45.4529457092 15.0381460190 12.2047014236
-45.3903045654 15.0157833099 11.9908647537
-45.3170051575 14.9898900986 11.7740154266
-45.2580986023 14.9687633514 11.5610179901
-45.2374305725 14.9603013992 11.3584680557
-45.2582244873 14.9655714035 11.1673297882
-45.3029594421 14.9787693024 10.9828338623
-45.3504486084 14.9928817749 10.7991495132
-45.3891525269 15.0040826797 10.6130723953
-45.4168930054 15.0116539001 10.4239797592
-45.4347000122 15.0159349442 10.2321386337
-45.4432182312 15.0171394348 10.0377092361
-45.4426269531 15.0153264999 9.8407249451
-45.4337120056 15.0107555389 9.6413879395
-45.4189376831 15.0042438507 9.4403772354
-45.4032745361 14.9974384308 9.2390880585
-45.3941268921 14.9927911758 9.0396127701
-45.3989067078 14.9927568436 8.8440675735
-45.4203529358 14.9982423782 8.6532592773
-45.4535369873 15.0076179504 8.4658164978
-45.4890975952 15.0177803040 8.2790832520
-45.5206871033 15.0266275406 8.0912504196
-45.5498657227 15.0346765518 7.9027543068
-45.5849151611 15.0446710587 7.7159752846
-45.6358146667 15.0599174500 7.5338010788
-45.7083625793 15.0823354721 7.3579373360
-45.7998695374 15.1110353470 7.1876473427
-45.8989067078 15.1422328949 7.0196509361
-45.9896202087 15.1706714630 6.8493494987
-46.0578079224 15.1916484833 6.6725878716
-46.0952377319 15.2024354935 6.4869174957
-46.1011276245 15.2027711868 6.2920494080
-46.0821228027 15.1948585510 6.0898733139
-46.0507392883 15.1828441620 5.8840217590
-46.0205268860 15.1712169647 5.6784644127
-45.9996986389 15.1626987457 5.4756302834
-45.9885902405 15.1574029922 5.2756376266
-45.9826011658 15.1538009644 5.0771374702
-45.9765739441 15.1501874924 4.8786101341
-45.9670982361 15.1454305649 4.6790361404
-45.9527015686 15.1390419006 4.4779701233
-45.9334526062 15.1310462952 4.2754240036
-45.9106101990 15.1218595505 4.0717649460
-45.8862304688 15.1121625900 3.8676049709
-45.8627319336 15.1027565002 3.6636674404
-45.8423080444 15.0943708420 3.4606187344
-45.8265113831 15.0875177383 3.2589333057
-45.8161087036 15.0824508667 3.0588514805
-45.8112373352 15.0792179108 2.8604264259
-45.8117790222 15.0777797699 2.6636333466
-45.8177986145 15.0781564713 2.4685015678
-45.8300285339 15.0805912018 2.2752647400
-45.8497962952 15.0855255127 2.0843439102
-45.8777465820 15.0931711197 1.8959497213
-45.9120254517 15.1029138565 1.7095272541
-45.9481658936 15.1132755280 1.5237137079
-45.9809722900 15.1225318909 1.3369057178
-46.0059051514 15.1291780472 1.1476925611
-46.0191917419 15.1319637299 0.9548891783
-46.0181808472 15.1300106049 0.7576488256
-46.0018043518 15.1229648590 0.5556114912
-45.9699096680 15.1107730865 0.3486984968
-45.9224090576 15.0934066772 0.1368524283
11.9839353561 44.6600379944 91.8726730347
11.9858980179 44.6673812866 91.6806640625
11.9890775681 44.6786041260 91.4887542725
11.9941253662 44.6957778931 91.2970123291
12.0018825531 44.7215843201 91.1055297852
12.0132532120 44.7589073181 90.9143981934
12.0286540985 44.8090705872 90.7236785889
12.0469446182 44.8684387207 90.5332946777
12.0647687912 44.9263191223 90.3429336548
12.0774183273 44.9677124023 90.1521301270
12.0807485580 44.9794120789 89.9604263306
12.0726499557 44.9547004700 89.7675476074
12.0533819199 44.8943977356 89.5734634399
12.0251884460 44.8056640625 89.3783264160
11.9918146133 44.7004203796 89.1825027466
11.9581985474 44.5944099426 88.9865036011
11.9296445847 44.5045280457 88.7909393311
11.9096336365 44.4418640137 88.5962371826
11.8978595734 44.4054412842 88.4024047852
11.8909120560 44.3844032288 88.2091064453
11.8848571777 44.3662033081 88.0158767700
11.8770561218 44.3424415588 87.8223953247
11.8669853210 44.3114509583 87.6285934448
11.8573083878 44.2817115784 87.4347915649
11.8542394638 44.2730293274 87.2418060303
11.8646078110 44.3071556091 87.0505752563
11.8904066086 44.3904418945 86.8614501953
11.9261226654 44.5053253174 86.6737823486
11.9625492096 44.6224708557 86.4863586426
11.9937734604 44.7230415344 86.2983398438
12.0209016800 44.8105583191 86.1098632813
12.0501823425 44.9049377441 85.9218063354
12.0877389908 45.0256805420 85.7350769043
12.1340656281 45.1743621826 85.5498046875
12.1818017960 45.3275337219 85.3649291992
12.2190952301 45.4474334717 85.1786499023
12.2359819412 45.5023193359 84.9893569946
12.2286958694 45.4801979065 84.7963180542
12.2005805969 45.3917198181 84.5999374390
12.1612339020 45.2674598694 84.4016113281
12.1235046387 45.1483535767 84.2033843994
12.0978012085 45.0675582886 84.0069885254
12.0868730545 45.0338325500 83.8129501343
12.0851612091 45.0294723511 83.6204223633
12.0828733444 45.0232772827 83.4277801514
12.0714921951 44.9881095886 83.2335433960
12.0478315353 44.9138259888 83.0370941162
12.0152816772 44.8112258911 82.8389587402
11.9816627502 44.7052154541 82.6404876709
11.9545707703 44.6200027466 82.4430618286
11.9375705719 44.5669403076 82.2473754883
11.9301404953 44.5443649292 82.0533905029
11.9305601120 44.5467948914 81.8608474731
11.9385328293 44.5732879639 81.6697387695
11.9552850723 44.6277465820 81.4803466797
11.9812240601 44.7114715576 81.2928009033
12.0133895874 44.8150329590 81.1065826416
12.0456418991 44.9188690186 80.9205169678
12.0719966888 45.0039138794 80.7333831787
12.0898990631 45.0620346069 80.5446472168
12.1004295349 45.0966720581 80.3544616699
12.1059951782 45.1154937744 80.1632843018
12.1080064774 45.1229934692 79.9713821411
12.1057653427 45.1169471741 79.7785873413
12.0966033936 45.0888519287 79.5842971802
12.0776367188 45.0295295715 79.3878479004
12.0489101410 44.9391098022 79.1891937256
12.0152997971 44.8331413269 78.9893417358
11.9843349457 44.7355957031 78.7899322510
11.9614353180 44.6637458801 78.5921859741
11.9473705292 44.6200332642 78.3963394165
11.9397544861 44.5968704224 78.2018890381
11.9359121323 44.5857238770 78.0082702637
11.9343585968 44.5818710327 77.8151626587
11.9347972870 44.5843620300 77.6225051880
11.9377088547 44.5947303772 77.4304275513
11.9441518784 44.6163482666 77.2391967773
11.9555740356 44.6538276672 77.0491867065
11.9731235504 44.7108230591 76.8607025146
11.9964647293 44.7862663269 76.6736984253
12.0232839584 44.8727874756 76.4876403809
12.0506591797 44.9610786438 76.3018264771
12.0775957108 45.0479736328 76.1160125732
12.1063594818 45.1406860352 75.9307632446
12.1408443451 45.2516250610 75.7470855713
12.1825008392 45.3854026794 75.5653915405
12.2269258499 45.5279998779 75.3845748901
12.2646045685 45.6491050720 75.2021789551
12.2858161926 45.7177619934 75.0156021118
12.2859096527 45.7191505432 74.8235015869
12.2675704956 45.6618270874 74.6264648438
12.2393388748 45.5729942322 74.4266815186
12.2112503052 45.4846191406 74.2268066406
12.1900978088 45.4183349609 74.0287170410
12.1777296066 45.3800354004 73.8329467773
12.1730594635 45.3662528992 73.6392593384
12.1751108170 45.3738784790 73.4474258423
12.1844959259 45.4048652649 73.2576599121
12.2028341293 45.4643669128 73.0704727173
12.2309942245 45.5551490784 72.8861694336
12.2675724030 45.6727485657 72.7043991089
12.3090276718 45.8058776855 72.5241851807
12.3515548706 45.9424209595 72.3444595337
12.3930835724 46.0757789612 72.1646041870
12.4335203171 46.2056617737 71.9845962524
12.4730520248 46.3326606750 71.8044738770
12.5103540421 46.4525566101 71.6238403320
12.5425786972 46.5562820435 71.4418258667
12.5670852661 46.6354217529 71.2575759888
12.5831527710 46.6876869202 71.0708389282
12.5921535492 46.7174377441 70.8819732666
12.5962686539 46.7316322327 70.6916198730
12.5970277786 46.7351417542 70.5002288818
12.5945062637 46.7281990051 70.3077926636
12.5873060226 46.7063522339 70.1138610840
12.5733585358 46.6630210876 69.9177398682
12.5515213013 46.5945625305 69.7190093994
12.5231752396 46.5053710938 69.5180816650
12.4924745560 46.4086837769 69.3162612915
12.4649105072 46.3219871521 69.1153335571
12.4452466965 46.2604484558 68.9168853760
12.4363803864 46.2332992554 68.7219390869
12.4395370483 46.2444458008 68.5309600830
12.4545011520 46.2931938171 68.3439636230
12.4790887833 46.3725929260 68.1602706909
12.5094556808 46.4703903198 67.9786453247
12.5424337387 46.5765075684 67.7980346680
12.5773878098 46.6889152527 67.6182327271
12.6148490906 46.8093109131 67.4394378662
12.6538858414 46.9347190857 67.2613449097
12.6917772293 47.0564842224 67.0830001831
12.7258043289 47.1659355164 66.9034500122
12.7543315887 47.2578735352 66.7220764160
12.7762689590 47.3288269043 66.5384750366
12.7903146744 47.3746452332 66.3521118164
12.7950105667 47.3906860352 66.1624298096
12.7891139984 47.3729934692 65.9689178467
12.7719869614 47.3195381165 65.7712631226
12.7444019318 47.2327766418 65.5696945190
12.7096338272 47.1231384277 65.3653488159
12.6735820770 47.0094146729 65.1603775024
12.6429805756 46.9130516052 64.9572830200
12.6225767136 46.8491630554 64.7578811646
12.6134586334 46.8212165833 64.5626602173
12.6137189865 46.8231353760 64.3709487915
12.6206350327 46.8462448120 64.1817779541
12.6326513290 46.8856010437 63.9945907593
12.6498985291 46.9416160583 63.8094673157
12.6732835770 47.0171737671 63.6267890930
12.7031774521 47.1134567261 63.4467430115
12.7384986877 47.2270278931 63.2689476013
12.7766857147 47.3497200012 63.0924186707
12.8147668839 47.4720764160 62.9160041809
12.8508100510 47.5879402161 62.7389297485
12.8843202591 47.6957397461 62.5609817505
12.9152936935 47.7954597473 62.3821449280
12.9432506561 47.8855705261 62.2022094727
12.9674272537 47.9636421204 62.0208473206
12.9875469208 48.0287971497 61.8379211426
13.0038928986 48.0819358826 61.6535148621
13.0163078308 48.1225547791 61.4675521851
13.0229825974 48.1448936462 61.2792472839
13.0201721191 48.1370315552 61.0870018005
13.0037765503 48.0859031677 60.8890419006
12.9727478027 47.9881820679 60.6848373413
12.9319562912 47.8593788147 60.4763565063
12.8909921646 47.7300224304 60.2676277161
12.8590764999 47.6294822693 60.0625953674
12.8409929276 47.5729827881 59.8633689880
12.8374891281 47.5629158020 59.6703567505
12.8478555679 47.5970115662 59.4833488464
12.8705968857 47.6705131531 59.3017768860
12.9021730423 47.7721443176 59.1241607666
12.9371376038 47.8845672607 58.9481658936
12.9709959030 47.9934654236 58.7718200684
13.0027618408 48.0956993103 58.5946807861
13.0343341827 48.1973190308 58.4175796509
13.0679702759 48.3055038452 58.2415275574
13.1047086716 48.4235687256 58.0670127869
13.1439781189 48.5496940613 57.8937873840
13.1831617355 48.6755409241 57.7206802368
13.2178630829 48.7871208191 57.5456848145
13.2440147400 48.8714752197 57.3668975830
13.2601499557 48.9239311218 57.1835937500
13.2674064636 48.9481201172 56.9962387085
13.2675743103 48.9497375488 56.8056068420
13.2617950439 48.9324188232 56.6121864319
13.2515172958 48.9007759094 56.4166259766
13.2400255203 48.8652687073 56.2204399109
13.2312574387 48.8384361267 56.0254936218
13.2261037827 48.8231086731 55.8322219849
13.2211351395 48.8083763123 55.6390113831
13.2119331360 48.7801589966 55.4437408447
13.1963710785 48.7316932678 55.2453575134
13.1743774414 48.6627502441 55.0437889099
13.1472482681 48.5774574280 54.8396224976
13.1192073822 48.4892616272 54.6348915100
13.0985651016 48.4246215820 54.4336700439
13.0951862335 48.4149475098 54.2408561707
13.1151924133 48.4797325134 54.0595893860
13.1566276550 48.6127433777 53.8890495300
13.2096662521 48.7826957703 53.7244644165
13.2625617981 48.9521942139 53.5600204468
13.3089923859 49.1011047363 53.3925399780
13.3498096466 49.2321434021 53.2224121094
13.3879756927 49.3547439575 53.0511016846
13.4231719971 49.4678802490 52.8784332275
13.4518623352 49.5603103638 52.7025756836
13.4711322784 49.6227416992 52.5219955444
13.4807195663 49.6543464661 52.3364982605
13.4812984467 49.6572723389 52.1463699341
13.4718894958 49.6283950806 51.9510421753
13.4499359131 49.5595817566 51.7491264343
13.4146099091 49.4481964111 51.5401039124
13.3700628281 49.3074531555 51.3260765076
13.3243684769 49.1630592346 51.1112480164
13.2843475342 49.0367279053 50.8992347717
13.2517890930 48.9341545105 50.6910171509
13.2249851227 48.8499031067 50.4857330322
13.2028532028 48.7805290222 50.2828369141
13.1866149902 48.7299156189 50.0830154419
13.1784381866 48.7049674988 49.8874778748
13.1799917221 48.7109985352 49.6971817017
13.1922855377 48.7512245178 49.5127372742
13.2155809402 48.8264732361 49.3343582153
13.2488231659 48.9333877563 49.1615257263
13.2895708084 49.0641937256 48.9929656982
13.3347434998 49.2090911865 48.8270187378
13.3810138702 49.3574790955 48.6618652344
13.4243955612 49.4966697693 48.4952850342
13.4603796005 49.6123085022 48.3247413635
13.4855995178 49.6936798096 48.1482963562
13.4997596741 49.7398414612 47.9657173157
13.5056676865 49.7597274780 47.7785186768
13.5070705414 49.7652778625 47.5887832642
13.5059776306 49.7628822327 47.3976211548
13.5013484955 49.7492256165 47.2044296265
13.4900617599 49.7143783569 47.0073852539
13.4696111679 49.6503562927 46.8050079346
13.4405584335 49.5589523315 46.5975646973
13.4065666199 49.4518241882 46.3871231079
13.3721923828 49.3434791565 46.1763114929
13.3411769867 49.2458267212 45.9673156738
13.3168106079 49.1693458557 45.7620811462
13.3025369644 49.1249923706 45.5626831055
13.3007745743 49.1204643250 45.3706092834
13.3109951019 49.1540870667 45.1856307983
13.3295927048 49.2143745422 45.0056686401
13.3522882462 49.2877082825 44.8282318115
13.3770608902 49.3676490784 44.6521224976
13.4046611786 49.4565925598 44.4778137207
13.4360437393 49.5575752258 44.3058967590
13.4692916870 49.6644973755 44.1352310181
13.4994726181 49.7616539001 43.9628372192
13.5218801498 49.8340644836 43.7858238220
13.5354776382 49.8784294128 43.6035041809
13.5431156158 49.9038276672 43.4175796509
13.5486907959 49.9226570129 43.2304077148
13.5542430878 49.9414138794 43.0432395935
13.5592613220 49.9584693909 42.8557548523
13.5619783401 49.9682006836 42.6668548584
13.5613336563 49.9672279358 42.4758567810
13.5582580566 49.9585227966 42.2833290100
13.5551834106 49.9498176575 42.0907821655
13.5540151596 49.9471817017 41.8994216919
13.5547084808 49.9504699707 41.7092247009
13.5558862686 49.9553031921 41.5193290710
13.5563936234 49.9580001831 41.3290100098
13.5559196472 49.9575729370 41.1380538940
13.5545072556 49.9541587830 40.9464912415
13.5518589020 49.9468116760 40.7541198730
13.5471096039 49.9327774048 40.5603752136
13.5393753052 49.9092407227 40.3646736145
13.5289058685 49.8769989014 40.1671524048
13.5177469254 49.8425636292 39.9691352844
13.5087785721 49.8151016235 39.7724952698
13.5038137436 49.8003807068 39.5784339905
13.5026960373 49.7979049683 39.3868789673
13.5040493011 49.8032989502 39.1969451904
13.5065631866 49.8123855591 39.0077781677
13.5097417831 49.8235855103 38.8190536499
13.5140552521 49.8383979797 38.6310958862
13.5207166672 49.8606834412 38.4447174072
13.5308599472 49.8940544128 38.2606925964
13.5442447662 49.9377403259 38.0788879395
13.5585355759 49.9843101501 37.8977432251
13.5702228546 50.0225906372 37.7148857117
13.5762672424 50.0429115295 37.5282440186
13.5746059418 50.0387077332 37.3363723755
13.5634565353 50.0043029785 37.1380081177
13.5413131714 49.9349098206 36.9320564270
13.5085840225 49.8318214417 36.7187309265
13.4694471359 49.7083396912 36.5008430481
13.4317131042 49.5893249512 36.2837524414
13.4041137695 49.5025672913 36.0735282898
13.3930931091 49.4685783386 35.8747177124
13.4013576508 49.4959678650 35.6893081665
13.4276924133 49.5808677673 35.5165710449
13.4666233063 49.7058601379 35.3527793884
13.5092992783 49.8427696228 35.1917839050
13.5472230911 49.9645538330 35.0276031494
13.5764045715 50.0585136414 34.8573837280
13.5980052948 50.1283454895 34.6818962097
13.6156320572 50.1855316162 34.5036582947
13.6325283051 50.2403869629 34.3249702454
13.6501903534 50.2976837158 34.1468925476
13.6677560806 50.3546714783 33.9688148499
13.6820497513 50.4012451172 33.7884445190
13.6892185211 50.4251403809 33.6029777527
13.6873912811 50.4204101563 33.4110107422
13.6779127121 50.3913269043 33.2134666443
13.6636896133 50.3471450806 33.0124168396
13.6463718414 50.2931098938 32.8090400696
13.6253614426 50.2273254395 32.6028747559
13.5994796753 50.1460418701 32.3930282593
13.5693616867 50.0512733459 32.1799468994
13.5382843018 49.9534530640 31.9660186768
13.5108346939 49.8671798706 31.7546482086
13.4906349182 49.8039779663 31.5485477448
13.4789934158 49.7680130005 31.3487396240
13.4755105972 49.7580184937 31.1549797058
13.4797954559 49.7727394104 30.9670257568
13.4922285080 49.8133926392 30.7852134705
13.5127658844 49.8798370361 30.6095600128
13.5390825272 49.9646720886 30.4383563995
13.5663585663 50.0525588989 30.2679862976
13.5892648697 50.1265411377 30.0944004059
13.6043071747 50.1754951477 29.9149036407
13.6106758118 50.1968460083 29.7288303375
13.6095495224 50.1943473816 29.5370292664
13.6028356552 50.1740646362 29.3409194946
13.5921621323 50.1411819458 29.1417217255
13.5784578323 50.0986557007 28.9401302338
13.5620508194 50.0475273132 28.7363758087
13.5429430008 49.9878044128 28.5304489136
13.5211277008 49.9194679260 28.3223228455
13.4968156815 49.8431854248 28.1121482849
13.4702711105 49.7598037720 27.9001140594
13.4413671494 49.6689071655 27.6861076355
13.4095554352 49.5687599182 27.4696826935
13.3748140335 49.4592933655 27.2508049011
13.3394594193 49.3478775024 27.0312862396
13.3092908859 49.2529602051 26.8157310486
13.2916936874 49.1980514526 26.6100559235
13.2910976410 49.1972427368 26.4178752899
13.3058309555 49.2452163696 26.2379550934
13.3292798996 49.3209228516 26.0650863647
13.3538169861 49.4000930786 25.8931865692
13.3742980957 49.4663543701 25.7181110382
13.3893899918 49.5154647827 25.5387535095
13.4006538391 49.5523948669 25.3563480377
13.4103908539 49.5844650269 25.1727428436
13.4199523926 49.6159782410 24.9890289307
13.4295406342 49.6475753784 24.8053684235
13.4388475418 49.6782798767 24.6215133667
13.4473352432 49.7063751221 24.4370174408
13.4539308548 49.7284507751 24.2509918213
13.4568929672 49.7389640808 24.0619869232
13.4541473389 49.7313117981 23.8682613373
13.4438133240 49.6995162964 23.6682205200
13.4247932434 49.6400833130 23.4609031677
13.3973236084 49.5537643433 23.2464504242
13.3631706238 49.4461784363 23.0262870789
13.3253574371 49.3269462585 22.8029041290
13.2876977921 49.2082023621 22.5794849396
13.2540311813 49.1021690369 22.3592643738
13.2270965576 49.0175552368 22.1445827484
13.2079353333 48.9576759338 21.9363651276
13.1966085434 48.9227256775 21.7347087860
13.1931400299 48.9127807617 21.5396862030
13.1973495483 48.9272651672 21.3511924744
13.2083158493 48.9632492065 21.1684875488
13.2245969772 49.0161437988 20.9903793335
13.2444839478 49.0805091858 20.8154315948
13.2656574249 49.1489677429 20.6416683197
13.2852792740 49.2124900818 20.4666461945
13.3010625839 49.2638015747 20.2883796692
13.3121099472 49.3000411987 20.1060619354
13.3186569214 49.3219642639 19.9198703766
13.3212928772 49.3314399719 19.7302875519
13.3204660416 49.3298988342 19.5376834869
13.3162641525 49.3176193237 19.3421115875
13.3083486557 49.2935218811 19.1432533264
13.2962589264 49.2561454773 18.9406795502
13.2801923752 49.2061195374 18.7345409393
13.2614040375 49.1474304199 18.5259189606
13.2414426804 49.0850105286 18.3161716461
13.2211618423 49.0215721130 18.1060485840
13.2011003494 48.9588356018 17.8960304260
13.1828680038 48.9019165039 17.6875553131
13.1695280075 48.8605651855 17.4833736420
13.1643524170 48.8451919556 17.2864570618
13.1691980362 48.8617019653 17.0985221863
13.1836318970 48.9087142944 16.9192466736
13.2051048279 48.9781227112 16.7463836670
13.2300252914 49.0585021973 16.5767269135
13.2549257278 49.1388168335 16.4071521759
13.2769985199 49.2101287842 16.2350997925
13.2943744659 49.2665061951 16.0588531494
13.3065299988 49.3062705994 15.8779001236
13.3141479492 49.3315963745 15.6928339005
13.3181953430 49.3455619812 15.5045137405
13.3191680908 49.3497467041 15.3133754730
13.3172760010 49.3448181152 15.1195917130
13.3130331039 49.3324089050 14.9236192703
13.3072853088 49.3152160645 14.7262287140
13.3006477356 49.2951889038 14.5279808044
13.2930212021 49.2720146179 14.3287763596
13.2837381363 49.2435722351 14.1279888153
13.2721672058 49.2078514099 13.9250164032
13.2582216263 49.1645774841 13.7197618484
13.2426004410 49.1159706116 13.5128688812
13.2270536423 49.0676040649 13.3059730530
13.2145729065 49.0289878845 13.1018991470
13.2086706161 49.0113067627 12.9039859772
13.2116508484 49.0218772888 12.7144594193
13.2231969833 49.0597038269 12.5330753326
13.2406721115 49.1163902283 12.3573780060
13.2609491348 49.1819877625 12.1844196320
13.2820940018 49.2503433228 12.0123701096
13.3033638000 49.3191032410 11.8405227661
13.3239231110 49.3856010437 11.6680765152
13.3421173096 49.4445686340 11.4934329987
13.3561897278 49.4904289246 11.3148851395
13.3654108047 49.5208549500 11.1316986084
13.3702640533 49.5373840332 10.9443130493
13.3717670441 49.5432548523 10.7536888123
13.3707637787 49.5411529541 10.5606260300
13.3676080704 49.5322074890 10.3654537201
13.3620967865 49.5157661438 10.1679592133
13.3535594940 49.4897003174 9.9674711227
13.3414363861 49.4522247314 9.7634210587
13.3263158798 49.4052124023 9.5563659668
13.3105468750 49.3561439514 9.3486013412
13.2974863052 49.3156890869 9.1434383392
13.2899599075 49.2928390503 8.9436922073
13.2896089554 49.2928123474 8.7510242462
13.2975654602 49.3192138672 8.5666074753
13.3151626587 49.3762855530 8.3918209076
13.3434982300 49.4675102234 8.2278223038
13.3821859360 49.5916709900 8.0742921829
13.4284420013 49.7399063110 7.9285063744
13.4773254395 49.8964920044 7.7855477333
13.5234155655 50.0441970825 7.6399765015
13.5632638931 50.1720428467 7.4882955551
13.5965986252 50.2791671753 7.3301920891
13.6249618530 50.3704795837 7.1671853065
13.6492795944 50.4489212036 7.0001854897
13.6690587997 50.5129241943 6.8286643028
13.6835126877 50.5599899292 6.6517920494
13.6926975250 50.5902938843 6.4695916176
13.6974582672 50.6065254211 6.2828950882
13.6987543106 50.6117324829 6.0926575661
13.6971454620 50.6077079773 5.8994345665
13.6925659180 50.5942230225 5.7031373978
13.6843194962 50.5690841675 5.5030307770
13.6716594696 50.5299034119 5.2983188629
13.6549558640 50.4778594971 5.0893568993
13.6364240646 50.4199981689 4.8784184456
13.6193084717 50.3666496277 4.6688699722
13.6060962677 50.3257141113 4.4633121490
13.5975065231 50.2994804382 4.2625203133
13.5929327011 50.2860183716 4.0658893585
13.5914297104 50.2823295593 3.8724532127
13.5923099518 50.2862205505 3.6815097332
13.5952587128 50.2966880798 3.4927406311
13.6002550125 50.3136672974 3.3061380386
13.6075267792 50.3378868103 3.1219563484
13.6175184250 50.3707542419 2.9406795502
13.6306133270 50.4134979248 2.7627332211
13.6464271545 50.4648818970 2.5877263546
13.6631116867 50.5190391541 2.4137079716
13.6776390076 50.5663375854 2.2374508381
13.6872625351 50.5980339050 2.0559997559
13.6909656525 50.6109008789 1.8682371378
13.6895513535 50.6074905396 1.6749851704
13.6843614578 50.5920753479 1.4776582718
13.6760520935 50.5667343140 1.2769377232
13.6645879745 50.5313606262 1.0727667809
13.6502141953 50.4867324829 0.8653920889
13.6341218948 50.4366378784 0.6560845375
13.6180458069 50.3865966797 0.4467207491
13.6033420563 50.3409233093 0.2387766987
13.5907173157 50.3018608093 0.0330329053
-12.1566505432 14.0297918320 88.0802459717
-12.1801652908 14.0526151657 87.8705825806
-12.2253770828 14.0987205505 87.6616973877
-12.2842540741 14.1594924927 87.4533462524
-12.3483448029 14.2258577347 87.2452774048
-12.4116125107 14.2913417816 87.0372772217
-12.4718523026 14.3535785675 86.8292617798
-12.5295448303 14.4130811691 86.6212463379
-12.5842971802 14.4694309235 86.4132003784
-12.6319303513 14.5181417465 86.2049484253
-12.6660995483 14.5524044037 85.9962234497
-12.6836109161 14.5687913895 85.7868423462
-12.6876535416 14.5707244873 85.5769042969
-12.6857490540 14.5662755966 85.3666992188
-12.6858510971 14.5639801025 85.1565704346
-12.6957387924 14.5721864700 84.9468765259
-12.7258129120 14.6020555496 84.7381210327
-12.7902650833 14.6688203812 84.5310211182
-12.9025344849 14.7869052887 84.3263320923
-13.0675640106 14.9616155624 84.1244049072
-13.2778539658 15.1849040985 83.9250183105
-13.5165615082 15.4386949539 83.7274246216
-13.7636985779 15.7015380859 83.5306701660
-14.0008335114 15.9536514282 83.3338165283
-14.2138853073 16.1799201965 83.1360778809
-14.3951158524 16.3720417023 82.9369812012
-14.5436286926 16.5290508270 82.7363815308
-14.6635246277 16.6553478241 82.5344314575
-14.7607069016 16.7572669983 82.3313903809
-14.8399715424 16.8399562836 82.1274719238
-14.9034976959 16.9057559967 81.9227600098
-14.9517450333 16.9551563263 81.7172317505
-14.9858198166 16.9893455505 81.5109252930
-15.0081958771 17.0109786987 81.3039474487
-15.0208663940 17.0221939087 81.0963973999
-15.0240564346 17.0232334137 80.8882598877
-15.0176906586 17.0140151978 80.6795043945
-15.0033121109 16.9961967468 80.4702072144
-14.9837141037 16.9727725983 80.2605285645
-14.9613056183 16.9463348389 80.0506210327
-14.9377040863 16.9186134338 79.8405761719
-14.9145965576 16.8914222717 79.6305160522
-14.8929605484 16.8658103943 79.4205017090
-14.8695974350 16.8383426666 79.2103118896
-14.8368396759 16.8007907867 78.9994125366
-14.7922182083 16.7505016327 78.7875823975
-14.7501392365 16.7029418945 78.5758514404
-14.7368545532 16.6862907410 78.3661499023
-14.7675962448 16.7169036865 78.1596984863
-14.8307428360 16.7823047638 77.9557189941
-14.8979682922 16.8520832062 77.7521514893
-14.9484548569 16.9038963318 77.5474014282
-14.9818000793 16.9373054504 77.3413925171
-15.0114727020 16.9667739868 77.1351394653
-15.0507736206 17.0065784454 76.9296951294
-15.1044607162 17.0618286133 76.7254638672
-15.1691341400 17.1288757324 76.5222091675
-15.2381067276 17.2005386353 76.3194198608
-15.3053207397 17.2703151703 76.1165847778
-15.3665199280 17.3336353302 75.9133529663
-15.4199380875 17.3886013031 75.7095489502
-15.4682931900 17.4381332397 75.5054016113
-15.5205488205 17.4918537140 75.3016586304
-15.5920886993 17.5662803650 75.0996856689
-15.7043132782 17.6843910217 74.9014358521
-15.8819274902 17.8727111816 74.7092056274
-16.1416816711 18.1492290497 74.5246963501
-16.4737224579 18.5033645630 74.3472137451
-16.8341045380 18.8879394531 74.1729125977
-17.1651687622 19.2410411835 73.9965133667
-17.4291534424 19.5221252441 73.8143920898
-17.6225204468 19.7273845673 73.6260452271
-17.7625198364 19.8753490448 73.4329223633
-17.8673477173 19.9855461121 73.2366409302
-17.9478778839 20.0696563721 73.0381698608
-18.0091552734 20.1330947876 72.8379364014
-18.0530223846 20.1778392792 72.6360778809
-18.0799312592 20.2043743134 72.4325866699
-18.0916500092 20.2145977020 72.2276000977
-18.0932998657 20.2140083313 72.0215988159
-18.0925979614 20.2108955383 71.8153533936
-18.0980777740 20.2144184113 71.6097259521
-18.1188659668 20.2343826294 71.4056930542
-18.1648426056 20.2813949585 71.2043380737
-18.2444877625 20.3645629883 71.0066299438
-18.3605804443 20.4868774414 70.8129425049
-18.5069942474 20.6417503357 70.6227188110
-18.6698913574 20.8143310547 70.4345321655
-18.8334236145 20.9875984192 70.2466964722
-18.9858245850 21.1489124298 70.0578994751
-19.1213283539 21.2920818329 69.8674850464
-19.2378177643 21.4148330688 69.6751556396
-19.3340911865 21.5158786774 69.4807357788
-19.4098014832 21.5948390961 69.2841262817
-19.4670982361 21.6540260315 69.0855255127
-19.5114269257 21.6992855072 68.8855056763
-19.5498065948 21.7381591797 68.6848602295
-19.5868530273 21.7755985260 68.4841156006
-19.6210861206 21.8100166321 68.2830963135
-19.6461219788 21.8345603943 68.0810241699
-19.6575355530 21.8444709778 67.8773422241
-19.6584510803 21.8431072235 67.6724014282
-19.6579074860 21.8401775360 67.4672698975
-19.6655158997 21.8460006714 67.2631301880
-19.6884517670 21.8682880402 67.0608901978
-19.7304534912 21.9110546112 66.8610458374
-19.7906036377 21.9733161926 66.6635513306
-19.8640079498 22.0498123169 66.4678192139
-19.9458599091 22.1353855133 66.2732849121
-20.0348396301 22.2286167145 66.0797882080
-20.1317844391 22.3304042816 65.8874740601
-20.2360553741 22.4400634766 65.6962661743
-20.3440303802 22.5537033081 65.5057144165
-20.4506111145 22.6658458710 65.3151550293
-20.5518436432 22.7722473145 65.1240692139
-20.6467399597 22.8718452454 64.9322967529
-20.7366027832 22.9660377502 64.7400131226
-20.8217868805 23.0552043915 64.5472335815
-20.8988647461 23.1356658936 64.3535003662
-20.9615917206 23.2007122040 64.1579208374
-21.0054588318 23.2454986572 63.9598350525
-21.0316772461 23.2713279724 63.7593727112
-21.0463333130 23.2847347260 63.5573272705
-21.0553455353 23.2920818329 63.3545036316
-21.0610485077 23.2958717346 63.1512184143
-21.0637683868 23.2964572906 62.9475059509
-21.0654277802 23.2959041595 62.7436332703
-21.0711002350 23.2996597290 62.5403327942
-21.0886783600 23.3162078857 62.3387527466
-21.1287021637 23.3568725586 62.1404647827
-21.2031803131 23.4345512390 61.9472885132
-21.3206119537 23.5583763123 61.7605705261
-21.4788742065 23.7260742188 61.5801124573
-21.6631412506 23.9217128754 61.4038009644
-21.8525257111 24.1228542328 61.2285728455
-22.0295467377 24.3107147217 61.0517997742
-22.1844768524 24.4748439789 60.8719711304
-22.3141994476 24.6118927002 60.6885528564
-22.4199295044 24.7231655121 60.5016593933
-22.5060386658 24.8133621216 60.3119087219
-22.5786857605 24.8890914917 60.1202049255
-22.6426811218 24.9555301666 59.9272651672
-22.6984157562 25.0130939484 59.7331275940
-22.7424449921 25.0580787659 59.5372238159
-22.7714881897 25.0869617462 59.3390045166
-22.7855434418 25.0997428894 59.1384239197
-22.7877922058 25.0998382568 58.9359626770
-22.7832736969 25.0926628113 58.7323951721
-22.7784862518 25.0851955414 58.5287666321
-22.7813816071 25.0859851837 58.3263740540
-22.7998981476 25.1035594940 58.1265411377
-22.8389530182 25.1432018280 57.9301223755
-22.8985996246 25.2049751282 57.7371826172
-22.9756278992 25.2854270935 57.5472373962
-23.0665149689 25.3807716370 57.3597450256
-23.1682205200 25.4877452850 57.1742248535
-23.2770252228 25.6023483276 56.9900817871
-23.3879566193 25.7192382813 56.8064804077
-23.4955043793 25.8324947357 56.6224822998
-23.5951671600 25.9372787476 56.4373016357
-23.6854286194 26.0319633484 56.2506599426
-23.7685890198 26.1190185547 56.0629310608
-23.8484611511 26.2025394440 55.8747634888
-23.9261684418 26.2837371826 55.6863403320
-23.9981040955 26.3587341309 55.4970245361
-24.0579738617 26.4207630157 55.3056831360
-24.1009922028 26.4646835327 55.1114273071
-24.1270179749 26.4903430939 54.9141845703
-24.1407871246 26.5028305054 54.7147712708
-24.1500625610 26.5104885101 54.5145530701
-24.1632518768 26.5223522186 54.3150520325
-24.1870822906 26.5456523895 54.1175117493
-24.2243213654 26.5833644867 53.9224624634
-24.2733058929 26.6337013245 53.7296409607
-24.3308658600 26.6932563782 53.5384826660
-24.3960762024 26.7610340118 53.3488426208
-24.4705696106 26.8387908936 53.1610450745
-24.5559539795 26.9282550812 52.9754180908
-24.6521415710 27.0293312073 52.7919769287
-24.7567901611 27.1395053864 52.6102981567
-24.8639869690 27.2524185181 52.4292793274
-24.9645862579 27.3582439423 52.2471771240
-25.0512351990 27.4490756989 52.0625495911
-25.1245746613 27.5256042480 51.8754882813
-25.1936340332 27.5975322723 51.6877136230
-25.2685222626 27.6757259369 51.5011901855
-25.3507041931 27.7617626190 51.3162155151
-25.4294128418 27.8440666199 51.1306915283
-25.4884014130 27.9051742554 50.9413909912
-25.5176582336 27.9343261719 50.7462692261
-25.5203170776 27.9348831177 50.5458755493
-25.5106620789 27.9222049713 50.3430061340
-25.5063781738 27.9153003693 50.1411857605
-25.5207481384 27.9284458160 49.9431266785
-25.5596294403 27.9679431915 49.7500610352
-25.6241436005 28.0349941254 49.5622901917
-25.7150192261 28.1303863525 49.3800239563
-25.8335666656 28.2555313110 49.2036094666
-25.9774627686 28.4079246521 49.0326347351
-26.1359691620 28.5760307312 48.8649406433
-26.2923259735 28.7418270111 48.6970672607
-26.4333915710 28.8911876678 48.5262565613
-26.5561943054 29.0209178925 48.3518409729
-26.6647243500 29.1353054047 48.1746139526
-26.7628059387 29.2384605408 47.9953536987
-26.8513736725 29.3313922882 47.8142280579
-26.9300765991 29.4137191772 47.6311378479
-26.9981975555 29.4846687317 47.4458999634
-27.0533924103 29.5417232513 47.2579841614
-27.0913410187 29.5802364349 47.0664215088
-27.1081085205 29.5959796906 46.8703041077
-27.1035099030 29.5887470245 46.6695404053
-27.0832672119 29.5646953583 46.4653244019
-27.0589790344 29.5362949371 46.2601737976
-27.0450057983 29.5189819336 46.0572433472
-27.0533618927 29.5256786346 45.8592376709
-27.0899524689 29.5627346039 45.6675224304
-27.1546306610 29.6299896240 45.4821472168
-27.2442665100 29.7240829468 45.3024787903
-27.3558177948 29.8417434692 45.1278991699
-27.4864521027 29.9799213409 44.9578247070
-27.6306819916 30.1327247620 44.7910614014
-27.7783508301 30.2892246246 44.6253280640
-27.9168872833 30.4359092712 44.4577522278
-28.0362548828 30.5619850159 44.2860069275
-28.1318664551 30.6625194550 44.1089744568
-28.2040500641 30.7378616333 43.9266738892
-28.2561874390 30.7916488647 43.7398262024
-28.2929649353 30.8289184570 43.5494766235
-28.3189430237 30.8545761108 43.3566474915
-28.3379364014 30.8727264404 43.1622085571
-28.3535346985 30.8872241974 42.9669914246
-28.3696937561 30.9023227692 42.7719230652
-28.3899116516 30.9217872620 42.5778388977
-28.4149723053 30.9464626312 42.3849334717
-28.4418640137 30.9731063843 42.1925010681
-28.4663658142 30.9971771240 41.9995269775
-28.4878673553 31.0180263519 41.8058624268
-28.5117835999 31.0414695740 41.6128120422
-28.5471458435 31.0772247314 41.4225730896
-28.6014499664 31.1333503723 41.2370109558
-28.6768608093 31.2121753693 41.0567054749
-28.7702522278 31.3103427887 40.8809471130
-28.8761253357 31.4219341278 40.7084197998
-28.9893264771 31.5414104462 40.5378875732
-29.1058044434 31.6644115448 40.3683547974
-29.2218608856 31.7869606018 40.1989173889
-29.3332290649 31.9044723511 40.0284996033
-29.4348583221 32.0115089417 39.8558197021
-29.5217781067 32.1027259827 39.6795997620
-29.5910720825 32.1749877930 39.4990653992
-29.6437816620 32.2294158936 39.3144302368
-29.6853485107 32.2718582153 39.1270370483
-29.7236919403 32.3108329773 38.9388847351
-29.7650299072 32.3530311584 38.7515563965
-29.8090667725 32.3981323242 38.5649833679
-29.8474674225 32.4371719360 38.3770217896
-29.8683567047 32.4573745728 38.1845779419
-29.8638191223 32.4502296448 37.9855461121
-29.8346900940 32.4166336060 37.7800712585
-29.7902317047 32.3665466309 37.5705223083
-29.7440414429 32.3145942688 37.3604240417
-29.7085266113 32.2741241455 37.1530494690
-29.6912136078 32.2532348633 36.9504127502
-29.6951408386 32.2551918030 36.7533760071
-29.7217445374 32.2815437317 36.5623741150
-29.7726974487 32.3340873718 36.3779182434
-29.8500537872 32.4150352478 36.2006187439
-29.9564456940 32.5272178650 36.0312576294
-30.0943279266 32.6732788086 35.8705749512
-30.2618103027 32.8511886597 35.7181434631
-30.4473819733 33.0485610962 35.5709152222
-30.6305694580 33.2433662415 35.4233512878
-30.7901897430 33.4128265381 35.2696609497
-30.9128131866 33.5424880981 35.1060905457
-30.9944171906 33.6280250549 34.9314346313
-31.0371265411 33.6717185974 34.7461738586
-31.0460414886 33.6790542603 34.5516090393
-31.0268554688 33.6561546326 34.3492431641
-30.9834289551 33.6071777344 34.1400680542
-30.9176387787 33.5341415405 33.9245491028
-30.8335323334 33.4413948059 33.7037620544
-30.7417602539 33.3404006958 33.4806556702
-30.6581649780 33.2482032776 33.2596855164
-30.5968246460 33.1799468994 33.0448570251
-30.5648479462 33.1432800293 32.8382530212
-30.5637321472 33.1398200989 32.6403770447
-30.5936431885 33.1697387695 32.4513626099
-30.6541213989 33.2325515747 32.2711563110
-30.7411041260 33.3238792419 32.0986747742
-30.8458538055 33.4343261719 31.9314651489
-30.9583663940 33.5531272888 31.7666778564
-31.0713043213 33.6723899841 31.6022033691
-31.1804790497 33.7876052856 31.4368209839
-31.2826843262 33.8953208923 31.2695865631
-31.3739986420 33.9913215637 31.0993328094
-31.4502506256 34.0711174011 30.9247989655
-31.5093078613 34.1324119568 30.7453193665
-31.5533332825 34.1775321960 30.5614891052
-31.5885677338 34.2131919861 30.3751163483
-31.6219596863 34.2468719482 30.1882476807
-31.6566429138 34.2819404602 30.0018119812
-31.6899394989 34.3155174255 29.8150119781
-31.7158164978 34.3411140442 29.6260318756
-31.7293548584 34.3534317017 29.4333705902
-31.7285232544 34.3502845764 29.2363815308
-31.7124843597 34.3307723999 29.0347728729
-31.6801242828 34.2936935425 28.8281650543
-31.6318531036 34.2394943237 28.6166419983
-31.5730609894 34.1739730835 28.4018039703
-31.5149650574 34.1091957092 28.1870651245
-31.4703845978 34.0589637756 27.9763622284
-31.4464511871 34.0309524536 27.7719364166
-31.4406929016 34.0224990845 27.5730743408
-31.4456615448 34.0255889893 27.3775157928
-31.4585514069 34.0372047424 27.1844177246
-31.4852542877 34.0636863708 26.9956378937
-31.5340881348 34.1139869690 26.8138160706
-31.6056823730 34.1887893677 26.6392097473
-31.6890258789 34.2762298584 26.4684143066
