-38.4143753052 -19.7789764404 6.3249258995
-38.4310760498 -19.7846717834 6.1313686371
-38.4408416748 -19.7869739532 5.9354896545
-38.4458084106 -19.7869262695 5.7379951477
-38.4515075684 -19.7872390747 5.5407395363
-38.4632759094 -19.7905216217 5.3455290794
-38.4832115173 -19.7978000641 5.1530857086
-38.5101356506 -19.8084983826 4.9630279541
-38.5416336060 -19.8214397430 4.7745504379
-38.5755500793 -19.8355636597 4.5869269371
-38.6103248596 -19.8501071930 4.3996295929
-38.6449127197 -19.8645591736 4.2123026848
-38.6785316467 -19.8785381317 4.0246782303
-38.7104072571 -19.8916645050 3.8364880085
-38.7398986816 -19.9036254883 3.6475064754
-38.7666778564 -19.9142570496 3.4576158524
-38.7907333374 -19.9235553741 3.2668061256
-38.8124771118 -19.9317226410 3.0752129555
-38.8327407837 -19.9391670227 2.8831241131
-38.8523406982 -19.9462833405 2.6908166409
-38.8715934753 -19.9532318115 2.4984009266
-38.8906631470 -19.9600906372 2.3059341908
-38.9103851318 -19.9672698975 2.1137080193
-38.9324493408 -19.9755954742 1.9223158360
-38.9580688477 -19.9856605530 1.7321912050
-38.9860305786 -19.9968738556 1.5429126024
-39.0123443604 -20.0072822571 1.3530786037
-39.0327644348 -20.0148029327 1.1611809731
-39.0460205078 -20.0188159943 0.9667567611
-39.0544013977 -20.0204429626 0.7706059813
-39.0612754822 -20.0213317871 0.5739160776
-39.0690689087 -20.0226707458 0.3775475025
-39.0806159973 -20.0258464813 0.1825170666
-36.8662185669 -6.9852032661 81.1457595825
-36.8437995911 -6.9798550606 80.9471817017
-36.8081474304 -6.9726643562 80.7477645874
-36.7698669434 -6.9651074409 80.5481338501
-36.7353057861 -6.9580674171 80.3486709595
-36.7063484192 -6.9518060684 80.1494903564
-36.6836013794 -6.9464097023 79.9506530762
-36.6682891846 -6.9420471191 79.7522354126
-36.6616363525 -6.9388895035 79.5543441772
-36.6639251709 -6.9369769096 79.3570022583
-36.6748123169 -6.9362607002 79.1602020264
-36.6942062378 -6.9367289543 78.9639663696
-36.7215843201 -6.9383091927 78.7682647705
-36.7539863586 -6.9405889511 78.5729217529
-36.7857131958 -6.9427757263 78.3775558472
-36.8108329773 -6.9440422058 78.1817703247
-36.8257980347 -6.9438943863 77.9853057861
-36.8300094604 -6.9422497749 77.7881011963
-36.8251533508 -6.9393410683 77.5902481079
-36.8148269653 -6.9356713295 77.3919982910
-36.8045463562 -6.9320068359 77.1937179565
-36.8005752563 -6.9292211533 76.9958648682
-36.8074302673 -6.9279437065 76.7987747192
-36.8258819580 -6.9282817841 76.6025314331
-36.8530540466 -6.9298343658 76.4069442749
-36.8840675354 -6.9319229126 76.2116546631
-36.9139938354 -6.9338598251 76.0163116455
-36.9394378662 -6.9351730347 75.8206558228
-36.9590339661 -6.9356708527 75.6245727539
-36.9726104736 -6.9353303909 75.4280395508
-36.9800834656 -6.9341392517 75.2310333252
-36.9808235168 -6.9320096970 75.0334930420
-36.9737510681 -6.9287910461 74.8353271484
-36.9579086304 -6.9243497849 74.6364440918
-36.9335479736 -6.9187207222 74.4368362427
-36.9034309387 -6.9122886658 74.2367248535
-36.8731002808 -6.9058265686 74.0365447998
-36.8490295410 -6.9002361298 73.8368301392
-36.8356666565 -6.8961386681 73.6379470825
-36.8341789246 -6.8936958313 73.4400253296
-36.8437232971 -6.8927917480 73.2430191040
-36.8631362915 -6.8932633400 73.0468368530
-36.8910293579 -6.8949174881 72.8513870239
-36.9251747131 -6.8974442482 72.6564941406
-36.9629821777 -6.9004817009 72.4619522095
-37.0023269653 -6.9037342072 72.2675781250
-37.0409202576 -6.9068822861 72.0731735229
-37.0748977661 -6.9093871117 71.8783874512
-37.0993309021 -6.9105601311 71.6827926636
-37.1109924316 -6.9099521637 71.4860687256
-37.1112289429 -6.9077506065 71.2883071899
-37.1068687439 -6.9049072266 71.0901260376
-37.1080970764 -6.9028439522 70.8924255371
-37.1230964661 -6.9027013779 70.6959915161
-37.1523666382 -6.9045495987 70.5008773804
-37.1879043579 -6.9072737694 70.3063735962
-37.2184371948 -6.9092993736 70.1114349365
-37.2357444763 -6.9094796181 69.9152679443
-37.2372207642 -6.9074501991 69.7175979614
-37.2250022888 -6.9035100937 69.5186004639
-37.2045822144 -6.8984241486 69.3187866211
-37.1836853027 -6.8932714462 69.1188888550
-37.1704711914 -6.8891906738 68.9197006226
-37.1711578369 -6.8870501518 68.7218475342
-37.1881752014 -6.8871893883 68.5255966187
-37.2194290161 -6.8893160820 68.3307800293
-37.2588462830 -6.8925833702 68.1368026733
-37.2986717224 -6.8959074020 67.9429016113
-37.3325843811 -6.8984065056 67.7484359741
-37.3577003479 -6.8996772766 67.5531005859
-37.3743972778 -6.8997731209 67.3569183350
-37.3849983215 -6.8990173340 67.1601181030
-37.3924369812 -6.8978199959 66.9629821777
-37.3995018005 -6.8965706825 66.7658004761
-37.4086036682 -6.8956050873 66.5688323975
-37.4212684631 -6.8951377869 66.3722381592
-37.4369087219 -6.8950862885 66.1759643555
-37.4518165588 -6.8949322701 65.9796218872
-37.4601554871 -6.8938598633 65.7825698853
-37.4570541382 -6.8911900520 65.5842742920
-37.4417648315 -6.8868169785 65.3846282959
-37.4184837341 -6.8813261986 65.1840667725
-37.3941612244 -6.8756904602 64.9833526611
-37.3750267029 -6.8707785606 64.7831726074
-37.3644752502 -6.8670659065 64.5839080811
-37.3632659912 -6.8646583557 64.3856735229
-37.3707809448 -6.8634700775 64.1884002686
-37.3860435486 -6.8633642197 63.9920082092
-37.4077682495 -6.8641619682 63.7963600159
-37.4333763123 -6.8655028343 63.6011695862
-37.4579277039 -6.8666963577 63.4058761597
-37.4751625061 -6.8668670654 63.2097473145
-37.4811172485 -6.8654603958 63.0123138428
-37.4776306152 -6.8627347946 62.8137626648
-37.4720726013 -6.8597183228 62.6149482727
-37.4723281860 -6.8575148582 62.4168014526
-37.4814376831 -6.8565492630 62.2196998596
-37.4972534180 -6.8565216064 62.0233993530
-37.5166435242 -6.8569931984 61.8275375366
-37.5384788513 -6.8578076363 61.6319847107
-37.5624237061 -6.8589172363 61.4366989136
-37.5865631104 -6.8600540161 61.2414550781
-37.6078605652 -6.8607935905 61.0458755493
-37.6247329712 -6.8609137535 60.8497657776
-37.6384658813 -6.8605957031 60.6532707214
-37.6520614624 -6.8602581024 60.4567604065
-37.6677169800 -6.8602085114 60.2605133057
-37.6845626831 -6.8603258133 60.0644226074
-37.6980857849 -6.8599781990 59.8679161072
-37.7023696899 -6.8583374023 59.6702384949
-37.6943244934 -6.8549718857 59.4709663391
-37.6768112183 -6.8502807617 59.2704505920
-37.6579780579 -6.8454046249 59.0697288513
-37.6474075317 -6.8416843414 58.8700447083
-37.6515579224 -6.8400244713 58.6722602844
-37.6715469360 -6.8405809402 58.4765434265
-37.7044181824 -6.8429412842 58.2825431824
-37.7460479736 -6.8465275764 58.0897331238
-37.7926979065 -6.8508176804 57.8976287842
-37.8407478333 -6.8553032875 57.7057571411
-37.8857192993 -6.8593592644 57.5135192871
-37.9218330383 -6.8621754646 57.3201293945
-37.9429016113 -6.8628849983 57.1247253418
-37.9446716309 -6.8608927727 56.9266967773
-37.9271659851 -6.8562006950 56.7260169983
-37.8951873779 -6.8494815826 56.5233039856
-37.8570632935 -6.8419013023 56.3196868896
-37.8228912354 -6.8348736763 56.1165580750
-37.8028106689 -6.8298192024 55.9153404236
-37.8041419983 -6.8277635574 55.7170867920
-37.8274955750 -6.8287920952 55.5219230652
-37.8649787903 -6.8318009377 55.3287773132
-37.9036102295 -6.8349704742 55.1358299255
-37.9329605103 -6.8368406296 54.9415893555
-37.9519081116 -6.8372526169 54.7458801270
-37.9690361023 -6.8374109268 54.5499229431
-37.9961318970 -6.8389649391 54.3554115295
-38.0395736694 -6.8428101540 54.1632995605
-38.0960197449 -6.8484787941 53.9731254578
-38.1548233032 -6.8544778824 53.7833595276
-38.2048301697 -6.8592448235 53.5923538208
-38.2402877808 -6.8619732857 53.3992500305
-38.2616539001 -6.8627271652 53.2040786743
-38.2719688416 -6.8619313240 53.0072746277
-38.2733078003 -6.8598775864 52.8091239929
-38.2664070129 -6.8566689491 52.6097183228
-38.2526817322 -6.8525032997 52.4092597961
-38.2357215881 -6.8478837013 52.2082786560
-38.2202606201 -6.8434739113 52.0074920654
-38.2095222473 -6.8397259712 51.8073921204
-38.2035903931 -6.8366513252 51.6080055237
-38.2001647949 -6.8339276314 51.4089813232
-38.1969680786 -6.8312363625 51.2099761963
-38.1938209534 -6.8285517693 51.0109634399
-38.1924591064 -6.8261175156 50.8122062683
-38.1943511963 -6.8241395950 50.6139488220
-38.1992721558 -6.8225860596 50.4161529541
-38.2062301636 -6.8213181496 50.2186737061
-38.2143592834 -6.8202147484 50.0213737488
-38.2217979431 -6.8190140724 49.8239593506
-38.2249298096 -6.8172092438 49.6258544922
-38.2208404541 -6.8143911362 49.4265747070
-38.2108535767 -6.8107452393 49.2263259888
-38.2005043030 -6.8070483208 49.0259933472
-38.1956176758 -6.8041176796 48.8265228271
-38.1987991333 -6.8023195267 48.6283454895
-38.2091217041 -6.8015227318 48.4313316345
-38.2240371704 -6.8013706207 48.2350692749
-38.2414436340 -6.8015680313 48.0392265320
-38.2607116699 -6.8020267487 47.8436965942
-38.2821006775 -6.8027844429 47.6485328674
-38.3050346375 -6.8037576675 47.4536437988
-38.3269844055 -6.8045935631 47.2585983276
-38.3446884155 -6.8048338890 47.0628585815
-38.3566398621 -6.8042659760 46.8661499023
-38.3642501831 -6.8030891418 46.6687088013
-38.3707923889 -6.8017621040 46.4710807800
-38.3796958923 -6.8007664680 46.2738494873
-38.3939361572 -6.8005204201 46.0775337219
-38.4163475037 -6.8014216423 45.8826255798
-38.4494400024 -6.8038229942 45.6895828247
-38.4936294556 -6.8077831268 45.4984893799
-38.5452194214 -6.8127837181 45.3087272644
-38.5969467163 -6.8178043365 45.1190414429
-38.6416664124 -6.8218407631 44.9281806946
-38.6762008667 -6.8244462013 44.7355690002
-38.7022743225 -6.8258643150 44.5414924622
-38.7246551514 -6.8267636299 44.3467788696
-38.7483253479 -6.8278446198 44.1523094177
-38.7762832642 -6.8295278549 43.9586219788
-38.8087348938 -6.8318424225 43.7657623291
-38.8437118530 -6.8345127106 43.5733871460
-38.8778686523 -6.8370676041 43.3808898926
-38.9067230225 -6.8388781548 43.1874656677
-38.9255828857 -6.8392839432 42.9922447205
-38.9320983887 -6.8379549980 42.7947845459
-38.9286346436 -6.8352236748 42.5954895020
-38.9216499329 -6.8319969177 42.3955307007
-38.9179115295 -6.8292260170 42.1961441040
-38.9207687378 -6.8273825645 41.9979629517
-38.9294624329 -6.8263592720 41.8008499146
-38.9407653809 -6.8257031441 41.6042251587
-38.9507102966 -6.8248553276 41.4073448181
-38.9558296204 -6.8233294487 41.2095565796
-38.9544219971 -6.8208856583 41.0105361938
-38.9476890564 -6.8176927567 40.8104896545
-38.9397544861 -6.8143310547 40.6101989746
-38.9360084534 -6.8115572929 40.4106750488
-38.9406280518 -6.8099608421 40.2127304077
-38.9549331665 -6.8097257614 40.0166282654
-38.9770088196 -6.8105840683 39.8220252991
-39.0024833679 -6.8119206429 39.6280899048
-39.0266838074 -6.8130779266 39.4339294434
-39.0473899841 -6.8137445450 39.2391052246
-39.0659484863 -6.8141083717 39.0438766479
-39.0858154297 -6.8146567345 38.8489151001
-39.1097412109 -6.8157763481 38.6547546387
-39.1372604370 -6.8174014091 38.4613227844
-39.1638832092 -6.8189010620 38.2677307129
-39.1831283569 -6.8193626404 38.0727005005
-39.1904411316 -6.8181452751 37.8753166199
-39.1862907410 -6.8153138161 37.6756439209
-39.1760864258 -6.8116307259 37.4747428894
-39.1670494080 -6.8081111908 37.2740478516
-39.1645202637 -6.8055076599 37.0746345520
-39.1704139709 -6.8040900230 36.8769035339
-39.1839027405 -6.8037409782 36.6807022095
-39.2024459839 -6.8041033745 36.4855308533
-39.2225914001 -6.8046917915 36.2906913757
-39.2413406372 -6.8050837517 36.0955810547
-39.2577705383 -6.8051490784 35.9000053406
-39.2733726501 -6.8050980568 35.7042694092
-39.2907905579 -6.8053030968 35.5089111328
-39.3118362427 -6.8060183525 35.3143081665
-39.3358154297 -6.8071475029 35.1203308105
-39.3591766357 -6.8081893921 34.9262390137
-39.3773612976 -6.8085026741 34.7310829163
-39.3881988525 -6.8077812195 34.5344009399
-39.3942108154 -6.8063797951 34.3367042542
-39.4018173218 -6.8052029610 34.1393356323
-39.4175834656 -6.8051753044 33.9436874390
-39.4438323975 -6.8066248894 33.7502670288
-39.4768257141 -6.8090252876 33.5582962036
-39.5094184875 -6.8113689423 33.3662719727
-39.5365715027 -6.8129467964 33.1731109619
-39.5591621399 -6.8138818741 32.9789924622
-39.5826950073 -6.8149499893 32.7850914001
-39.6122093201 -6.8168611526 32.5924987793
-39.6481094360 -6.8196721077 32.4013099670
-39.6863670349 -6.8228163719 32.2106628418
-39.7220077515 -6.8255915642 32.0194816589
-39.7518806458 -6.8275551796 31.8270759583
-39.7748832703 -6.8285493851 31.6331882477
-39.7912483215 -6.8286085129 31.4378585815
-39.8026466370 -6.8279676437 31.2414417267
-39.8116722107 -6.8269925117 31.0445022583
-39.8195991516 -6.8258624077 30.8473167419
-39.8248786926 -6.8243584633 30.6495399475
-39.8250808716 -6.8221387863 30.4506244659
-39.8201599121 -6.8191962242 30.2505493164
-39.8128433228 -6.8159160614 30.0499172211
-39.8060874939 -6.8127150536 29.8493881226
-39.8010368347 -6.8097538948 29.6492195129
-39.7974510193 -6.8069987297 29.4493618011
-39.7952461243 -6.8044385910 29.2497997284
-39.7955245972 -6.8022284508 29.0507831573
-39.8008003235 -6.8007225990 28.8528938293
-39.8150100708 -6.8004775047 28.6570377350
-39.8429641724 -6.8021717072 28.4643363953
-39.8881187439 -6.8062925339 28.2756099701
-39.9488563538 -6.8126125336 28.0905208588
-40.0165634155 -6.8199162483 27.9071063995
-40.0786933899 -6.8264336586 27.7224712372
-40.1251907349 -6.8307466507 27.5342674255
-40.1527519226 -6.8323874474 27.3416976929
-40.1641807556 -6.8317518234 27.1453781128
-40.1651000977 -6.8296332359 26.9465961456
-40.1611709595 -6.8268299103 26.7466621399
-40.1567497253 -6.8239569664 26.5465946198
-40.1545219421 -6.8213934898 26.3470230103
-40.1556510925 -6.8193039894 26.1482315063
-40.1601066589 -6.8176836967 25.9502162933
-40.1669044495 -6.8163938522 25.7527523041
-40.1743392944 -6.8151936531 25.5554332733
-40.1803970337 -6.8137989044 25.3577804565
-40.1833953857 -6.8119721413 25.1593856812
-40.1826782227 -6.8096213341 24.9600868225
-40.1789855957 -6.8068494797 24.7600555420
-40.1742172241 -6.8039259911 24.5597438812
-40.1706085205 -6.8011655807 24.3596935272
-40.1698265076 -6.7988042831 24.1603126526
-40.1726303101 -6.7969493866 23.9617919922
-40.1793479919 -6.7956471443 23.7642173767
-40.1911659241 -6.7950654030 23.5678882599
-40.2112121582 -6.7956461906 23.3735847473
-40.2436866760 -6.7979826927 23.1823558807
-40.2903862000 -6.8023295403 22.9946746826
-40.3474464417 -6.8081398010 22.8096046448
-40.4061508179 -6.8141841888 22.6250038147
-40.4576721191 -6.8192138672 22.4386730194
-40.4972419739 -6.8225550652 22.2494106293
-40.5246810913 -6.8241820335 22.0571460724
-40.5419654846 -6.8243746758 21.8623542786
-40.5507011414 -6.8233590126 21.6654167175
-40.5517616272 -6.8212590218 21.4665412903
-40.5470733643 -6.8183460236 21.2661972046
-40.5412445068 -6.8152718544 21.0655441284
-40.5407295227 -6.8129477501 20.8662204742
-40.5509071350 -6.8121356964 20.6696090698
-40.5738449097 -6.8131279945 20.4762573242
-40.6086120605 -6.8157920837 20.2859516144
-40.6531219482 -6.8198342323 20.0981807709
-40.7045555115 -6.8248562813 19.9122352600
-40.7574462891 -6.8300848007 19.7267189026
-40.8027343750 -6.8342385292 19.5392875671
-40.8311004639 -6.8359999657 19.3475112915
-40.8389396667 -6.8348579407 19.1504154205
-40.8320732117 -6.8316373825 18.9494838715
-40.8240165710 -6.8282470703 18.7482166290
-40.8289947510 -6.8267006874 18.5503425598
-40.8543319702 -6.8280339241 18.3578071594
-40.8975257874 -6.8318934441 18.1699924469
-40.9490356445 -6.8369302750 17.9844150543
-40.9975700378 -6.8415460587 17.7981033325
-41.0348968506 -6.8445768356 17.6088657379
-41.0584793091 -6.8456635475 17.4160079956
-41.0708274841 -6.8451609612 17.2201709747
-41.0766563416 -6.8437352180 17.0225944519
-41.0802993774 -6.8420014381 16.8244266510
-41.0848083496 -6.8403887749 16.6264820099
-41.0921363831 -6.8391752243 16.4292869568
-41.1036682129 -6.8385572433 16.2332210541
-41.1206245422 -6.8387064934 16.0386238098
-41.1442451477 -6.8397994041 15.8458395004
-41.1755981445 -6.8419866562 15.6551723480
-41.2146759033 -6.8452682495 15.4666366577
-41.2592620850 -6.8493294716 15.2796411514
-41.3050460815 -6.8535614014 15.0930166245
-41.3479156494 -6.8573813438 14.9056377411
-41.3863410950 -6.8605718613 14.7170782089
-41.4211654663 -6.8632526398 14.5275611877
-41.4533081055 -6.8655548096 14.3373346329
-41.4826354980 -6.8674583435 14.1463556290
-41.5091819763 -6.8689680099 13.9546289444
-41.5348205566 -6.8703498840 13.7626695633
-41.5635261536 -6.8721661568 13.5715847015
-41.5998191833 -6.8750572205 13.3826427460
-41.6457786560 -6.8793177605 13.1964416504
-41.6983222961 -6.8845119476 13.0121345520
-41.7498931885 -6.8895688057 12.8276071548
-41.7931098938 -6.8934421539 12.6407756805
-41.8252372742 -6.8957457542 12.4508523941
-41.8484191895 -6.8967814445 12.2584199905
-41.8664283752 -6.8970847130 12.0645341873
-41.8817863464 -6.8970127106 11.8699045181
-41.8950347900 -6.8966412544 11.6746778488
-41.9056205750 -6.8958926201 11.4786920547
-41.9134864807 -6.8947587013 11.2819271088
-41.9204673767 -6.8934988976 11.0849037170
-41.9301757813 -6.8926262856 10.8886613846
-41.9460029602 -6.8926205635 10.6941814423
-41.9689598083 -6.8936252594 10.5017700195
-41.9972038269 -6.8953804970 10.3109073639
-42.0270881653 -6.8973684311 10.1205425262
-42.0549468994 -6.8990688324 9.9296131134
-42.0790023804 -6.9002304077 9.7375946045
-42.1003761292 -6.9010119438 9.5448102951
-42.1225128174 -6.9019017220 9.3522624969
-42.1493301392 -6.9034562111 9.1611042023
-42.1831855774 -6.9060077667 8.9720382690
-42.2239799500 -6.9095444679 8.7850484848
-42.2701187134 -6.9138393402 8.5996770859
-42.3200912476 -6.9186787605 8.4154872894
-42.3733024597 -6.9239783287 8.2323112488
-42.4301872253 -6.9297990799 8.0502824783
-42.4917793274 -6.9362883568 7.8697166443
-42.5582847595 -6.9434752464 7.6906843185
-42.6272087097 -6.9510064125 7.5124497414
-42.6928291321 -6.9580698013 7.3332977295
-42.7479438782 -6.9636430740 7.1510567665
-42.7869758606 -6.9669351578 6.9640235901
-42.8081779480 -6.9676976204 6.7716403008
-42.8136901855 -6.9662337303 6.5745205879
-42.8080673218 -6.9631891251 6.3740143776
-42.7965126038 -6.9593029022 6.1716837883
-42.7835388184 -6.9552149773 5.9688916206
-42.7724075317 -6.9513878822 5.7666311264
-42.7652053833 -6.9481182098 5.5655436516
-42.7628669739 -6.9455385208 5.3659243584
-42.7653579712 -6.9436450005 5.1677732468
-42.7726669312 -6.9424343109 4.9710931778
-42.7859344482 -6.9420700073 4.7762479782
-42.8073081970 -6.9428567886 4.5839123726
-42.8382225037 -6.9449982643 4.3945479393
-42.8777656555 -6.9483656883 4.2078886032
-42.9225730896 -6.9524807930 4.0229043961
-42.9678840637 -6.9566674232 3.8381211758
-43.0088043213 -6.9602313042 3.6520097256
-43.0417556763 -6.9626636505 3.4634428024
-43.0659866333 -6.9638581276 3.2721679211
-43.0837097168 -6.9641284943 3.0788636208
-43.0984802246 -6.9639792442 2.8846383095
-43.1134796143 -6.9638628960 2.6904902458
-43.1310272217 -6.9641084671 2.4971530437
-43.1528129578 -6.9649558067 2.3051686287
-43.1798934937 -6.9665565491 2.1148808002
-43.2128028870 -6.9689846039 1.9264686108
-43.2523193359 -6.9723525047 1.7401930094
-43.2996215820 -6.9768271446 1.5564432144
-43.3540153503 -6.9823093414 1.3750106096
-43.4096908569 -6.9879751205 1.1940478086
-43.4560050964 -6.9923110008 1.0101317167
-43.4829254150 -6.9938907623 0.8200116158
-43.4876976013 -6.9923229218 0.6227627397
-43.4770545959 -6.9885635376 0.4205172062
-43.4637794495 -6.9844303131 0.2173916250
-43.4613914490 -6.9818434715 0.0177696906
-37.1680450439 4.7419013977 80.9454269409
-37.1570320129 4.7421865463 80.7475128174
-37.1371917725 4.7409038544 80.5490264893
-37.1117668152 4.7386283875 80.3501586914
-37.0861129761 4.7363138199 80.1512374878
-37.0654373169 4.7348837852 79.9525833130
-37.0525741577 4.7348418236 79.7543792725
-37.0485153198 4.7363653183 79.5567092896
-37.0538177490 4.7395520210 79.3596343994
-37.0677070618 4.7442641258 79.1631088257
-37.0864257813 4.7498340607 78.9669036865
-37.1043930054 4.7552714348 78.7706604004
-37.1175994873 4.7598619461 78.5741119385
-37.1254425049 4.7635002136 78.3771972656
-37.1297111511 4.7665033340 78.1800384521
-37.1325759888 4.7692570686 77.9827728271
-37.1354675293 4.7720155716 77.7854995728
-37.1389312744 4.7748756409 77.5882644653
-37.1429176331 4.7778291702 77.3910522461
-37.1470375061 4.7808065414 77.1938400269
-37.1507873535 4.7837181091 76.9965972900
-37.1537857056 4.7864961624 76.7992858887
-37.1559066772 4.7891187668 76.6019058228
-37.1572685242 4.7916064262 76.4044570923
-37.1580619812 4.7939934731 76.2069549561
-37.1584663391 4.7963118553 76.0094070435
-37.1586189270 4.7985854149 75.8118362427
-37.1585998535 4.8008284569 75.6142349243
-37.1584129333 4.8030414581 75.4166030884
-37.1579627991 4.8052086830 75.2189407349
-37.1571655273 4.8073143959 75.0212402344
-37.1561164856 4.8093752861 74.8235015869
-37.1553192139 4.8114814758 74.6257705688
-37.1559829712 4.8138461113 74.4281463623
-37.1600379944 4.8168139458 74.2307815552
-37.1694335938 4.8207292557 74.0338516235
-37.1846046448 4.8256692886 73.8373870850
-37.2035865784 4.8312859535 73.6412506104
-37.2231483459 4.8370051384 73.4451751709
-37.2410011292 4.8424210548 73.2489700317
-37.2567443848 4.8474621773 73.0525894165
-37.2708740234 4.8522171974 72.8560791016
-37.2834625244 4.8566985130 72.6594390869
-37.2936744690 4.8607583046 72.4626007080
-37.3000297546 4.8641338348 72.2654190063
-37.3006973267 4.8665008545 72.0677337646
-37.2939491272 4.8675522804 71.8693771362
-37.2794876099 4.8672351837 71.6703109741
-37.2606124878 4.8661355972 71.4708099365
-37.2452239990 4.8656554222 71.2715911865
-37.2434959412 4.8675985336 71.0735931396
-37.2631759644 4.8733382225 70.8775405884
-37.3057785034 4.8831439018 70.6836318970
-37.3658180237 4.8960404396 70.4913864136
-37.4325599670 4.9101252556 70.2998275757
-37.4935150146 4.9231834412 70.1078033447
-37.5384864807 4.9334063530 69.9143218994
-37.5624580383 4.9399051666 69.7188644409
-37.5662155151 4.9428195953 69.5214843750
-37.5554466248 4.9431591034 69.3226776123
-37.5388107300 4.9424586296 69.1232757568
-37.5243263245 4.9421391487 68.9240493774
-37.5152397156 4.9427771568 68.7253265381
-37.5090522766 4.9439296722 68.5268630981
-37.5013618469 4.9448156357 68.3282394409
-37.4907760620 4.9451894760 68.1292877197
-37.4797706604 4.9454889297 67.9302749634
-37.4715957642 4.9462900162 67.7315216064
-37.4677467346 4.9478583336 67.5331954956
-37.4684867859 4.9502396584 67.3353195190
-37.4745407104 4.9535636902 67.1379852295
-37.4873199463 4.9580788612 66.9413528442
-37.5072097778 4.9638547897 66.7454681396
-37.5321121216 4.9705181122 66.5501327515
-37.5580558777 4.9773654938 66.3549194336
-37.5814056396 4.9837536812 66.1594543457
-37.6003723145 4.9893651009 65.9635314941
-37.6148490906 4.9941806793 65.7671356201
-37.6254386902 4.9983081818 65.5703125000
-37.6327629089 5.0018568039 65.3731384277
-37.6371498108 5.0048842430 65.1756286621
-37.6385803223 5.0073890686 64.9777908325
-37.6367492676 5.0093154907 64.7795715332
-37.6310882568 5.0105648041 64.5809097290
-37.6209106445 5.0110130310 64.3817214966
-37.6055641174 5.0105471611 64.1819152832
-37.5846519470 5.0090961456 63.9814376831
-37.5583305359 5.0066862106 63.7803001404
-37.5280647278 5.0035796165 63.5786628723
-37.4978790283 5.0004868507 63.3769798279
-37.4744873047 4.9985985756 63.1760406494
-37.4648284912 4.9991421700 62.9766731262
-37.4719238281 5.0026521683 62.7792549133
-37.4929771423 5.0086340904 62.5834922791
-37.5217399597 5.0159807205 62.3886680603
-37.5527992249 5.0237336159 62.1941375732
-37.5839271545 5.0314979553 61.9996452332
-37.6151542664 5.0392804146 61.8051910400
-37.6463088989 5.0470485687 61.6107521057
-37.6754646301 5.0544633865 61.4160995483
-37.6998252869 5.0610289574 61.2208747864
-37.7178306580 5.0664696693 61.0248832703
-37.7301597595 5.0709052086 60.8281974792
-37.7387657166 5.0746822357 60.6310462952
-37.7454795837 5.0781240463 60.4336547852
-37.7515449524 5.0814514160 60.2361755371
-37.7580261230 5.0848522186 60.0387458801
-37.7660751343 5.0885305405 59.8415107727
-37.7762527466 5.0925860405 59.6445465088
-37.7871551514 5.0967693329 59.4476776123
-37.7953147888 5.1004676819 59.2504501343
-37.7977409363 5.1031513214 59.0524749756
-37.7949562073 5.1049132347 58.8538093567
-37.7907943726 5.1064314842 58.6549415588
-37.7891197205 5.1083903313 58.4563865662
-37.7913551331 5.1110405922 58.2583351135
-37.7968788147 5.1142725945 58.0607147217
-37.8046836853 5.1179084778 57.8633918762
-37.8138656616 5.1217880249 57.6662521362
-37.8228950500 5.1256403923 57.4690895081
-37.8292541504 5.1290211678 57.2715644836
-37.8305053711 5.1314978600 57.0733337402
-37.8260040283 5.1329579353 56.8743019104
-37.8177070618 5.1337466240 56.6747283936
-37.8093147278 5.1345186234 56.4751205444
-37.8044052124 5.1359071732 56.2759704590
-37.8051147461 5.1382889748 56.0775871277
-37.8122444153 5.1418066025 55.8800926208
-37.8260650635 5.1465067863 55.6835403442
-37.8463897705 5.1523566246 55.4879150391
-37.8717727661 5.1591014862 55.2930221558
-37.8990974426 5.1661882401 55.0984230042
-37.9250335693 5.1730298996 54.9036521912
-37.9484558105 5.1794271469 54.7085342407
-37.9709815979 5.1856656075 54.5133056641
-37.9947204590 5.1921181679 54.3182678223
-38.0197105408 5.1987919807 54.1234321594
-38.0438613892 5.2053165436 53.9284896851
-38.0648345947 5.2112798691 53.7330970764
-38.0815086365 5.2164831161 53.5370826721
-38.0939750671 5.2209429741 53.3404464722
-38.1031684875 5.2248239517 53.1433258057
-38.1108894348 5.2284455299 52.9459838867
-38.1198921204 5.2322926521 52.7488327026
-38.1332092285 5.2369031906 52.5523338318
-38.1525573730 5.2425785065 52.3567504883
-38.1764106750 5.2490491867 52.1618728638
-38.1995964050 5.2554030418 51.9669075012
-38.2157897949 5.2605199814 51.7708816528
-38.2214202881 5.2637720108 51.5732307434
-38.2177467346 5.2653803825 51.3741302490
-38.2095794678 5.2661952972 51.1743125916
-38.2024993896 5.2672023773 50.9746398926
-38.2002716064 5.2690663338 50.7757072449
-38.2033653259 5.2718706131 50.5775985718
-38.2096099854 5.2752313614 50.3799819946
-38.2166938782 5.2787404060 50.1824913025
-38.2241668701 5.2823185921 49.9850578308
-38.2333412170 5.2861967087 49.7878952026
-38.2459640503 5.2906837463 49.5912857056
-38.2628135681 5.2959179878 49.3953628540
-38.2825737000 5.3016648293 49.1999206543
-38.3014297485 5.3072524071 49.0043449402
-38.3145790100 5.3118329048 48.8078460693
-38.3192863464 5.3149223328 48.6099624634
-38.3169746399 5.3167729378 48.4109191895
-38.3123435974 5.3182144165 48.2114715576
-38.3107109070 5.3201851845 48.0125045776
-38.3160438538 5.3233857155 47.8146858215
-38.3300514221 5.3281173706 47.6183090210
-38.3515434265 5.3341693878 47.4231987000
-38.3764572144 5.3408260345 47.2286758423
-38.3996124268 5.3471717834 47.0338783264
-38.4174041748 5.3525714874 46.8381843567
-38.4291839600 5.3569087982 46.6414718628
-38.4364013672 5.3604421616 46.4439811707
-38.4409713745 5.3635077477 46.2460327148
-38.4442939758 5.3663535118 46.0478630066
-38.4471588135 5.3691186905 45.8496017456
-38.4498977661 5.3718624115 45.6513137817
-38.4524955750 5.3745808601 45.4529876709
-38.4547195435 5.3772330284 45.2545890808
-38.4563560486 5.3797817230 45.0560722351
-38.4574775696 5.3822398186 44.8574562073
-38.4586868286 5.3847136497 44.6588439941
-38.4612541199 5.3874268532 44.4604644775
-38.4671478271 5.3907270432 44.2626647949
-38.4787063599 5.3950266838 44.0658721924
-38.4975280762 5.4006071091 43.8703880310
-38.5227355957 5.4073143005 43.6760635376
-38.5501174927 5.4144034386 43.4821548462
-38.5738105774 5.4208431244 43.2875976563
-38.5899543762 5.4259500504 43.0916786194
-38.5990257263 5.4298105240 42.8944778442
-38.6046066284 5.4330558777 42.6966362000
-38.6097488403 5.4362235069 42.4987068176
-38.6147727966 5.4393706322 42.3007469177
-38.6183052063 5.4422540665 42.1025047302
-38.6195564270 5.4447364807 41.9038314819
-38.6192436218 5.4469432831 41.7048530579
-38.6190185547 5.4491648674 41.5058784485
-38.6206474304 5.4517140388 41.3072395325
-38.6258010864 5.4548840523 41.1092529297
-38.6361846924 5.4589767456 40.9122505188
-38.6535072327 5.4642915726 40.7165641785
-38.6789207458 5.4710330963 40.5224266052
-38.7126045227 5.4792313576 40.3298912048
-38.7539138794 5.4887733459 40.1388511658
-38.8015556335 5.4994306564 39.9490661621
-38.8533592224 5.5108208656 39.7601318359
-38.9062843323 5.5224080086 39.5714721680
-38.9570045471 5.5336060524 39.3824348450
-39.0027503967 5.5439267159 39.1924819946
-39.0425949097 5.5532078743 39.0014190674
-39.0787506104 5.5618381500 38.8096733093
-39.1158523560 5.5706348419 38.6181449890
-39.1574745178 5.5802273750 38.4275436401
-39.2025451660 5.5904269218 38.2376670837
-39.2454528809 5.6002449989 38.0474052429
-39.2800559998 5.6086001396 37.8555259705
-39.3035736084 5.6150021553 37.6614608765
-39.3167343140 5.6195802689 37.4653358459
-39.3211288452 5.6226134300 37.2674446106
-39.3172721863 5.6241946220 37.0678825378
-39.3056488037 5.6244077682 36.8667259216
-39.2892074585 5.6237735748 36.6645622253
-39.2737922668 5.6233191490 36.4625701904
-39.2648773193 5.6240105629 36.2618789673
-39.2640113831 5.6261196136 36.0628128052
-39.2688369751 5.6292309761 35.8649101257
-39.2759742737 5.6327486038 35.6674728394
-39.2831573486 5.6362743378 35.4700393677
-39.2894058228 5.6396360397 35.2724113464
-39.2943992615 5.6427769661 35.0745162964
-39.2980995178 5.6456904411 34.8763427734
-39.3007965088 5.6484274864 34.6779518127
-39.3034591675 5.6511578560 34.4795417786
-39.3082923889 5.6542711258 34.2815818787
-39.3189926147 5.6584167480 34.0848579407
-39.3395805359 5.6643018723 33.8902320862
-39.3714370728 5.6721711159 33.6980209351
-39.4104118347 5.6812915802 33.5073623657
-39.4473228455 5.6900491714 33.3162956238
-39.4727554321 5.6967868805 33.1227951050
-39.4826087952 5.7007822990 32.9259529114
-39.4798011780 5.7025508881 32.7263755798
-39.4711875916 5.7032980919 32.5255241394
-39.4628028870 5.7040848732 32.3246917725
-39.4573402405 5.7053871155 32.1244773865
-39.4547767639 5.7071986198 31.9248771667
-39.4542694092 5.7093725204 31.7257118225
-39.4557495117 5.7118964195 31.5269680023
-39.4606056213 5.7150139809 31.3289604187
-39.4713439941 5.7191658020 31.1322479248
-39.4902877808 5.7247614861 30.9373569489
-39.5183334351 5.7319579124 30.7445049286
-39.5550193787 5.7406730652 30.5536060333
-39.5994033813 5.7507414818 30.3644638062
-39.6500892639 5.7619180679 30.1767826080
-39.7044525146 5.7737412453 29.9899826050
-39.7587509155 5.7855515480 29.8032245636
-39.8093452454 5.7967100143 29.6156826019
-39.8537368774 5.8067774773 29.4267845154
-39.8910636902 5.8156023026 29.2363204956
-39.9224395752 5.8233799934 29.0445327759
-39.9507331848 5.8306159973 28.8520641327
-39.9792900085 5.8378977776 28.6596813202
-40.0101661682 5.8455877304 28.4678554535
-40.0427627563 5.8535790443 28.2764530182
-40.0738182068 5.8612990379 28.0847244263
-40.0995368958 5.8680815697 27.8917808533
-40.1184768677 5.8736720085 27.6972789764
-40.1321563721 5.8783373833 27.5015583038
-40.1425590515 5.8824272156 27.3050727844
-40.1500854492 5.8860116005 27.1079139709
-40.1549453735 5.8891272545 26.9101219177
-40.1596221924 5.8922109604 26.7122802734
-40.1680335999 5.8959512711 26.5153179169
-40.1820487976 5.9006757736 26.3196830750
-40.2002410889 5.9061341286 26.1250457764
-40.2203826904 5.9119348526 25.9308872223
-40.2423439026 5.9180550575 25.7371768951
-40.2686042786 5.9249310493 25.5445137024
-40.3025436401 5.9331550598 25.3537197113
-40.3456077576 5.9429817200 25.1651592255
-40.3948783875 5.9538979530 24.9781436920
-40.4432830811 5.9646620750 24.7909698486
-40.4830474854 5.9739074707 24.6017398834
-40.5093154907 5.9807820320 24.4092578888
-40.5210304260 5.9851007462 24.2132339478
-40.5197792053 5.9871425629 24.0140323639
-40.5092124939 5.9875483513 23.8125247955
-40.4950790405 5.9873280525 23.6101093292
-40.4840469360 5.9876527786 23.4084320068
-40.4813919067 5.9894490242 23.2088012695
-40.4892921448 5.9930982590 23.0117778778
-40.5065498352 5.9983906746 22.8170833588
-40.5294303894 6.0046701431 22.6238021851
-40.5535049438 6.0111589432 22.4308376312
-40.5757789612 6.0173320770 22.2374401093
-40.5954780579 6.0230522156 22.0434074402
-40.6130027771 6.0283908844 21.8488388062
-40.6285896301 6.0333890915 21.6537876129
-40.6419029236 6.0379886627 21.4581699371
-40.6526107788 6.0421304703 21.2618904114
-40.6610946655 6.0458817482 21.0650463104
-40.6689262390 6.0495190620 20.8680324554
-40.6788520813 6.0535235405 20.6715526581
-40.6938095093 6.0584111214 20.4763641357
-40.7151451111 6.0644183159 20.2828254700
-40.7416381836 6.0713300705 20.0906333923
-40.7711257935 6.0787668228 19.8992385864
-40.8036499023 6.0867357254 19.7086544037
-40.8426361084 6.0958385468 19.5197830200
-40.8923454285 6.1068224907 19.3337440491
-40.9539070129 6.1198844910 19.1508560181
-41.0234832764 6.1343522072 18.9701347351
-41.0937347412 6.1489372253 18.7896690369
-41.1567497253 6.1622519493 18.6073741913
-41.2067489624 6.1732826233 18.4217109680
-41.2418365479 6.1816978455 18.2321510315
-41.2644004822 6.1879158020 18.0393009186
-41.2799797058 6.1929092407 17.8446083069
-41.2951889038 6.1978368759 17.6498241425
-41.3151664734 6.2036008835 17.4563198090
-41.3413391113 6.2104516029 17.2644901276
-41.3708992004 6.2178959846 17.0735912323
-41.3989677429 6.2250776291 16.8823127747
-41.4219398499 6.2313661575 16.6896839142
-41.4391517639 6.2366447449 16.4955139160
-41.4521331787 6.2411808968 16.3002052307
-41.4631538391 6.2453737259 16.1043663025
-41.4746818542 6.2496552467 15.9086675644
-41.4895324707 6.2545194626 15.7138776779
-41.5105552673 6.2604656219 15.5207843781
-41.5395011902 6.2677998543 15.3298778534
-41.5760726929 6.2764711380 15.1410951614
-41.6182441711 6.2861227989 14.9538898468
-41.6632499695 6.2962708473 14.7675094604
-41.7082443237 6.3064169884 14.5811719894
-41.7505798340 6.3160963058 14.3941402435
-41.7879257202 6.3249006271 14.2057619095
-41.8180313110 6.3324360847 14.0153989792
-41.8389778137 6.3383660316 13.8225002289
-41.8505516052 6.3426537514 13.6269884109
-41.8551979065 6.3457279205 13.4295330048
-41.8565025330 6.3482160568 13.2311286926
-41.8566169739 6.3504962921 13.0323781967
-41.8559074402 6.3526320457 12.8333797455
-41.8547363281 6.3546872139 12.6342372894
-41.8545532227 6.3569159508 12.4353609085
-41.8571319580 6.3596282005 12.2372570038
-41.8645858765 6.3631944656 12.0405349731
-41.8812408447 6.3683729172 11.8464431763
-41.9137992859 6.3763360977 11.6569194794
-41.9670753479 6.3879275322 11.4733791351
-42.0390510559 6.4027934074 11.2952823639
-42.1208038330 6.4193706512 11.1200885773
-42.2015419006 6.4357686043 10.9446935654
-42.2738151550 6.4506835938 10.7669353485
-42.3351287842 6.4636783600 10.5860719681
-42.3861122131 6.4748644829 10.4022674561
-42.4283180237 6.4845118523 10.2159509659
-42.4638061523 6.4929833412 10.0277109146
-42.4956092834 6.5008091927 9.8384237289
-42.5264968872 6.5084743500 9.6488952637
-42.5567703247 6.5160326958 9.4592132568
-42.5840759277 6.5230703354 9.2686805725
-42.6057815552 6.5291275978 9.0765132904
-42.6211509705 6.5340752602 8.8824815750
-42.6314163208 6.5381298065 8.6869411469
-42.6385993958 6.5416450500 8.4904823303
-42.6443977356 6.5449175835 8.2936058044
-42.6496009827 6.5480861664 8.0965461731
-42.6541404724 6.5511388779 7.8992805481
-42.6578903198 6.5540533066 7.7017707825
-42.6616592407 6.5569720268 7.5042595863
-42.6672019958 6.5601997375 7.3072729111
-42.6758918762 6.5639791489 7.1112332344
-42.6875343323 6.5682749748 6.9160866737
-42.7009353638 6.5728783607 6.7214751244
-42.7158050537 6.5777392387 6.5273151398
-42.7339591980 6.5831732750 6.3341617584
-42.7588233948 6.5897817612 6.1430711746
-42.7939834595 6.5981917381 5.9551525116
-42.8415069580 6.6087632179 5.7710609436
-42.9008178711 6.6213955879 5.5906434059
-42.9688720703 6.6355566978 5.4129843712
-43.0415306091 6.6505222321 5.2368230820
-43.1149826050 6.6656255722 5.0609884262
-43.1861419678 6.6803269386 4.8845248222
-43.2521286011 6.6941232681 4.7065339088
-43.3098907471 6.7064800262 4.5260529518
-43.3567504883 6.7169299126 4.3422312737
-43.3916740417 6.7252922058 4.1547236443
-43.4159698486 6.7317962646 3.9639177322
-43.4325790405 6.7369565964 3.7707169056
-43.4443855286 6.7412762642 3.5760116577
-43.4531135559 6.7450580597 3.3803374767
-43.4598159790 6.7484850883 3.1840209961
-43.4662628174 6.7518687248 2.9876203537
-43.4756050110 6.7557582855 2.7921330929
-43.4912490845 6.7607483864 2.5986480713
-43.5145568848 6.7670788765 2.4076128006
-43.5433197021 6.7743620872 2.2183361053
-43.5723953247 6.7817001343 2.0291848183
-43.5959663391 6.7880759239 1.8382923603
-43.6097908020 6.7927474976 1.6442863941
-43.6128883362 6.7955455780 1.4468327761
-43.6080474854 6.7969560623 1.2468088865
-43.6003341675 6.7978649139 1.0458374023
-43.5947647095 6.7991485596 0.8455366492
-43.5954627991 6.8015275002 0.6472493410
-43.6061096191 6.8056445122 0.4521839917
-43.6299934387 6.8120741844 0.2614325583
-43.6701126099 6.8213400841 0.0759993717
-33.7542190552 15.9263639450 80.9368286133
-33.7413825989 15.9220199585 80.7386627197
-33.7186546326 15.9124002457 80.5397949219
-33.6906433105 15.8999633789 80.3405227661
-33.6647567749 15.8886594772 80.1413497925
-33.6468505859 15.8816127777 79.9426803589
-33.6380996704 15.8794498444 79.7446289063
-33.6367416382 15.8812322617 79.5470733643
-33.6417732239 15.8864221573 79.3499679565
-33.6532783508 15.8950634003 79.1533279419
-33.6696739197 15.9063158035 78.9570541382
-33.6866683960 15.9178838730 78.7608413696
-33.6996536255 15.9273166656 78.5643310547
-33.7066001892 15.9335269928 78.3673706055
-33.7084693909 15.9370307922 78.1700286865
-33.7077102661 15.9391326904 77.9724655151
-33.7065505981 15.9410209656 77.7748641968
-33.7060813904 15.9432773590 77.5772933960
-33.7062072754 15.9458503723 77.3797683716
-33.7061347961 15.9483175278 77.1822128296
-33.7050170898 15.9502305984 76.9845581055
-33.7024497986 15.9513692856 76.7867736816
-33.6986160278 15.9518299103 76.5888671875
-33.6941184998 15.9519395828 76.3908920288
-33.6896896362 15.9520874023 76.1929016113
-33.6859359741 15.9525928497 75.9949493408
-33.6832351685 15.9536609650 75.7970733643
-33.6817398071 15.9553728104 75.5992813110
-33.6813278198 15.9576616287 75.4015655518
-33.6815834045 15.9603052139 75.2038955688
-33.6818962097 15.9629802704 75.0062255859
-33.6818161011 15.9654483795 74.8085021973
-33.6815185547 15.9677982330 74.6107559204
-33.6820411682 15.9705858231 74.4130630493
-33.6851768494 15.9747667313 74.2155990601
-33.6929702759 15.9814310074 74.0185546875
-33.7067070007 15.9912643433 73.8220520020
-33.7256126404 16.0038528442 73.6260375977
-33.7464752197 16.0174865723 73.4302139282
-33.7652435303 16.0300006866 73.2342224121
-33.7794723511 16.0400943756 73.0378112793
-33.7894515991 16.0479240417 72.8409957886
-33.7974472046 16.0546970367 72.6439971924
-33.8063735962 16.0619640350 72.4470901489
-33.8185348511 16.0709571838 72.2504959106
-33.8343353271 16.0818901062 72.0542678833
-33.8516197205 16.0936145782 71.8581924438
-33.8669509888 16.1042957306 71.6619338989
-33.8780326843 16.1127109528 71.4652633667
-33.8849639893 16.1189155579 71.2681732178
-33.8894042969 16.1237926483 71.0708312988
-33.8930473328 16.1282444000 70.8733978271
-33.8967819214 16.1327438354 70.6759643555
-33.9006538391 16.1373195648 70.4785461426
-33.9042091370 16.1417236328 70.2810821533
-33.9069709778 16.1457080841 70.0835266113
-33.9088859558 16.1492385864 69.8858795166
-33.9103622437 16.1525363922 69.6881713867
-33.9121246338 16.1559886932 69.4904861450
-33.9151229858 16.1600952148 69.2929229736
-33.9206695557 16.1655635834 69.0956268311
-33.9305534363 16.1733417511 68.8988113403
-33.9463882446 16.1842899323 68.7026443481
-33.9681129456 16.1983795166 68.5071487427
-33.9928588867 16.2140789032 68.3120117188
-34.0157890320 16.2288074493 68.1166915894
-34.0323867798 16.2401638031 67.9206771851
-34.0399284363 16.2466926575 67.7236328125
-34.0373115540 16.2478103638 67.5254287720
-34.0248718262 16.2436943054 67.3260726929
-34.0050163269 16.2356262207 67.1258316040
-33.9825744629 16.2261829376 66.9252395630
-33.9634552002 16.2185058594 66.7249984741
-33.9524040222 16.2151317596 66.5256729126
-33.9517898560 16.2173175812 66.3275604248
-33.9615821838 16.2250461578 66.1306838989
-33.9794960022 16.2371063232 65.9347839355
-34.0012931824 16.2512302399 65.7393646240
-34.0221328735 16.2648468018 65.5438537598
-34.0385322571 16.2760963440 65.3478088379
-34.0490570068 16.2842178345 65.1510543823
-34.0533714294 16.2890281677 64.9535369873
-34.0509605408 16.2902565002 64.7551727295
-34.0408172607 16.2873687744 64.5558242798
-34.0223274231 16.2800331116 64.3553924561
-33.9967613220 16.2689266205 64.1540298462
-33.9679718018 16.2561073303 63.9522056580
-33.9411277771 16.2443237305 63.7505760193
-33.9201965332 16.2356891632 63.5496597290
-33.9064445496 16.2308788300 63.3496360779
-33.8989143372 16.2293834686 63.1503868103
-33.8957824707 16.2302341461 62.9516944885
-33.8953819275 16.2325363159 62.7533454895
-33.8964614868 16.2356281281 62.5551757813
-33.8981208801 16.2390289307 62.3570785522
-33.8997306824 16.2424011230 62.1589622498
-33.9010047913 16.2455978394 61.9607887268
-33.9021148682 16.2487068176 61.7625846863
-33.9038276672 16.2521362305 61.5644531250
-33.9077148438 16.2567234039 61.3666076660
-33.9161300659 16.2637214661 61.1693801880
-33.9312553406 16.2742938995 60.9730758667
-33.9533996582 16.2886047363 60.7777595520
-33.9800071716 16.3052902222 60.5830841064
-34.0068473816 16.3221015930 60.3884696960
-34.0305900574 16.3372612000 60.1934432983
-34.0502777100 16.3502635956 59.9978637695
-34.0663948059 16.3613624573 59.8017883301
-34.0787811279 16.3704757690 59.6051940918
-34.0861434937 16.3769149780 59.4078788757
-34.0882720947 16.3805656433 59.2098083496
-34.0885314941 16.3832206726 59.0114555359
-34.0929145813 16.3880729675 58.8136940002
-34.1058731079 16.3974895477 58.6171836853
-34.1273880005 16.4114627838 58.4219398499
-34.1541023254 16.4282016754 58.2274894714
-34.1822929382 16.4457302094 58.0332794189
-34.2090568542 16.4624977112 57.8388900757
-34.2314910889 16.4769573212 57.6438713074
-34.2464408875 16.4874343872 57.4477424622
-34.2516937256 16.4927482605 57.2501525879
-34.2473907471 16.4929733276 57.0511016846
-34.2365722656 16.4897327423 56.8510360718
-34.2247467041 16.4859561920 56.6507873535
-34.2181167603 16.4849452972 56.4513092041
-34.2208976746 16.4889431000 56.2532768250
-34.2333602905 16.4980983734 56.0567436218
-34.2521324158 16.5106086731 55.8612022400
-34.2726745605 16.5240612030 55.6659584045
-34.2922515869 16.5370006561 55.4705772400
-34.3114051819 16.5497131348 55.2751426697
-34.3331565857 16.5638122559 55.0801391602
-34.3604354858 16.5808486938 54.8860435486
-34.3928298950 16.6006088257 54.6927947998
-34.4250221252 16.6202621460 54.4995498657
-34.4490509033 16.6355705261 54.3050117493
-34.4591751099 16.6434764862 54.1082267761
-34.4552688599 16.6439151764 53.9091453552
-34.4422111511 16.6394844055 53.7085418701
-34.4264450073 16.6336116791 53.5074577332
-34.4127311707 16.6288337708 53.3066787720
-34.4031753540 16.6262664795 53.1065635681
-34.3982124329 16.6261463165 52.9071922302
-34.3977584839 16.6284217834 52.7085571289
-34.4013595581 16.6328601837 52.5105972290
-34.4079055786 16.6388626099 52.3131256104
-34.4156112671 16.6454830170 52.1158523560
-34.4225997925 16.6517219543 51.9184532166
-34.4277420044 16.6569786072 51.7207374573
-34.4313812256 16.6614360809 51.5227546692
-34.4354858398 16.6661396027 51.3248481750
-34.4429779053 16.6726455688 51.1275215149
-34.4563140869 16.6822643280 50.9312133789
-34.4758262634 16.6951656342 50.7359962463
-34.4991340637 16.7100887299 50.5414657593
-34.5226898193 16.7251415253 50.3469963074
-34.5440063477 16.7390041351 50.1521492004
-34.5619621277 16.7510776520 49.9567260742
-34.5751152039 16.7605953217 49.7604560852
-34.5810737610 16.7662868500 49.5629005432
-34.5783653259 16.7673664093 49.3637809753
-34.5683479309 16.7645587921 49.1633186340
-34.5549087524 16.7599296570 48.9622116089
-34.5425338745 16.7558670044 48.7612648010
-34.5341453552 16.7539253235 48.5610198975
-34.5292434692 16.7538414001 48.3613929749
-34.5240402222 16.7535934448 48.1616897583
-34.5146141052 16.7511024475 47.9611816406
-34.5006332397 16.7461891174 47.7598037720
-34.4859657288 16.7409095764 47.5582656860
-34.4763565063 16.7383213043 47.3576431274
-34.4767913818 16.7410755157 47.1588821411
-34.4899444580 16.7505950928 46.9625129700
-34.5155601501 16.7667446136 46.7685127258
-34.5506286621 16.7879199982 46.5763359070
-34.5901718140 16.8114738464 46.3850517273
-34.6283683777 16.8343124390 46.1935539246
-34.6602287292 16.8537826538 46.0008773804
-34.6834640503 16.8686599731 45.8065681458
-34.6990699768 16.8794841766 45.6108055115
-34.7102851868 16.8879718781 45.4141960144
-34.7210273743 16.8962078094 45.2174987793
-34.7350082397 16.9061641693 45.0214347839
-34.7548980713 16.9192638397 44.8265457153
-34.7809867859 16.9356613159 44.6328964233
-34.8103828430 16.9538154602 44.4399261475
-34.8384323120 16.9712562561 44.2467193604
-34.8615684509 16.9860820770 44.0525627136
-34.8785171509 16.9976158142 43.8571815491
-34.8890914917 17.0057601929 43.6605339050
-34.8926315308 17.0101642609 43.4624710083
-34.8878479004 17.0101451874 43.2627182007
-34.8742866516 17.0054569244 43.0611572266
-34.8546714783 16.9975509644 42.8583374023
-34.8355445862 16.9899044037 42.6555709839
-34.8237495422 16.9861545563 42.4542732239
-34.8214149475 16.9874401093 42.2548942566
-34.8250846863 16.9919147491 42.0567436218
-34.8297119141 16.9968986511 41.8587837219
-34.8326148987 17.0009670258 41.6604576111
-34.8341178894 17.0042896271 41.4618301392
-34.8361625671 17.0079021454 41.2633094788
-34.8413619995 17.0131912231 41.0654411316
-34.8526535034 17.0217189789 40.8688545227
-34.8726348877 17.0348663330 40.6741104126
-34.9021682739 17.0530910492 40.4814147949
-34.9394950867 17.0754585266 40.2904090881
-34.9810371399 17.1000671387 40.1003456116
-35.0230979919 17.1249485016 39.9104423523
-35.0624580383 17.1483955383 39.7200050354
-35.0960769653 17.1687908173 39.5283737183
-35.1217536926 17.1849613190 39.3350524902
-35.1396942139 17.1970214844 39.1400756836
-35.1531600952 17.2067031860 38.9441375732
-35.1672058105 17.2166938782 38.7483329773
-35.1865921021 17.2295207977 38.5537071228
-35.2140731812 17.2466506958 38.3608818054
-35.2499160767 17.2682247162 38.1699333191
-35.2925109863 17.2933864594 37.9805221558
-35.3388671875 17.3205451965 37.7919921875
-35.3843498230 17.3472423553 37.6033248901
-35.4232978821 17.3704643250 37.4132499695
-35.4516487122 17.3880538940 37.2208328247
-35.4693450928 17.3999805450 37.0260467529
-35.4798622131 17.4080924988 36.8296470642
-35.4873924255 17.4146175385 36.6325759888
-35.4945564270 17.4209461212 36.4354171753
-35.5019264221 17.4273853302 36.2383079529
-35.5088920593 17.4336109161 36.0410995483
-35.5147285461 17.4392337799 35.8436317444
-35.5192108154 17.4441375732 35.6458511353
-35.5226364136 17.4484825134 35.4478149414
-35.5255050659 17.4525299072 35.2496490479
-35.5281829834 17.4564743042 35.0514259338
-35.5306510925 17.4603118896 34.8531455994
-35.5324325562 17.4637813568 34.6546974182
-35.5328102112 17.4665050507 34.4559097290
-35.5316085815 17.4683914185 34.2567367554
-35.5299568176 17.4700374603 34.0574455261
-35.5298500061 17.4725036621 33.8585052490
-35.5324897766 17.4764308929 33.6602058411
-35.5372390747 17.4814796448 33.4624023438
-35.5425262451 17.4868144989 33.2647171021
-35.5474662781 17.4919605255 33.0669479370
-35.5522804260 17.4970436096 32.8691406250
-35.5576477051 17.5024204254 32.6714630127
-35.5640563965 17.5083503723 32.4740333557
-35.5718879700 17.5150356293 32.2769470215
-35.5818672180 17.5228633881 32.0803794861
-35.5954399109 17.5325965881 31.8846931458
-35.6143341064 17.5451583862 31.6903152466
-35.6393661499 17.5609798431 31.4974594116
-35.6695594788 17.5795440674 31.3058986664
-35.7028312683 17.5997409821 31.1151294708
-35.7372627258 17.6205539703 30.9246807098
-35.7709388733 17.6409664154 30.7340831757
-35.8006401062 17.6592674255 30.5425338745
-35.8220024109 17.6731376648 30.3489303589
-35.8320617676 17.6810035706 30.1525115967
-35.8319892883 17.6834907532 29.9535522461
-35.8272628784 17.6835041046 29.7534084320
-35.8246574402 17.6846466064 29.5537796021
