26.7694911957 27.6047229767 34.4191780090
26.7965278625 27.6277370453 34.2266769409
26.8251266479 27.6522617340 34.0346565247
26.8512554169 27.6744003296 33.8419570923
26.8695507050 27.6889686584 33.6470069885
26.8748550415 27.6909847260 33.4482841492
26.8658180237 27.6791419983 33.2453575134
26.8475914001 27.6584167480 33.0396995544
26.8302555084 27.6385517120 32.8342552185
26.8235492706 27.6289596558 32.6319046021
26.8323440552 27.6343479156 32.4341125488
26.8561496735 27.6542415619 32.2407836914
26.8914108276 27.6852054596 32.0508918762
26.9331283569 27.7224140167 31.8629741669
26.9751605988 27.7599239349 31.6752071381
27.0114841461 27.7919178009 31.4857845306
27.0387992859 27.8152065277 31.2936916351
27.0576419830 27.8303070068 31.0990695953
27.0707454681 27.8398609161 30.9027252197
27.0806884766 27.8463611603 30.7054252625
27.0888767242 27.8511638641 30.5075893402
27.0958003998 27.8547439575 30.3093662262
27.1015987396 27.8572368622 30.1107940674
27.1064224243 27.8587894440 29.9119148254
27.1105175018 27.8596363068 29.7128028870
27.1141891479 27.8600711823 29.5135498047
27.1177577972 27.8604087830 29.3142547607
27.1215476990 27.8609619141 29.1150207520
27.1258468628 27.8620033264 28.9159336090
27.1308269501 27.8637046814 28.7170505524
27.1365222931 27.8660964966 28.5183849335
27.1429557800 27.8692035675 28.3199462891
27.1504325867 27.8733177185 28.1218299866
27.1598777771 27.8793354034 27.9243354797
27.1729755402 27.8888835907 27.7279987335
27.1917438507 27.9039154053 27.5334739685
27.2174682617 27.9256706238 27.3411884308
27.2495918274 27.9536132813 27.1509780884
27.2853660583 27.9850864410 26.9619808197
27.3204898834 28.0159320831 26.7728214264
27.3504028320 28.0417385101 26.5820255280
27.3720359802 28.0595397949 26.3885860443
27.3853130341 28.0692653656 26.1924571991
27.3930892944 28.0736713409 25.9945449829
27.3992652893 28.0765285492 25.7961082458
27.4067993164 28.0807018280 25.5981082916
27.4172096252 28.0876541138 25.4010505676
27.4311866760 28.0980529785 25.2051677704
27.4487571716 28.1119308472 25.0104789734
27.4684562683 28.1278648376 24.8165092468
27.4867668152 28.1424579620 24.6220970154
27.4995212555 28.1516761780 24.4258518219
27.5047302246 28.1536006927 24.2270984650
27.5042762756 28.1500473022 24.0264434814
27.5027275085 28.1454353333 23.8254032135
27.5045776367 28.1441116333 23.6254882813
27.5121212006 28.1482925415 23.4274768829
27.5247688293 28.1574058533 23.2311878204
27.5395278931 28.1685657501 23.0356197357
27.5526256561 28.1781177521 22.8394966125
27.5616760254 28.1837539673 22.6420021057
27.5668373108 28.1856307983 22.4431781769
27.5702800751 28.1858444214 22.2437610626
27.5748806000 28.1871795654 22.0447292328
27.5833892822 28.1922931671 21.8470325470
27.5981235504 28.2034282684 21.6514835358
27.6205501556 28.2220039368 21.4586067200
27.6502990723 28.2476615906 21.2682895660
27.6841716766 28.2773056030 21.0794429779
27.7164630890 28.3054237366 20.8900890350
27.7413082123 28.3263378143 20.6981735229
27.7559452057 28.3373813629 20.5027103424
27.7624301910 28.3405399323 20.3043918610
27.7662410736 28.3411102295 20.1051292419
27.7730197906 28.3445510864 19.9069023132
27.7860698700 28.3540592194 19.7108917236
27.8056354523 28.3698692322 19.5171985626
27.8295669556 28.3899021149 19.3250751495
27.8549480438 28.4113407135 19.1334972382
27.8796482086 28.4321174622 18.9417018890
27.9024868011 28.4510955811 18.7492675781
27.9224967957 28.4673385620 18.5558414459
27.9390430450 28.4802284241 18.3611869812
27.9529113770 28.4905300140 18.1655788422
27.9666252136 28.5006809235 17.9699230194
27.9831447601 28.5135459900 17.7752933502
28.0041179657 28.5307216644 17.5822944641
28.0289745331 28.5516548157 17.3907337189
28.0549926758 28.5737113953 17.1996250153
28.0780582428 28.5929126740 17.0074634552
28.0942096710 28.6054210663 16.8127880096
28.1019611359 28.6098079681 16.6150321960
28.1038150787 28.6084861755 16.4150981903
28.1047630310 28.6062870026 16.2148132324
28.1086616516 28.6069431305 16.0156097412
28.1161689758 28.6110897064 15.8177366257
28.1260032654 28.6174907684 15.6207275391
28.1374702454 28.6254673004 15.4243288040
28.1516151428 28.6360397339 15.2289381027
28.1705017090 28.6511974335 15.0353336334
28.1955966949 28.6723632813 14.8440818787
28.2265987396 28.6992473602 14.6550865173
28.2614173889 28.7298240662 14.4675712585
28.2968673706 28.7610130310 14.2803411484
28.3293209076 28.7893009186 14.0920190811
28.3555145264 28.8115348816 13.9013566971
28.3737068176 28.8260231018 13.7076711655
28.3842315674 28.8330917358 13.5110692978
28.3890018463 28.8345928192 13.3122644424
28.3906364441 28.8330593109 13.1122465134
28.3919239044 28.8311901093 12.9120817184
28.3956584930 28.8316860199 12.7128458023
28.4044628143 28.8370914459 12.5155620575
28.4202690125 28.8492717743 12.3209924698
28.4434852600 28.8686256409 12.1293144226
28.4726886749 28.8937740326 11.9399929047
28.5053749084 28.9222908020 11.7520666122
28.5389595032 28.9516811371 11.5645351410
28.5711326599 28.9797058105 11.3764925003
28.5999984741 29.0045280457 11.1871891022
28.6246509552 29.0252742767 10.9962625504
28.6455173492 29.0423564911 10.8038673401
28.6638202667 29.0569572449 10.6104784012
28.6807212830 29.0702018738 10.4165496826
28.6969375610 29.0827808380 10.2223615646
28.7128257751 29.0950450897 10.0280551910
28.7283725739 29.1069793701 9.8336238861
28.7427635193 29.1177940369 9.6387424469
28.7542285919 29.1257762909 9.4426956177
28.7609596252 29.1291770935 9.2447490692
28.7625923157 29.1276416779 9.0447435379
28.7606945038 29.1226882935 8.8432989120
28.7577819824 29.1167507172 8.6414232254
28.7560329437 29.1119403839 8.4399976730
28.7567787170 29.1095447540 8.2395658493
28.7607269287 29.1102504730 8.0404243469
28.7684192657 29.1145801544 7.8428015709
28.7806015015 29.1232566833 7.6470131874
28.7983036041 29.1372776031 7.4534940720
28.8223075867 29.1573982239 7.2625794411
28.8520164490 29.1830444336 7.0740413666
28.8847656250 29.2116374969 6.8867950439
28.9166641235 29.2394046783 6.6992387772
28.9445514679 29.2632884979 6.5100593567
28.9675006866 29.2823905945 6.3188614845
28.9870719910 29.2982234955 6.1262817383
29.0069084167 29.3143138885 5.9338312149
29.0317382813 29.3352394104 5.7434873581
29.0646820068 29.3640213013 5.5565719604
29.1034088135 29.3984050751 5.3721270561
29.1395034790 29.4302406311 5.1866278648
29.1643600464 29.4511928558 4.9964356422
29.1767463684 29.4600715637 4.8010015488
29.1834144592 29.4634132385 4.6031517982
29.1922836304 29.4688854218 4.4062309265
29.2065963745 29.4796295166 4.2116246223
29.2254009247 29.4947242737 4.0189418793
29.2471160889 29.5126361847 3.8275184631
29.2710628510 29.5327110291 3.6370732784
29.2966499329 29.5543746948 3.4473576546
29.3229217529 29.5767021179 3.2579662800
29.3491535187 29.5989913940 3.0685875416
29.3749065399 29.6208171844 2.8790321350
29.3993053436 29.6413307190 2.6889207363
29.4211273193 29.6593494415 2.4977197647
29.4400634766 29.6745758057 2.3052883148
29.4576110840 29.6884536743 2.1122689247
29.4765033722 29.7036361694 1.9198514223
29.4991092682 29.7224159241 1.7290738821
29.5258464813 29.7451992035 1.5401291847
29.5548477173 29.7701721191 1.3522087336
29.5834827423 29.7947940826 1.1641633511
29.6105060577 29.8178558350 0.9754424691
29.6365528107 29.8399696350 0.7863215208
29.6624908447 29.8619804382 0.5971833467
29.6877517700 29.8833332062 0.4077743888
29.7107009888 29.9024486542 0.2173672616
29.7307262421 29.9187335968 0.0256842226
32.3043746948 17.7371234894 80.5139236450
32.2923049927 17.7287960052 80.3153533936
32.2743682861 17.7176170349 80.1163558960
32.2583656311 17.7073764801 79.9174499512
32.2486839294 17.7002086639 79.7189483643
32.2462234497 17.6965522766 79.5209197998
32.2506294250 17.6962318420 79.3233566284
32.2607612610 17.6986961365 79.1261978149
32.2737045288 17.7025260925 78.9292449951
32.2848320007 17.7054729462 78.7321548462
32.2890663147 17.7050685883 78.5345687866
32.2826156616 17.6994724274 78.3361740112
32.2654266357 17.6886520386 78.1369476318
32.2426719666 17.6751270294 77.9372634888
32.2224311829 17.6628227234 77.7377243042
32.2103309631 17.6544761658 77.5387725830
32.2064781189 17.6501388550 77.3404312134
32.2073211670 17.6480846405 77.1424331665
32.2094497681 17.6466560364 76.9445266724
32.2113227844 17.6451034546 76.7465820313
32.2126464844 17.6432819366 76.5485839844
32.2133750916 17.6411705017 76.3505249023
32.2133750916 17.6387062073 76.1523971558
32.2124900818 17.6358108521 75.9541778564
32.2105484009 17.6324005127 75.7558517456
32.2072944641 17.6283531189 75.5574035645
32.2023277283 17.6234722137 75.3587799072
32.1953964233 17.6176357269 75.1599807739
32.1871414185 17.6111545563 74.9610366821
32.1796951294 17.6050682068 74.7621307373
32.1758689880 17.6007385254 74.5635223389
32.1769905090 17.5988197327 74.3653259277
32.1817283630 17.5986557007 74.1674423218
32.1873359680 17.5989151001 73.9696273804
32.1918449402 17.5986404419 73.7717056274
32.1948547363 17.5976390839 73.5736389160
32.1969490051 17.5961875916 73.3754806519
32.1989173889 17.5946788788 73.1772918701
32.2014160156 17.5934257507 72.9791412354
32.2047767639 17.5925922394 72.7810668945
32.2089729309 17.5921630859 72.5830535889
32.2136955261 17.5919933319 72.3850860596
32.2185478210 17.5918846130 72.1871185303
32.2231941223 17.5916767120 71.9891281128
32.2274589539 17.5912818909 71.7910919189
32.2314109802 17.5907344818 71.5930099487
32.2353935242 17.5902042389 71.3949279785
32.2399559021 17.5899524689 71.1968917847
32.2455520630 17.5902061462 70.9989471436
32.2522583008 17.5909996033 70.8011169434
32.2595977783 17.5921001434 70.6033325195
32.2668228149 17.5931453705 70.4055404663
32.2735443115 17.5939464569 70.2076873779
32.2803802490 17.5948009491 70.0098419189
32.2887611389 17.5964088440 69.8121566772
32.2997779846 17.5992984772 69.6147384644
32.3131217957 17.6033210754 69.4175720215
32.3274841309 17.6078376770 69.2205123901
32.3418579102 17.6123619080 69.0234603882
32.3559684753 17.6167564392 68.8263854980
32.3694686890 17.6208553314 68.6292495728
32.3813629150 17.6241722107 68.4319381714
32.3904800415 17.6261386871 68.2343292236
32.3964042664 17.6265487671 68.0363616943
32.3998413086 17.6257514954 67.8381195068
32.4022827148 17.6244678497 67.6397476196
32.4052505493 17.6234416962 67.4414215088
32.4095954895 17.6230831146 67.2432479858
32.4152221680 17.6233501434 67.0452041626
32.4213638306 17.6238670349 66.8472137451
32.4270896912 17.6241817474 66.6491699219
32.4316329956 17.6239204407 66.4509887695
32.4345245361 17.6228561401 66.2525939941
32.4356040955 17.6209087372 66.0539855957
32.4349746704 17.6181297302 65.8551559448
32.4328918457 17.6146430969 65.6561431885
32.4296760559 17.6106052399 65.4569702148
32.4257621765 17.6062278748 65.2576980591
32.4218368530 17.6018428802 65.0584030151
32.4188575745 17.5979175568 64.8591995239
32.4178848267 17.5949707031 64.6602249146
32.4199104309 17.5934829712 64.4616088867
32.4258766174 17.5939121246 64.2634582520
32.4367408752 17.5967273712 64.0659179688
32.4531135559 17.6022243500 63.8690643311
32.4741744995 17.6100006104 63.6728096008
32.4969596863 17.6186180115 63.4767875671
32.5172691345 17.6260318756 63.2804679871
32.5317344666 17.6305999756 63.0834121704
32.5391654968 17.6317424774 62.8854560852
32.5403900146 17.6298637390 62.6866950989
32.5374755859 17.6259708405 62.4873809814
32.5330467224 17.6213378906 62.2878494263
32.5297126770 17.6172389984 62.0884399414
32.5295524597 17.6146869659 61.8894309998
32.5339012146 17.6143283844 61.6910057068
32.5436515808 17.6166000366 61.4932937622
32.5595397949 17.6218605042 61.2964057922
32.5817337036 17.6301898956 61.1003723145
32.6087188721 17.6408538818 60.9050102234
32.6368446350 17.6520729065 60.7098236084
32.6617164612 17.6617088318 60.5142135620
32.6805877686 17.6684226990 60.3177986145
32.6935958862 17.6722812653 60.1205825806
32.7031822205 17.6744728088 59.9228935242
32.7130928040 17.6768226624 59.7252502441
32.7279052734 17.6815624237 59.5282936096
32.7521438599 17.6908893585 59.3326721191
32.7877540588 17.7057552338 59.1386871338
32.8313751221 17.7245235443 58.9458770752
32.8748207092 17.7432060242 58.7530899048
32.9097328186 17.7577323914 58.5591201782
32.9322738647 17.7662372589 58.3633918762
32.9432754517 17.7691192627 58.1660003662
32.9442558289 17.7671203613 57.9671440125
32.9338607788 17.7595825195 57.7666053772
32.9084777832 17.7447433472 57.5638275146
32.8669052124 17.7220153809 57.3585929871
32.8149147034 17.6942157745 57.1517372131
32.7649078369 17.6673774719 56.9450912476
32.7304229736 17.6481018066 56.7406921387
32.7201652527 17.6406269073 56.5398902893
32.7347259521 17.6452407837 56.3428268433
32.7665748596 17.6582775116 56.1484031677
32.8038368225 17.6739501953 55.9548377991
32.8370208740 17.6876354218 55.7606849670
32.8634262085 17.6980209351 55.5655136108
32.8855552673 17.7063217163 55.3696975708
32.9065742493 17.7140846252 55.1737289429
32.9275436401 17.7218208313 54.9777679443
32.9474601746 17.7290458679 54.7816505432
32.9647712708 17.7350006104 54.5851364136
32.9786720276 17.7392959595 54.3880920410
32.9892463684 17.7419681549 54.1905174255
32.9968109131 17.7431735992 53.9924659729
33.0014801025 17.7429714203 53.7939414978
33.0032424927 17.7413501740 53.5949363708
33.0022048950 17.7383651733 53.3954658508
32.9988136292 17.7342338562 53.1955986023
32.9939041138 17.7293605804 52.9954605103
32.9885902405 17.7242908478 52.7952308655
32.9841079712 17.7196273804 52.5951194763
32.9815979004 17.7159233093 52.3953132629
32.9817962646 17.7135391235 52.1959381104
32.9849014282 17.7125720978 51.9970359802
32.9908218384 17.7129745483 51.7985954285
32.9991302490 17.7145423889 51.6005516052
33.0080070496 17.7163887024 51.4025993347
33.0133857727 17.7165279388 51.2040519714
33.0108642578 17.7128181458 51.0041465759
32.9996376038 17.7048645020 50.8027267456
32.9840278625 17.6947746277 50.6005249023
32.9708786011 17.6858825684 50.3987121582
32.9660110474 17.6810264587 50.1983032227
32.9731216431 17.6820106506 49.9999580383
32.9944648743 17.6899299622 49.8040962219
33.0306549072 17.7050876617 49.6108627319
33.0793342590 17.7263317108 49.4198608398
33.1350822449 17.7510242462 49.2301673889
33.1919174194 17.7762451172 49.0407295227
33.2457351685 17.7999973297 48.8508186340
33.2940826416 17.8210830688 48.6599884033
33.3343658447 17.8382396698 48.4677581787
33.3637886047 17.8501014709 48.2736129761
33.3810539246 17.8560371399 48.0772857666
33.3874244690 17.8566608429 47.8789901733
33.3859977722 17.8534832001 47.6792602539
33.3804283142 17.8482856750 47.4787521362
33.3741874695 17.8427600861 47.2781028748
33.3702697754 17.8383693695 47.0778541565
33.3708496094 17.8361701965 46.8784217834
33.3766517639 17.8365154266 46.6799468994
33.3861503601 17.8386650085 46.4821548462
33.3953361511 17.8406600952 46.2843055725
33.3990936279 17.8400096893 46.0854301453
33.3941612244 17.8351211548 45.8848991394
33.3818855286 17.8266525269 45.6829566956
33.3692169189 17.8179912567 45.4809074402
33.3670883179 17.8144702911 45.2808380127
33.3854179382 17.8209228516 45.0846748352
33.4260177612 17.8382358551 44.8928108215
33.4795150757 17.8618412018 44.7034797668
33.5310096741 17.8844699860 44.5138206482
33.5699119568 17.9009571075 44.3217697144
33.5946159363 17.9105205536 44.1269836426
33.6094055176 17.9152507782 43.9302749634
33.6192436218 17.9175643921 43.7325973511
33.6272544861 17.9189872742 43.5345573425
33.6348724365 17.9202194214 43.3364372253
33.6424789429 17.9214458466 43.1383056641
33.6496047974 17.9224376678 42.9400787354
33.6551399231 17.9226531982 42.7415275574
33.6584472656 17.9217815399 42.5425186157
33.6611747742 17.9206275940 42.3433837891
33.6677627563 17.9213581085 42.1450195313
33.6827049255 17.9261608124 41.9483451843
33.7063140869 17.9351921082 41.7534446716
33.7336578369 17.9460449219 41.5593223572
33.7580146790 17.9554424286 41.3646163940
33.7749710083 17.9612293243 41.1683998108
33.7834129333 17.9628620148 40.9704360962
33.7843742371 17.9608478546 40.7709197998
33.7805404663 17.9564914703 40.5703887939
33.7761611938 17.9518699646 40.3697242737
33.7752838135 17.9489555359 40.1697731018
33.7784652710 17.9480228424 39.9706573486
33.7818374634 17.9471817017 39.7715721130
33.7804679871 17.9440288544 39.5714721680
33.7728614807 17.9378318787 39.3700294495
33.7618026733 17.9299507141 39.1678314209
33.7517013550 17.9225349426 38.9658012390
33.7462463379 17.9173870087 38.7647438049
33.7482032776 17.9158554077 38.5652503967
33.7594642639 17.9188613892 38.3677597046
33.7800369263 17.9264125824 38.1722793579
33.8072776794 17.9372177124 37.9782676697
33.8372001648 17.9493312836 37.7848587036
33.8670120239 17.9613914490 37.5914535522
33.8961334229 17.9731159210 37.3979263306
33.9247474670 17.9845905304 37.2043113708
33.9518699646 17.9953384399 37.0103950500
33.9753875732 18.0043296814 36.8157005310
33.9937324524 18.0107936859 36.6198768616
34.0069427490 18.0147533417 36.4229164124
34.0162620544 18.0168151855 36.2250938416
34.0231475830 18.0176868439 36.0267219543
34.0287704468 18.0179443359 35.8280601501
34.0340461731 18.0180320740 35.6293106079
34.0397758484 18.0183410645 35.4306602478
34.0466384888 18.0192031860 35.2322578430
34.0551681519 18.0208778381 35.0342292786
34.0658111572 18.0235862732 34.8366851807
34.0791625977 18.0276126862 34.6397552490
34.0959930420 18.0333404541 34.4436340332
34.1165199280 18.0408725739 34.2483711243
34.1387901306 18.0492534637 34.0535240173
34.1578979492 18.0560932159 33.8579635620
34.1680412292 18.0585556030 33.6603279114
34.1666336060 18.0553798676 33.4599914551
34.1567878723 18.0480861664 33.2576637268
34.1458168030 18.0402412415 33.0550422668
34.1414794922 18.0356369019 32.8539543152
34.1489601135 18.0367984772 32.6556358337
34.1694183350 18.0442981720 32.4603881836
34.1997795105 18.0566291809 32.2675094604
34.2338752747 18.0707855225 32.0755500793
34.2648811340 18.0834331512 31.8828830719
34.2877044678 18.0920867920 31.6882820129
34.2997398376 18.0954761505 31.4911041260
34.3000907898 18.0931568146 31.2911090851
34.2894706726 18.0854835510 31.0884456635
34.2724761963 18.0746955872 30.8842029572
34.2593078613 18.0657768250 30.6808547974
34.2622566223 18.0647258759 30.4814052582
34.2878913879 18.0747528076 30.2874984741
34.3322486877 18.0939216614 30.0982093811
34.3839302063 18.1166667938 29.9107704163
34.4314765930 18.1373958588 29.7223682404
34.4686050415 18.1530361176 29.5314388275
34.4948310852 18.1633529663 29.3378391266
34.5132484436 18.1698570251 29.1423187256
34.5277900696 18.1744709015 28.9458408356
34.5413665771 18.1786098480 28.7491245270
34.5554122925 18.1829795837 28.5525302887
34.5704765320 18.1878471375 28.3561992645
34.5872039795 18.1935272217 28.1602935791
34.6070632935 18.2007350922 27.9651889801
34.6321754456 18.2105121613 27.7714328766
34.6638565063 18.2234935760 27.5793704987
34.7005424500 18.2389240265 27.3886165619
34.7369499207 18.2542152405 27.1978263855
34.7655181885 18.2656803131 27.0050601959
34.7798042297 18.2701683044 26.8086395264
34.7777061462 18.2666530609 26.6079940796
34.7621307373 18.2565555573 26.4038410187
34.7384490967 18.2425003052 26.1975440979
34.7114067078 18.2267990112 25.9903240204
34.6843757629 18.2111034393 25.7830524445
34.6604728699 18.1969375610 25.5765476227
34.6427268982 18.1857757568 25.3716087341
34.6327400208 18.1784038544 25.1686725616
34.6300239563 18.1745872498 24.9676265717
34.6330795288 18.1735858917 24.7680892944
34.6409606934 18.1749420166 24.5698204041
34.6536598206 18.1786556244 24.3728294373
34.6710166931 18.1846408844 24.1770839691
34.6916007996 18.1922054291 23.9822120667
34.7133064270 18.2003173828 23.7876529694
34.7350502014 18.2084484100 23.5931205750
34.7575683594 18.2169570923 23.3988132477
34.7824478149 18.2266216278 23.2051620483
34.8105659485 18.2378673553 23.0124053955
34.8409347534 18.2502136230 22.8202877045
34.8707275391 18.2622776031 22.6280403137
34.8969078064 18.2725772858 22.4348335266
34.9186706543 18.2807197571 22.2404384613
34.9387092590 18.2880191803 22.0455856323
34.9622383118 18.2970256805 21.8517074585
34.9944152832 18.3102569580 21.6602344513
35.0372428894 18.3286933899 21.4717388153
35.0873832703 18.3507041931 21.2853164673
35.1369934082 18.3724575043 21.0988044739
35.1777305603 18.3898735046 20.9098739624
35.2048835754 18.4006519318 20.7171878815
35.2184333801 18.4047813416 20.5207099915
35.2214050293 18.4037418365 20.3212661743
35.2184906006 18.3998279572 20.1201553345
35.2162208557 18.3962249756 19.9192028046
35.2227096558 18.3969039917 19.7207145691
35.2447242737 18.4051742554 19.5266265869
35.2835922241 18.4216785431 19.3373489380
35.3343124390 18.4439773560 19.1514949799
35.3888969421 18.4681663513 18.9667987823
35.4398880005 18.4906005859 18.7811393738
35.4812660217 18.5083351135 18.5927715302
35.5082588196 18.5190391541 18.4003047943
35.5184822083 18.5215454102 18.2030162811
35.5136146545 18.5166740417 18.0013580322
35.4994697571 18.5072689056 17.7969875336
35.4836349487 18.4970340729 17.5920867920
35.4722290039 18.4889659882 17.3884429932
35.4683189392 18.4845619202 17.1869583130
35.4726104736 18.4841690063 16.9878559113
35.4849662781 18.4877166748 16.7911128998
35.5051689148 18.4951000214 16.5966835022
35.5325737000 18.5060062408 16.4043960571
35.5652465820 18.5194892883 16.2136898041
35.5995216370 18.5337543488 16.0234889984
35.6307067871 18.5465087891 15.8324041367
35.6548652649 18.5558280945 15.6392545700
35.6705513000 18.5610065460 15.4435911179
35.6792564392 18.5627708435 15.2458457947
35.6844444275 18.5628128052 15.0470399857
35.6900634766 18.5630683899 14.8483581543
35.6994590759 18.5651702881 14.6508073807
35.7148437500 18.5701999664 14.4550657272
35.7371902466 18.5786342621 14.2614402771
35.7660903931 18.5902748108 14.0698213577
35.7993927002 18.6040668488 13.8795700073
35.8334159851 18.6182136536 13.6895694733
35.8645477295 18.6309452057 13.4987192154
35.8912925720 18.6415309906 13.3065509796
35.9149398804 18.6506042480 13.1134548187
35.9384803772 18.6596240997 12.9203453064
35.9647789001 18.6699943542 12.7281045914
35.9950675964 18.6823139191 12.5371208191
36.0284423828 18.6961460114 12.3471221924
36.0625228882 18.7103233337 12.1573762894
36.0943565369 18.7234001160 11.9669628143
36.1207733154 18.7338314056 11.7748889923
36.1386756897 18.7400951385 11.5801706314
36.1458511353 18.7411117554 11.3820981979
36.1419448853 18.7367076874 11.1805343628
36.1289558411 18.7278633118 10.9760885239
36.1109809875 18.7165775299 10.7700338364
36.0928611755 18.7052211761 10.5638923645
36.0783958435 18.6956501007 10.3588695526
36.0694694519 18.6887893677 10.1555719376
36.0664901733 18.6848392487 9.9541425705
36.0692024231 18.6836719513 9.7545108795
36.0771102905 18.6850452423 9.5565319061
36.0897254944 18.6887226105 9.3600597382
36.1068840027 18.6946220398 9.1650495529
36.1287612915 18.7028312683 8.9715719223
36.1551742554 18.7132587433 8.7795734406
36.1847534180 18.7252368927 8.5886240005
36.2155075073 18.7377872467 8.3980808258
36.2463722229 18.7503967285 8.2076044083
36.2777519226 18.7632560730 8.0173234940
36.3100471497 18.7765636444 7.8273715973
36.3422966003 18.7898483276 7.6374349594
36.3730239868 18.8023891449 7.4470300674
36.4022407532 18.8141937256 7.2561583519
36.4317321777 18.8261299133 7.0654025078
36.4629516602 18.8389148712 6.8752446175
36.4952659607 18.8522338867 6.6854777336
36.5268020630 18.8651714325 6.4954838753
36.5567359924 18.8773269653 6.3049874306
36.5857772827 18.8890457153 6.1142215729
36.6140594482 18.9003944397 5.9232287407
36.6392555237 18.9102306366 5.7312273979
36.6575012207 18.9166660309 5.5369186401
36.6663894653 18.9185237885 5.3394780159
36.6671943665 18.9164237976 5.1393127441
36.6650886536 18.9128990173 4.9381523132
36.6676025391 18.9116363525 4.7385349274
36.6813507080 18.9158706665 4.5427122116
36.7083625793 18.9265975952 4.3513956070
36.7451095581 18.9420909882 4.1634140015
36.7856407166 18.9594364166 3.9767599106
36.8256645203 18.9765338898 3.7899751663
36.8635520935 18.9925842285 3.6025009155
36.8987655640 19.0073280334 3.4141483307
36.9309730530 19.0206031799 3.2247989178
36.9605064392 19.0325660706 3.0345571041
36.9880447388 19.0435543060 2.8436551094
37.0134315491 19.0534896851 2.6520323753
37.0355873108 19.0618419647 2.4593107700
37.0541076660 19.0684165955 2.2653434277
37.0705070496 19.0739517212 2.0706486702
37.0876693726 19.0798587799 1.8762273788
37.1079216003 19.0872821808 1.6828962564
37.1309471130 19.0960617065 1.4905498028
37.1529655457 19.1043491364 1.2978677750
37.1683425903 19.1093845367 1.1028667688
37.1728973389 19.1091213226 0.9040596485
37.1667022705 19.1035957336 0.7014482617
37.1544990540 19.0951251984 0.4966860116
37.1436157227 19.0873031616 0.2923599184
37.1410255432 19.0835399628 0.0909483433
36.0282707214 6.8618998528 80.5032730103
36.0403633118 6.8613471985 80.3061904907
36.0584030151 6.8616228104 80.1094741821
36.0756874084 6.8617930412 79.9127273560
36.0909042358 6.8616757393 79.7158508301
36.1078071594 6.8617935181 79.5190887451
36.1309204102 6.8627753258 79.3227386475
36.1618385315 6.8648447990 79.1269073486
36.1986770630 6.8677382469 78.9314804077
36.2375411987 6.8709139824 78.7362289429
36.2734489441 6.8736786842 78.5408172607
36.3003883362 6.8751950264 78.3448257446
36.3129882813 6.8747143745 78.1478805542
36.3101539612 6.8720846176 77.9498825073
36.2969284058 6.8680071831 77.7511367798
36.2816505432 6.8636441231 77.5522232056
36.2707061768 6.8598842621 77.3535842896
36.2654037476 6.8569087982 77.1553115845
36.2627296448 6.8543004990 76.9572143555
36.2586479187 6.8514957428 76.7589950562
36.2514686584 6.8482584953 76.5605316162
36.2429313660 6.8448324203 76.3619461060
36.2363433838 6.8416771889 76.1634750366
36.2340545654 6.8391213417 75.9653091431
36.2367401123 6.8372583389 75.7675018311
36.2441024780 6.8360466957 75.5700378418
36.2550277710 6.8353314400 75.3728485107
36.2669448853 6.8347544670 75.1757278442
36.2759590149 6.8337726593 74.9783859253
36.2784500122 6.8318824768 74.7805328369
36.2723960876 6.8288002014 74.5819854736
36.2571601868 6.8244380951 74.3826828003
36.2331542969 6.8188533783 74.1826324463
36.2027816772 6.8123807907 73.9820251465
36.1712608337 6.8057470322 73.7812728882
36.1453590393 6.7998957634 73.5809326172
36.1307678223 6.7956218719 73.3814849854
36.1304931641 6.7933430672 73.1832046509
36.1446075439 6.7930707932 72.9861221313
36.1701011658 6.7943854332 72.7900161743
36.2008819580 6.7964377403 72.5943832397
36.2294044495 6.7981753349 72.3985748291
36.2497329712 6.7987704277 72.2020797729
36.2597694397 6.7979297638 72.0046920776
36.2611961365 6.7958889008 71.8065490723
36.2580032349 6.7932024002 71.6079788208
36.2549591064 6.7905373573 71.4094009399
36.2565879822 6.7885236740 71.2112274170
36.2662811279 6.7876348495 71.0137786865
36.2850952148 6.7880187035 70.8171615601
36.3103828430 6.7893056870 70.6211471558
36.3354377747 6.7905607224 70.4251327515
36.3515205383 6.7905640602 70.2282943726
36.3516654968 6.7883429527 70.0299682617
36.3338279724 6.7836122513 69.8299255371
36.3014984131 6.7768583298 69.6284637451
36.2619628906 6.7690987587 69.4262619019
36.2240524292 6.7615647316 69.2241439819
36.1962432861 6.7554407120 69.0229568481
36.1844177246 6.7515463829 68.8232727051
36.1891975403 6.7499704361 68.6251983643
36.2053184509 6.7499771118 68.4282379150
36.2246208191 6.7504281998 68.2316055298
36.2405662537 6.7504110336 68.0346450806
36.2505683899 6.7495641708 67.8370895386
36.2554397583 6.7480001450 67.6390151978
36.2577781677 6.7460832596 67.4406661987
36.2608070374 6.7442622185 67.2423858643
36.2674179077 6.7429413795 67.0444564819
36.2794227600 6.7423734665 66.8470916748
36.2973785400 6.7426366806 66.6503448486
36.3209114075 6.7436800003 66.4542007446
36.3488311768 6.7453351021 66.2585372925
36.3791999817 6.7473330498 66.0631484985
36.4102249146 6.7494230270 65.8678665161
36.4413337708 6.7515249252 65.6726074219
36.4730033875 6.7537055016 65.4774398804
36.5053710938 6.7559838295 65.2823791504
36.5373573303 6.7582092285 65.0872955322
36.5677070618 6.7602062225 64.8920593262
36.5969696045 6.7620515823 64.6967315674
36.6281661987 6.7641673088 64.5016403198
36.6650199890 6.7670741081 64.3072128296
36.7087249756 6.7709393501 64.1135864258
36.7557220459 6.7752637863 63.9203796387
36.7988395691 6.7790479660 63.7267761230
36.8316459656 6.7813901901 63.5320281982
36.8522109985 6.7820219994 63.3358917236
36.8632278442 6.7813191414 63.1386566162
36.8692855835 6.7799229622 62.9408454895
36.8742485046 6.7783737183 62.7428970337
36.8801383972 6.7769536972 62.5450515747
36.8871383667 6.7756891251 62.3473320007
36.8941612244 6.7744274139 62.1496124268
36.8996315002 6.7729487419 61.9516983032
36.9022598267 6.7710728645 61.7534332275
36.9015274048 6.7687263489 61.5547523499
36.8977432251 6.7659525871 61.3556823730
36.8915977478 6.7628483772 61.1563072205
36.8833122253 6.7594456673 60.9566421509
36.8721275330 6.7556357384 60.7565956116
36.8569297791 6.7512645721 60.5560226440
36.8380050659 6.7463722229 60.3549537659
36.8180961609 6.7413406372 60.1537170410
36.8011741638 6.7367277145 59.9528198242
36.7899818420 6.7329154015 59.7526168823
36.7848854065 6.7299556732 59.5531616211
36.7850265503 6.7277293205 59.3543586731
36.7901000977 6.7261924744 59.1561775208
36.8008804321 6.7254543304 58.9587249756
36.8180656433 6.7256126404 58.7621078491
36.8403854370 6.7264895439 58.5661697388
36.8640174866 6.7275505066 58.3704223633
36.8847732544 6.7282090187 58.1743049622
36.9019012451 6.7283596992 57.9777221680
36.9196434021 6.7285962105 57.7812271118
36.9441719055 6.7297830582 57.5856513977
36.9783744812 6.7323246002 57.3913955688
37.0195045471 6.7358365059 57.1981048584
37.0610809326 6.7394113541 57.0049133301
37.0959205627 6.7420430183 56.8108406067
37.1180915833 6.7429013252 56.6150588989
37.1245574951 6.7415604591 56.4171295166
37.1166801453 6.7382106781 56.2172088623
37.1001472473 6.7336478233 56.0160598755
37.0823554993 6.7289085388 55.8147010803
37.0688934326 6.7247757912 55.6139144897
37.0617561340 6.7215285301 55.4139862061
37.0599975586 6.7190341949 55.2147979736
37.0613441467 6.7169747353 55.0160331726
37.0634727478 6.7150244713 54.8173675537
37.0647888184 6.7129607201 54.6185760498
37.0647544861 6.7107071877 54.4195747375
37.0636062622 6.7082977295 54.2204017639
37.0617980957 6.7057957649 54.0211143494
37.0596580505 6.7032465935 53.8217658997
37.0573997498 6.7006807327 53.6223793030
37.0552902222 6.6981358528 53.4230003357
37.0537834167 6.6956748962 53.2236900330
37.0535278320 6.6933898926 53.0245513916
37.0553817749 6.6914000511 52.8257141113
37.0603370667 6.6898441315 52.6273307800
37.0694274902 6.6888685226 52.4295616150
37.0834617615 6.6885857582 52.2325363159
37.1022186279 6.6889653206 52.0362319946
37.1233901978 6.6896834373 51.8403053284
37.1429519653 6.6901760101 51.6441459656
37.1579780579 6.6900324821 51.4472999573
37.1697006226 6.6894259453 51.2499465942
37.1831359863 6.6890592575 51.0528640747
37.2031784058 6.6896200180 50.8568115234
37.2310066223 6.6912722588 50.6619834900
37.2637901306 6.6936197281 50.4679565430
37.2971305847 6.6960458755 50.2740478516
37.3272857666 6.6980257034 50.0796623230
37.3515815735 6.6991834641 49.8843688965
37.3681983948 6.6992645264 49.6878700256
37.3767051697 6.6982078552 49.4900779724
37.3785896301 6.6962218285 49.2912178040
37.3768310547 6.6937241554 49.0917587280
37.3747558594 6.6911826134 48.8922348022
37.3751525879 6.6889872551 48.6930961609
37.3797416687 6.6873798370 48.4946250916
37.3888778687 6.6864113808 48.2968940735
37.4015502930 6.6859383583 48.0997390747
37.4157600403 6.6856813431 47.9028434753
37.4292182922 6.6853189468 47.7058258057
37.4399681091 6.6845765114 47.5083618164
37.4467163086 6.6832723618 47.3102264404
37.4489135742 6.6813287735 47.1113243103
37.4466247559 6.6787557602 46.9116554260
37.4403762817 6.6756267548 46.7112998962
37.4309768677 6.6720547676 46.5103874207
37.4193038940 6.6681632996 46.3090591431
37.4058723450 6.6640248299 46.1074066162
37.3904342651 6.6596040726 45.9053726196
37.3723297119 6.6548085213 45.7028503418
37.3518447876 6.6496777534 45.4998779297
37.3311386108 6.6445155144 45.2968254089
37.3130607605 6.6397228241 45.0941925049
37.2988510132 6.6354722977 44.8921966553
37.2876968384 6.6316509247 44.6907081604
37.2784576416 6.6280984879 44.4895248413
37.2705497742 6.6247324944 44.2885513306
37.2629890442 6.6214146614 44.0876159668
37.2543144226 6.6179404259 43.8864555359
37.2445793152 6.6143169403 43.6850852966
37.2366294861 6.6109437943 43.4840049744
37.2349166870 6.6084470749 43.2840232849
37.2436637878 6.6074194908 43.0859146118
37.2653999329 6.6082177162 42.8901519775
37.2991409302 6.6107034683 42.6965904236
37.3392677307 6.6140871048 42.5042190552
37.3778495789 6.6172537804 42.3116035461
37.4093246460 6.6194214821 42.1177177429
37.4328613281 6.6204743385 41.9223937988
37.4507598877 6.6207342148 41.7260437012
37.4658088684 6.6205935478 41.5291709900
37.4803199768 6.6203775406 41.3322067261
37.4967651367 6.6204338074 41.1356086731
37.5183753967 6.6212158203 40.9399833679
37.5480995178 6.6231389046 40.7458992004
37.5858840942 6.6261963844 40.5533599854
37.6269035339 6.6297087669 40.3614692688
37.6636657715 6.6326227188 40.1688079834
37.6907272339 6.6341729164 39.9743309021
37.7074546814 6.6342697144 39.7778930664
37.7169075012 6.6333436966 39.5800666809
37.7231712341 6.6319684982 39.3816261292
37.7296333313 6.6306214333 39.1832160950
37.7386589050 6.6296353340 38.9852943420
37.7516212463 6.6292028427 38.7881393433
37.7684020996 6.6293072701 38.5917320251
37.7862815857 6.6295661926 38.3955497742
37.7999420166 6.6292319298 38.1985435486
37.8047790527 6.6276559830 37.9998016357
37.8021545410 6.6250305176 37.7995758057
37.8007164001 6.6225714684 37.5995712280
37.8102645874 6.6216583252 37.4017333984
37.8337402344 6.6227054596 37.2066764832
37.8662528992 6.6250247955 37.0134468079
37.9011840820 6.6276841164 36.8207283020
37.9353256226 6.6302337646 36.6278839111
37.9684333801 6.6326370239 36.4348602295
37.9999008179 6.6348104477 36.2415313721
38.0271186829 6.6363859177 36.0473632813
38.0469474792 6.6369209290 35.8517074585
38.0586509705 6.6363124847 35.6543960571
38.0648841858 6.6349334717 35.4559669495
38.0695800781 6.6333379745 35.2572097778
38.0756225586 6.6319322586 35.0587272644
38.0850296021 6.6309995651 34.8609313965
38.1004142761 6.6309094429 34.6643791199
38.1244964600 6.6320443153 34.4696464539
38.1570243835 6.6343684196 34.2766990662
38.1926536560 6.6371302605 34.0844345093
38.2233657837 6.6391997337 33.8911590576
38.2433738708 6.6397609711 33.6956520081
38.2511177063 6.6385951042 33.4975547791
38.2468719482 6.6357402802 33.2969093323
38.2301521301 6.6311273575 33.0935821533
38.2006721497 6.6247158051 32.8874931335
38.1615180969 6.6169404984 32.6792755127
38.1199340820 6.6088228226 32.4704742432
38.0839729309 6.6014957428 32.2628173828
38.0583343506 6.5956239700 32.0573310852
38.0436553955 6.5912952423 31.8541774750
38.0389556885 6.5883731842 31.6531639099
38.0442810059 6.5868639946 31.4543170929
38.0613708496 6.5870127678 31.2580394745
38.0921669006 6.5890941620 31.0647792816
38.1358528137 6.5929923058 30.8743820190
38.1866493225 6.5978937149 30.6855983734
38.2353439331 6.6024994850 30.4963989258
38.2742385864 6.6057238579 30.3050708771
38.3010864258 6.6072502136 30.1110973358
38.3187484741 6.6074814796 29.9150886536
38.3320045471 6.6070914268 29.7181034088
38.3451004028 6.6066789627 29.5210838318
38.3610877991 6.6066737175 29.3247165680
38.3816642761 6.6073164940 29.1293964386
38.4065017700 6.6085600853 28.9350528717
38.4328498840 6.6100172997 28.7410697937
38.4567871094 6.6111340523 28.5465564728
38.4755325317 6.6115188599 28.3508739471
38.4887580872 6.6111249924 28.1539363861
38.4981422424 6.6101899147 27.9561176300
38.5063934326 6.6090941429 27.7580375671
38.5167655945 6.6082978249 27.5604419708
38.5327758789 6.6082968712 27.3641529083
38.5575523376 6.6095333099 27.1699085236
38.5927734375 6.6122441292 26.9781169891
38.6376342773 6.6163153648 26.7886066437
38.6887283325 6.6212668419 26.6006031036
38.7415275574 6.6264595985 26.4130496979
38.7924079895 6.6313819885 26.2250995636
38.8393630981 6.6357507706 26.0362720490
38.8810234070 6.6393733025 25.8462371826
38.9152259827 6.6419425011 25.6544685364
38.9385833740 6.6429815292 25.4601478577
38.9479866028 6.6420507431 25.2625102997
38.9434318542 6.6391487122 25.0615272522
38.9300346375 6.6349983215 24.8584003448
38.9167556763 6.6308641434 24.6552696228
38.9118423462 6.6279106140 24.4541282654
38.9184455872 6.6265840530 24.2557544708
38.9344825745 6.6265892982 24.0596637726
38.9563713074 6.6274209023 23.8650054932
38.9823265076 6.6288270950 23.6713523865
39.0121803284 6.6307845116 23.4786720276
39.0449371338 6.6331515312 23.2867279053
39.0771942139 6.6354489326 23.0946884155
39.1042785645 6.6370158195 22.9014015198
39.1227569580 6.6373667717 22.7060070038
39.1317787170 6.6363821030 22.5082798004
39.1329040527 6.6342811584 22.3085861206
39.1296997070 6.6315693855 22.1078014374
39.1272392273 6.6289615631 21.9071846008
39.1299324036 6.6270818710 21.7078399658
39.1386833191 6.6260585785 21.5100059509
39.1506576538 6.6254901886 21.3129806519
39.1625137329 6.6249055862 21.1159267426
39.1735229492 6.6242012978 20.9186611176
39.1855010986 6.6236338615 20.7216396332
39.2009925842 6.6235632896 20.5255126953
39.2217369080 6.6242351532 20.3307323456
39.2471656799 6.6255693436 20.1371593475
39.2737350464 6.6270647049 19.9438991547
39.2971229553 6.6281113625 19.7498416901
39.3156471252 6.6284699440 19.5545463562
39.3309936523 6.6283788681 19.3584403992
39.3464851379 6.6283087730 19.1623783112
39.3656730652 6.6287617683 18.9672813416
39.3909034729 6.6300692558 18.7737655640
39.4208641052 6.6320462227 18.5815029144
39.4500961304 6.6339197159 18.3890724182
39.4726142883 6.6348443031 18.1949081421
39.4859580994 6.6344714165 17.9983482361
39.4914894104 6.6329932213 17.7997322083
39.4921150208 6.6308207512 17.5998153687
39.4904479980 6.6283240318 17.3992786407
39.4880256653 6.6257200241 17.1985244751
39.4852027893 6.6230597496 16.9976482391
39.4820899963 6.6203575134 16.7966747284
39.4798774719 6.6177830696 16.5959243774
39.4813194275 6.6157245636 16.3961353302
39.4897079468 6.6146502495 16.1982002258
39.5070457458 6.6148419380 16.0026702881
39.5329208374 6.6162419319 15.8094501495
39.5650901794 6.6185331345 15.6179523468
39.6006164551 6.6212997437 15.4273920059
39.6362266541 6.6240782738 15.2368850708
39.6685180664 6.6263880730 15.0455074310
39.6950607300 6.6278839111 14.8525867462
39.7152938843 6.6284866333 14.6579599380
39.7302207947 6.6283383369 14.4618902206
39.7414779663 6.6276707649 14.2648153305
39.7508239746 6.6267318726 14.0672140121
39.7602272034 6.6258015633 13.8696269989
39.7721176147 6.6252236366 13.6727266312
39.7894172668 6.6254115105 13.4773283005
39.8150482178 6.6267790794 13.2842550278
39.8507156372 6.6295690536 13.0940008163
39.8957023621 6.6336789131 12.9063816071
39.9467658997 6.6386504173 12.7205085754
39.9993743896 6.6438412666 12.5351219177
40.0490379333 6.6486153603 12.3489599228
40.0921058655 6.6524553299 12.1609869003
40.1264305115 6.6550579071 11.9705839157
40.1520805359 6.6564311981 11.7777538300
40.1711921692 6.6568779945 11.5830850601
40.1867103577 6.6568160057 11.3874034882
40.2009887695 6.6565785408 11.1913757324
40.2151985168 6.6563305855 10.9953298569
40.2295608521 6.6561050415 10.7993335724
40.2441596985 6.6559128761 10.6034097672
40.2597579956 6.6558628082 10.4077777863
40.2781028748 6.6562018394 10.2129440308
40.3010368347 6.6571917534 10.0194482803
40.3287620544 6.6588602066 9.8273544312
40.3587913513 6.6608562469 9.6359529495
40.3872146606 6.6626248360 9.4441080093
40.4115982056 6.6638212204 9.2511072159
40.4329872131 6.6645922661 9.0572481155
40.4552497864 6.6654877663 8.8636579514
40.4822082520 6.6670498848 8.6714620590
40.5144653320 6.6693630219 8.4808464050
40.5483398438 6.6719059944 8.2907352448
40.5781326294 6.6738705635 8.0994472504
40.5998115540 6.6746840477 7.9057788849
40.6129112244 6.6742815971 7.7095780373
40.6198158264 6.6729998589 7.5115346909
40.6237907410 6.6713023186 7.3126130104
40.6273422241 6.6695456505 7.1135563850
40.6314201355 6.6678624153 6.9146466255
40.6355400085 6.6661853790 6.7157411575
40.6384620667 6.6643385887 6.5164666176
40.6387290955 6.6621146202 6.3163809776
40.6348838806 6.6593070030 6.1150383949
40.6258544922 6.6557636261 5.9121079445
40.6120491028 6.6515417099 5.7077016830
40.5968322754 6.6471199989 5.5028347969
40.5871467590 6.6434822083 5.2996182442
40.5918006897 6.6418800354 5.1007552147
40.6176109314 6.6432800293 4.9083566666
40.6654510498 6.6478075981 4.7227334976
40.7296791077 6.6546626091 4.5421943665
40.8021697998 6.6626911163 4.3642683029
40.8769531250 6.6710462570 4.1871304512
40.9503021240 6.6791982651 4.0096311569
41.0176391602 6.6864976883 3.8303489685
41.0733261108 6.6921439171 3.6475224495
41.1141586304 6.6956810951 3.4601309299
41.1414566040 6.6972970963 3.2685582638
41.1592826843 6.6975674629 3.0740461349
41.1715583801 6.6970500946 2.8778049946
41.1810493469 6.6961374283 2.6806914806
41.1899604797 6.6951417923 2.4833939075
41.2006301880 6.6943964958 2.2866473198
41.2151298523 6.6941947937 2.0911102295
41.2339057922 6.6946010590 1.8969300985
41.2548370361 6.6953134537 1.7034444809
41.2743339539 6.6958222389 1.5095151663
41.2896766663 6.6957411766 1.3142749071
41.3003616333 6.6949977875 1.1175539494
41.3074722290 6.6937465668 0.9196897149
41.3123855591 6.6921830177 0.7211174369
41.3161048889 6.6904506683 0.5221550465
41.3193893433 6.6886553764 0.3230420947
41.3233680725 6.6869592667 0.1241434962
36.7379264832 -4.6699490547 80.5247268677
36.7106323242 -4.6673440933 80.3254928589
36.6662368774 -4.6617016792 80.1251525879
36.6179466248 -4.6553678513 79.9244918823
36.5768203735 -4.6503076553 79.7242202759
36.5486297607 -4.6475467682 79.5247039795
36.5342025757 -4.6472311020 79.3260269165
36.5301971436 -4.6487684250 79.1280059814
36.5300254822 -4.6509866714 78.9302139282
36.5270080566 -4.6526989937 78.7322235107
36.5185470581 -4.6534452438 78.5338516235
36.5070610046 -4.6536540985 78.3352508545
36.4969978333 -4.6541156769 78.1367111206
36.4918670654 -4.6554536819 77.9384994507
36.4936447144 -4.6580195427 77.7407379150
36.5030250549 -4.6619353294 77.5435104370
36.5188903809 -4.6670031548 77.3467330933
36.5379409790 -4.6726360321 77.1501998901
36.5560188293 -4.6780967712 76.9535980225
36.5704002380 -4.6829009056 76.7567443848
36.5807151794 -4.6869821548 76.5595932007
36.5879974365 -4.6905250549 76.3622207642
36.5933074951 -4.6937184334 76.1646957397
36.5971870422 -4.6966576576 75.9670562744
36.5998115540 -4.6993737221 75.7693099976
36.6012496948 -4.7018799782 75.5714645386
36.6015586853 -4.7041859627 75.3735198975
36.6007995605 -4.7063021660 75.1754837036
36.5990905762 -4.7082500458 74.9773559570
36.5966911316 -4.7100749016 74.7791595459
36.5939903259 -4.7118463516 74.5809173584
36.5914039612 -4.7136392593 74.3826751709
36.5892601013 -4.7155103683 74.1844482422
36.5876998901 -4.7174854279 73.9862518311
36.5866966248 -4.7195596695 73.7880935669
36.5861167908 -4.7217087746 73.5899505615
36.5857810974 -4.7239017487 73.3918151855
36.5855216980 -4.7261080742 73.1936721802
36.5851821899 -4.7283000946 72.9955062866
36.5846519470 -4.7304592133 72.7973175049
36.5839004517 -4.7325787544 72.5990905762
36.5830879211 -4.7346878052 72.4008483887
36.5829048157 -4.7369084358 72.2026443481
36.5849990845 -4.7395334244 72.0046234131
36.5922966003 -4.7430815697 71.8070602417
36.6084594727 -4.7482028008 71.6102905273
36.6361312866 -4.7553644180 71.4145584106
36.6744155884 -4.7644085884 71.2198104858
36.7174301147 -4.7742915154 71.0255355835
36.7557334900 -4.7833380699 70.8308639526
36.7806739807 -4.7900152206 70.6349868774
36.7887458801 -4.7936997414 70.4375610352
36.7822761536 -4.7948050499 70.2387695313
36.7661743164 -4.7942037582 70.0390396118
36.7446060181 -4.7926330566 69.8387603760
36.7206726074 -4.7906427383 69.6382141113
36.6977958679 -4.7888407707 69.4377212524
36.6797828674 -4.7879018784 69.2376632690
36.6696128845 -4.7883543968 69.0383377075
36.6691017151 -4.7905182838 68.8399276733
36.6797447205 -4.7946605682 68.6426162720
36.7031784058 -4.8010702133 68.4465789795
36.7409286499 -4.8100171089 68.2519912720
36.7940750122 -4.8216929436 68.0589904785
36.8616905212 -4.8359332085 67.8675155640
36.9377021790 -4.8516607285 67.6769714355
37.0101928711 -4.8667626381 67.4861450195
37.0667686462 -4.8790435791 67.2937622070
37.1015930176 -4.8874688148 67.0991668701
37.1166114807 -4.8923835754 66.9025268555
37.1164283752 -4.8946051598 66.7042922974
37.1032905579 -4.8945302963 66.5046768188
37.0772094727 -4.8921632767 66.3036422729
37.0404472351 -4.8879036903 66.1014251709
37.0007667542 -4.8831276894 65.8988265991
36.9691848755 -4.8797874451 65.6970443726
36.9541130066 -4.8793730736 65.4970092773
36.9575500488 -4.8822374344 65.2989807129
36.9755592346 -4.8876833916 65.1025466919
37.0009994507 -4.8944463730 64.9069519043
37.0265464783 -4.9012274742 64.7113876343
37.0471153259 -4.9071269035 64.5152893066
37.0608024597 -4.9118070602 64.3184204102
37.0681304932 -4.9153604507 64.1208343506
37.0707855225 -4.9180870056 63.9227066040
37.0709152222 -4.9203662872 63.7242813110
37.0709495544 -4.9226279259 63.5258331299
37.0734901428 -4.9253349304 63.3276634216
37.0805664063 -4.9288439751 63.1300125122
37.0920982361 -4.9331426620 62.9328804016
37.1049652100 -4.9376778603 62.7359123230
37.1140213013 -4.9415378571 62.5384902954
37.1146125793 -4.9438996315 62.3400573730
37.1048164368 -4.9444222450 62.1403656006
37.0865516663 -4.9434456825 61.9396247864
37.0654296875 -4.9419641495 61.7385025024
37.0488014221 -4.9412784576 61.5378875732
37.0427207947 -4.9424600601 61.3385314941
37.0499725342 -4.9460020065 61.1407966614
37.0699195862 -4.9517912865 60.9446296692
37.0988960266 -4.9591779709 60.7496032715
37.1307983398 -4.9670825005 60.5549621582
37.1589775085 -4.9743275642 60.3598823547
37.1789741516 -4.9801244736 60.1637916565
37.1899414063 -4.9843230247 59.9665679932
37.1937370300 -4.9872531891 59.7684249878
37.1932373047 -4.9894232750 59.5697250366
37.1914062500 -4.9913582802 59.3708381653
37.1911201477 -4.9935660362 59.1721382141
37.1948738098 -4.9964890480 58.9739494324
37.2041854858 -5.0003952980 58.7764816284
37.2189140320 -5.0052599907 58.5797233582
37.2367973328 -5.0106825829 58.3833885193
37.2536544800 -5.0159235001 58.1869239807
37.2651901245 -5.0202236176 57.9897613525
37.2700271606 -5.0233383179 57.7917022705
37.2710914612 -5.0257859230 57.5931243896
37.2732353210 -5.0284247398 57.3946838379
37.2789497375 -5.0316948891 57.1967201233
37.2860908508 -5.0352172852 56.9989433289
37.2892112732 -5.0380282402 56.8006095886
37.2828559875 -5.0391650200 56.6009597778
37.2649116516 -5.0382518768 56.3996849060
37.2388534546 -5.0359048843 56.1972427368
37.2131462097 -5.0336198807 55.9948043823
37.1963272095 -5.0329065323 55.7935676575
37.1912078857 -5.0342631340 55.5939483643
37.1943473816 -5.0370793343 55.3954811096
37.2009582520 -5.0405101776 55.1974983215
37.2092475891 -5.0442371368 54.9997482300
37.2201461792 -5.0484261513 54.8023719788
37.2344284058 -5.0532121658 54.6054878235
37.2509307861 -5.0583910942 54.4089279175
37.2675971985 -5.0635986328 54.2123985291
37.2838363647 -5.0687308311 54.0158157349
37.3011817932 -5.0740585327 53.8194046021
37.3216323853 -5.0799350739 53.6234588623
37.3461914063 -5.0865373611 53.4281349182
37.3748283386 -5.0938596725 53.2334365845
37.4062309265 -5.1016707420 53.0391769409
37.4371871948 -5.1094026566 52.8448753357
37.4638290405 -5.1163716316 52.6499519348
37.4843406677 -5.1222572327 52.4541168213
37.4994087219 -5.1271820068 52.2574729919
37.5091743469 -5.1311688423 52.0600242615
37.5106887817 -5.1336984634 51.8613090515
37.4993629456 -5.1339597702 51.6606063843
37.4727745056 -5.1315250397 51.4575157166
37.4328498840 -5.1267352104 51.2523117065
37.3849296570 -5.1205339432 51.0457954407
37.3357315063 -5.1141076088 50.8390007019
37.2925643921 -5.1087474823 50.6330833435
37.2633666992 -5.1058559418 50.4292984009
37.2548408508 -5.1066145897 50.2287368774
37.2686004639 -5.1113100052 50.0316963196
37.2990684509 -5.1189551353 49.8373298645
37.3358688354 -5.1277184486 49.6440048218
37.3690795898 -5.1358475685 49.4501342773
