29.1739463806 -24.9091777802 60.2243957520
29.1864376068 -24.9175739288 60.0260810852
29.1911602020 -24.9194812775 59.8266830444
29.1858863831 -24.9130458832 59.6258583069
29.1683635712 -24.8963851929 59.4232673645
29.1415824890 -24.8719921112 59.2193069458
29.1150894165 -24.8478412628 59.0153388977
29.1012439728 -24.8342475891 58.8131523132
29.1118869781 -24.8410987854 58.6145019531
29.1579322815 -24.8775081635 58.4210510254
29.2477474213 -24.9504604340 58.2341117859
29.3821659088 -25.0606555939 58.0539131165
29.5506038666 -25.1992530823 57.8789863586
29.7342414856 -25.3505458832 57.7065849304
29.9155578613 -25.4999027252 57.5341148376
30.0860843658 -25.6402530670 57.3602828979
30.2449626923 -25.7708816528 57.1849365234
30.3909969330 -25.8907871246 57.0078620911
30.5181713104 -25.9949493408 56.8281097412
30.6188545227 -26.0769920349 56.6444511414
30.6889839172 -26.1335239410 56.4561958313
30.7292098999 -26.1650905609 56.2633743286
30.7423877716 -26.1740703583 56.0663604736
30.7316169739 -26.1630554199 55.8655815125
30.7013568878 -26.1357650757 55.6616859436
30.6593208313 -26.0986404419 55.4558601379
30.6155281067 -26.0600471497 55.2496719360
30.5789909363 -26.0275135040 55.0445747375
30.5562000275 -26.0064563751 54.8416252136
30.5527381897 -26.0015411377 54.6417694092
30.5744476318 -26.0176448822 54.4460029602
30.6254730225 -26.0582294464 54.2550659180
30.7051677704 -26.1227569580 54.0689163208
30.8080978394 -26.2066860199 53.8867301941
30.9276638031 -26.3045120239 53.7074584961
31.0587520599 -26.4119606018 53.5302886963
31.1954479218 -26.5240955353 53.3542518616
31.3272781372 -26.6321678162 53.1776008606
31.4412956238 -26.7253665924 52.9981307983
31.5296669006 -26.7971496582 52.8144607544
31.5938682556 -26.8487472534 52.6267852783
31.6410007477 -26.8860931396 52.4362678528
31.6773242950 -26.9144096375 52.2439498901
31.7052764893 -26.9357376099 52.0502243042
31.7248249054 -26.9500446320 51.8550720215
31.7360839844 -26.9574317932 51.6584854126
31.7405624390 -26.9591541290 51.4607162476
31.7406692505 -26.9572257996 51.2621688843
31.7388458252 -26.9536857605 51.0632705688
31.7376213074 -26.9506454468 50.8644676208
31.7404365540 -26.9509773254 50.6663703918
31.7521648407 -26.9587554932 50.4698677063
31.7783126831 -26.9785766602 50.2759742737
31.8232975006 -27.0141334534 50.0855255127
31.8891830444 -27.0671463013 49.8989372253
31.9757881165 -27.1374664307 49.7162322998
32.0818290710 -27.2240219116 49.5372161865
32.2057266235 -27.3254947662 49.3616523743
32.3448143005 -27.4396572113 49.1890792847
32.4933052063 -27.5616760254 49.0184669495
32.6415328979 -27.6834774017 48.8480262756
32.7780990601 -27.7955398560 48.6756210327
32.8937034607 -27.8900966644 48.4994735718
32.9842987061 -27.9637603760 48.3187675476
33.0524368286 -28.0186691284 48.1339302063
33.1065521240 -28.0618667603 47.9465141296
33.1578330994 -28.1026935577 47.7586288452
33.2146682739 -28.1481628418 47.5718841553
33.2763977051 -28.1977233887 47.3861618042
33.3310241699 -28.2413463593 47.1991462708
33.3607368469 -28.2641601563 47.0073585510
33.3528060913 -28.2555274963 46.8082542419
33.3082046509 -28.2162609100 46.6019325256
33.2417602539 -28.1587448120 46.3912239075
33.1737136841 -28.0998897552 46.1800880432
33.1193542480 -28.0524654388 45.9715461731
33.0850334167 -28.0217857361 45.7669067383
33.0722808838 -28.0091209412 45.5665130615
33.0838584900 -28.0167827606 45.3709793091
33.1253700256 -28.0494537354 45.1814880371
33.2012138367 -28.1108093262 44.9990005493
33.3094787598 -28.1992492676 44.8232116699
33.4411163330 -28.3072204590 44.6523513794
33.5834312439 -28.4241161346 44.4838752747
33.7234077454 -28.5390548706 44.3151321411
33.8497428894 -28.6426048279 44.1437835693
33.9560852051 -28.7294483185 43.9684791565
34.0435295105 -28.8005046844 43.7893981934
34.1179580688 -28.8606891632 43.6077308655
34.1834793091 -28.9134292603 43.4243011475
34.2385330200 -28.9574260712 43.2387619019
34.2779922485 -28.9883937836 43.0500068665
34.2977828979 -29.0029277802 42.8571357727
34.2976875305 -29.0008430481 42.6600532532
34.2815551758 -28.9853630066 42.4595375061
34.2560272217 -28.9620304108 42.2569694519
34.2282485962 -28.9368152618 42.0538673401
34.2041015625 -28.9146347046 41.8514938354
34.1887588501 -28.8998126984 41.6509780884
34.1881408691 -28.8972911835 41.4536285400
34.2077560425 -28.9116764069 41.2606849670
34.2492599487 -28.9443531036 41.0725517273
34.3092613220 -28.9924907684 40.8885421753
34.3825454712 -29.0517253876 40.7075462341
34.4662475586 -29.1196689606 40.5289573669
34.5603027344 -29.1962661743 40.3527908325
34.6638450623 -29.2807922363 40.1788787842
34.7723541260 -29.3694686890 40.0062294006
34.8792991638 -29.4568386078 39.8333892822
34.9802894592 -29.5392379761 39.6593627930
35.0746994019 -29.6161384583 39.4840011597
35.1629600525 -29.6878986359 39.3073768616
35.2430038452 -29.7527961731 39.1290130615
35.3100929260 -29.8068656921 38.9478034973
35.3599624634 -29.8465461731 38.7627449036
35.3918495178 -29.8712005615 38.5736122131
35.4082870483 -29.8829421997 38.3809547424
35.4122085571 -29.8842239380 38.1854133606
35.4040412903 -29.8754005432 37.9870529175
35.3807907104 -29.8539714813 37.7851562500
35.3380050659 -29.8162155151 37.5786361694
35.2745628357 -29.7611942291 37.3671913147
35.1975212097 -29.6948070526 37.1524314880
35.1219291687 -29.6296272278 36.9378776550
35.0643844604 -29.5795326233 36.7274780273
35.0361061096 -29.5538959503 36.5239372253
35.0406036377 -29.5556545258 36.3281669617
35.0750160217 -29.5824184418 36.1395568848
35.1321830750 -29.6282005310 35.9564590454
35.2031173706 -29.6854915619 35.7767601013
35.2796554565 -29.7474689484 35.5985183716
35.3562850952 -29.8095207214 35.4204101563
35.4318199158 -29.8706607819 35.2421417236
35.5104103088 -29.9343547821 35.0647315979
35.5984039307 -30.0059127808 34.8897361755
35.6972999573 -30.0865821838 34.7175521851
35.7992782593 -30.1698322296 34.5462722778
35.8903923035 -30.2439994812 34.3724517822
35.9580459595 -30.2985591888 34.1929435730
35.9960632324 -30.3283424377 34.0061492920
36.0050659180 -30.3338756561 33.8121604919
35.9906082153 -30.3197956085 33.6122894287
35.9605331421 -30.2926597595 33.4084625244
35.9214591980 -30.2580013275 33.2023086548
35.8760948181 -30.2180824280 32.9944877625
35.8245544434 -30.1729984283 32.7850189209
35.7687225342 -30.1243286133 32.5743675232
35.7149085999 -30.0773448944 32.3641281128
35.6725082397 -30.0398998260 32.1567153931
35.6507949829 -30.0197505951 31.9545421600
35.6561889648 -30.0222625732 31.7593078613
35.6900939941 -30.0486087799 31.5714416504
35.7479171753 -30.0949535370 31.3898200989
35.8212432861 -30.1542606354 31.2123107910
35.9028282166 -30.2204723358 31.0370597839
35.9896850586 -30.2910919189 30.8633079529
36.0808334351 -30.3653030396 30.6908073425
36.1731224060 -30.4404697418 30.5187416077
36.2608146667 -30.5117950439 30.3455963135
36.3398170471 -30.5758533478 30.1702766418
36.4120063782 -30.6342182159 29.9932632446
36.4845199585 -30.6928520203 29.8164386749
36.5631523132 -30.7566070557 29.6413516998
36.6453895569 -30.8233757019 29.4673461914
36.7203598022 -30.8840675354 29.2915039063
36.7763023376 -30.9288539886 29.1106414795
36.8078384399 -30.9532299042 28.9232578278
36.8158760071 -30.9579601288 28.7295398712
36.8023300171 -30.9446468353 28.5299568176
36.7666931152 -30.9128551483 28.3243141174
36.7079772949 -30.8617668152 28.1122913361
36.6289939880 -30.7937297821 27.8946037292
36.5375595093 -30.7152805328 27.6733551025
36.4426383972 -30.6339149475 27.4509906769
36.3487815857 -30.5534343719 27.2287559509
36.2553215027 -30.4732875824 27.0064735413
36.1632080078 -30.3942623138 26.7844066620
36.0829086304 -30.3251152039 26.5654792786
36.0336418152 -30.2819194794 26.3550987244
36.0330657959 -30.2794418335 26.1582965851
36.0858726501 -30.3216018677 25.9765052795
36.1788558960 -30.3973655701 25.8061275482
36.2857551575 -30.4847640991 25.6398239136
36.3801498413 -30.5617084503 25.4701309204
36.4478302002 -30.6163139343 25.2929706573
36.4894409180 -30.6491184235 25.1084671021
36.5147285461 -30.6682720184 24.9193458557
36.5358085632 -30.6839046478 24.7290477753
36.5618438721 -30.7036838531 24.5401973724
36.5937080383 -30.7283363342 24.3530578613
36.6220855713 -30.7500743866 24.1649494171
36.6336746216 -30.7577762604 23.9720039368
36.6213188171 -30.7454452515 23.7720985413
36.5879516602 -30.7155437469 23.5660324097
36.5408592224 -30.6741619110 23.3558883667
36.4831199646 -30.6238746643 23.1425342560
36.4114837646 -30.5619602203 22.9249877930
36.3225135803 -30.4855480194 22.7022075653
36.2199211121 -30.3977413177 22.4752445221
36.1150169373 -30.3080024719 22.2474250793
36.0204925537 -30.2269382477 22.0225105286
35.9453926086 -30.1621227264 21.8032283783
35.8957595825 -30.1186046600 21.5914249420
35.8761749268 -30.1002235413 21.3885402679
35.8879623413 -30.1080799103 21.1950378418
35.9271545410 -30.1388587952 21.0097999573
35.9863662720 -30.1863880157 20.8306598663
36.0583610535 -30.2446079254 20.6554756165
36.1373634338 -30.3086910248 20.4825210571
36.2183914185 -30.3744678497 20.3102970123
36.2964134216 -30.4377346039 20.1372737885
36.3659706116 -30.4939231873 19.9617729187
36.4217910767 -30.5386180878 19.7821559906
36.4604339600 -30.5689430237 19.5973320007
36.4811553955 -30.5842800140 19.4070320129
36.4853210449 -30.5857658386 19.2116336823
36.4760742188 -30.5760326385 19.0120735168
36.4587097168 -30.5595054626 18.8099651337
36.4392356873 -30.5412158966 18.6071605682
36.4204101563 -30.5234699249 18.4045162201
36.3995323181 -30.5040016174 18.2011890411
36.3717994690 -30.4787998199 17.9956645966
36.3365669250 -30.4473266602 17.7877235413
36.3002662659 -30.4149570465 17.5793800354
36.2735061646 -30.3905658722 17.3739852905
36.2657165527 -30.3820495605 17.1745529175
36.2816810608 -30.3934020996 16.9826488495
36.3209114075 -30.4242229462 16.7981758118
36.3788490295 -30.4706954956 16.6197319031
36.4488487244 -30.5272598267 16.4452323914
36.5237503052 -30.5879268646 16.2724075317
36.5964622498 -30.6467647552 16.0989856720
36.6609611511 -30.6987304688 15.9230175018
36.7142372131 -30.7413082123 15.7435092926
36.7567405701 -30.7748699188 15.5605812073
36.7898292542 -30.8005561829 15.3746500015
36.8130149841 -30.8179588318 15.1855325699
36.8242607117 -30.8253707886 14.9925403595
36.8227653503 -30.8221187592 14.7953815460
36.8107566833 -30.8100738525 14.5947599411
36.7923889160 -30.7927055359 14.3920145035
36.7711029053 -30.7728958130 14.1882658005
36.7481346130 -30.7516746521 13.9839162827
36.7231101990 -30.7287368774 13.7788372040
36.6956901550 -30.7037944794 13.5729122162
36.6668586731 -30.6776676178 13.3664627075
36.6392707825 -30.6525821686 13.1603708267
36.6166954041 -30.6316890717 12.9559001923
36.6029090881 -30.6181526184 12.7543325424
36.6006965637 -30.6142978668 12.5566215515
36.6115112305 -30.6213474274 12.3632869720
36.6358032227 -30.6396751404 12.1745128632
36.6728515625 -30.6686763763 11.9900836945
36.7196502686 -30.7058391571 11.8090114594
36.7707328796 -30.7465858459 11.6294612885
36.8208961487 -30.7865657806 11.4496669769
36.8688621521 -30.8247070313 11.2691898346
36.9173316956 -30.8632698059 11.0889511108
36.9686088562 -30.9041843414 10.9097433090
37.0205802917 -30.9456787109 10.7308435440
37.0674018860 -30.9828662872 10.5502405167
37.1037635803 -31.0112972260 10.3660821915
37.1279449463 -31.0295372009 10.1777505875
37.1416549683 -31.0390129089 9.9858083725
37.1476936340 -31.0420684814 9.7912073135
37.1471023560 -31.0395755768 9.5942907333
37.1371612549 -31.0292549133 9.3940916061
37.1125640869 -31.0066699982 9.1887283325
37.0705680847 -30.9695205688 8.9772014618
37.0159301758 -30.9217910767 8.7611455917
36.9604606628 -30.8733634949 8.5446977615
36.9172897339 -30.8352260590 8.3325004578
36.8954505920 -30.8149471283 8.1277866364
36.8989105225 -30.8158416748 7.9320154190
36.9285163879 -30.8386211395 7.7455501556
36.9829597473 -30.8821868896 7.5679845810
37.0577545166 -30.9427947998 7.3977766037
37.1446647644 -31.0135402679 7.2320184708
37.2331504822 -31.0856056213 7.0669536591
37.3132896423 -31.1506900787 6.8990149498
37.3785095215 -31.2032852173 6.7258071899
37.4270629883 -31.2419281006 6.5466642380
37.4617271423 -31.2689456940 6.3625521660
37.4875679016 -31.2885799408 6.1752800941
37.5087509155 -31.3043155670 5.9863414764
37.5264434814 -31.3171272278 5.7961521149
37.5393638611 -31.3259449005 5.6042346954
37.5458984375 -31.3294162750 5.4099860191
37.5453948975 -31.3269958496 5.2131519318
37.5376853943 -31.3185424805 5.0136542320
37.5219802856 -31.3033962250 4.8111839294
37.4965591431 -31.2801170349 4.6050853729
37.4600524902 -31.2475566864 4.3948292732
37.4137611389 -31.2068042755 4.1808714867
37.3626480103 -31.1620121002 3.9650328159
37.3128128052 -31.1182899475 3.7495789528
37.2674064636 -31.0782756805 3.5356900692
37.2258758545 -31.0415039063 3.3231680393
37.1880302429 -31.0078182220 3.1119527817
37.1579704285 -30.9806480408 2.9035918713
37.1421546936 -30.9654026031 2.7005403042
37.1428985596 -30.9640235901 2.5037062168
37.1544342041 -30.9716815948 2.3109469414
37.1660232544 -30.9793796539 2.1182138920
37.1685295105 -30.9794750214 1.9220370054
37.1582221985 -30.9688415527 1.7209722996
37.1358032227 -30.9480686188 1.5152597427
37.1032943726 -30.9188461304 1.3056406975
37.0614814758 -30.8818321228 1.0923926830
37.0094985962 -30.8363018036 0.8751614690
36.9466247559 -30.7816505432 0.6536450386
36.8747253418 -30.7194423676 0.4285374880
36.7991027832 -30.6541137695 0.2018644810
-17.5091819763 -42.8538856506 92.0661087036
-17.5203094482 -42.8789482117 91.8746032715
-17.5388031006 -42.9200820923 91.6835708618
-17.5613994598 -42.9701652527 91.4928283691
-17.5850524902 -43.0225524902 91.3022155762
-17.6086139679 -43.0747413635 91.1116638184
-17.6341762543 -43.1312942505 90.9212951660
-17.6661376953 -43.2018051147 90.7314300537
-17.7065067291 -43.2906608582 90.5422286987
-17.7496280670 -43.3855247498 90.3533248901
-17.7827320099 -43.4585304260 90.1638412476
-17.7934875488 -43.4827766418 89.9728164673
-17.7778987885 -43.4495506287 89.7798690796
-17.7419795990 -43.3719711304 89.5853271484
-17.6965980530 -43.2737464905 89.3899383545
-17.6496810913 -43.1721725464 89.1942901611
-17.6021442413 -43.0692443848 88.9984512329
-17.5511837006 -42.9588508606 88.8021774292
-17.4972152710 -42.8418960571 88.6054916382
-17.4464778900 -42.7319908142 88.4089202881
-17.4065780640 -42.6457290649 88.2131118774
-17.3804893494 -42.5895996094 88.0183944702
-17.3650112152 -42.5566177368 87.8245391846
-17.3537845612 -42.5329093933 87.6310119629
-17.3417453766 -42.5074310303 87.4373703003
-17.3289699554 -42.4803466797 87.2436141968
-17.3225116730 -42.4670448303 87.0504150391
-17.3340816498 -42.4930686951 86.8589324951
-17.3729686737 -42.5786933899 86.6701507568
-17.4382019043 -42.7217864990 86.4841003418
-17.5169487000 -42.8943634033 86.2995986938
-17.5927410126 -43.0604934692 86.1150283813
-17.6567001343 -43.2008094788 85.9294433594
-17.7102890015 -43.3185005188 85.7429580688
-17.7578372955 -43.4230117798 85.5559692383
-17.7988758087 -43.5133209229 85.3684082031
-17.8285388947 -43.5788154602 85.1797180176
-17.8428535461 -43.6108245850 84.9893951416
-17.8411159515 -43.6078186035 84.7973022461
-17.8238334656 -43.5708999634 84.6034088135
-17.7911891937 -43.5004692078 84.4076843262
-17.7449703217 -43.4004287720 84.2102508545
-17.6903915405 -43.2821464539 84.0116882324
-17.6338825226 -43.1596565247 83.8127212524
-17.5791492462 -43.0410423279 83.6137924194
-17.5265884399 -42.9271659851 83.4149551392
-17.4763965607 -42.8184623718 83.2162628174
-17.4310321808 -42.7202873230 83.0180130005
-17.3944187164 -42.6412010193 82.8207473755
-17.3700675964 -42.5888671875 82.6249465942
-17.3605747223 -42.5689468384 82.4310073853
-17.3675518036 -42.5849533081 82.2392196655
-17.3908843994 -42.6366386414 82.0496292114
-17.4284706116 -42.7194175720 81.8620376587
-17.4764976501 -42.8249664307 81.6759796143
-17.5288162231 -42.9398803711 81.4906463623
-17.5768375397 -43.0454216003 81.3048629761
-17.6126499176 -43.1243286133 81.1174926758
-17.6336116791 -43.1708374023 80.9281005859
-17.6437397003 -43.1937141418 80.7371978760
-17.6501178741 -43.2084121704 80.5457763672
-17.6575450897 -43.2254028320 80.3545227051
-17.6658725739 -43.2443504333 80.1634140015
-17.6712417603 -43.2568473816 79.9718780518
-17.6681556702 -43.2509002686 79.7790679932
-17.6502857208 -43.2127075195 79.5839767456
-17.6124668121 -43.1309928894 79.3857421875
-17.5558433533 -43.0082664490 79.1844406128
-17.4916553497 -42.8690338135 78.9817733765
-17.4371223450 -42.7508697510 78.7804412842
-17.4052276611 -42.6820831299 78.5825805664
-17.3977622986 -42.6665802002 78.3885803223
-17.4073143005 -42.6882057190 78.1973419189
-17.4250717163 -42.7277297974 78.0074768066
-17.4474754333 -42.7773818970 77.8184356689
-17.4769554138 -42.8424758911 77.6306457520
-17.5169601440 -42.9305191040 77.4447174072
-17.5662212372 -43.0387611389 77.2604904175
-17.6179141998 -43.1523017883 77.0768280029
-17.6643562317 -43.2543907166 76.8923950195
-17.7023639679 -43.3380813599 76.7066040039
-17.7347145081 -43.4094314575 76.5199279785
-17.7677001953 -43.4821624756 76.3334503174
-17.8069171906 -43.5684890747 76.1481857300
-17.8531761169 -43.6701736450 75.9643173218
-17.9010639191 -43.7754135132 75.7808761597
-17.9423408508 -43.8662338257 75.5963439941
-17.9716472626 -43.9309387207 75.4097061157
-17.9889335632 -43.9694290161 75.2208938599
-17.9969673157 -43.9877357483 75.0303726196
-17.9973583221 -43.9893722534 74.8384094238
-17.9886627197 -43.9711875916 74.6446990967
-17.9676322937 -43.9261016846 74.4485626221
-17.9329338074 -43.8512001038 74.2496948242
-17.8887500763 -43.7556152344 74.0488433838
-17.8444633484 -43.6598014832 73.8478317261
-17.8097991943 -43.5849800110 73.6486053467
-17.7900619507 -43.5427131653 73.4522705078
-17.7858619690 -43.5343399048 73.2590179443
-17.7962951660 -43.5578804016 73.0687332153
-17.8211612701 -43.6128997803 72.8814468384
-17.8604297638 -43.6993370056 72.6972045898
-17.9128456116 -43.8144454956 72.5158157349
-17.9754600525 -43.9517974854 72.3367233276
-18.0434665680 -44.1009140015 72.1589508057
-18.1103019714 -44.2474708557 71.9811248779
-18.1697750092 -44.3779716492 71.8019104004
-18.2192344666 -44.4866294861 71.6207046509
-18.2596302032 -44.5755195618 71.4376678467
-18.2922668457 -44.6474838257 71.2530441284
-18.3169155121 -44.7020301819 71.0667495728
-18.3332347870 -44.7384033203 70.8786697388
-18.3424339294 -44.7592506409 70.6890411377
-18.3468227386 -44.7696075439 70.4983520508
-18.3483963013 -44.7738151550 70.3070297241
-18.3479499817 -44.7736282349 70.1152420044
-18.3448562622 -44.7676620483 69.9228363037
-18.3368721008 -44.7510299683 69.7292938232
-18.3207759857 -44.7167053223 69.5338211060
-18.2950801849 -44.6614494324 69.3360519409
-18.2638015747 -44.5940093994 69.1368865967
-18.2371330261 -44.5366249084 68.9387130737
-18.2265205383 -44.5142669678 68.7442779541
-18.2375278473 -44.5390586853 68.5550003052
-18.2663860321 -44.6027755737 68.3700561523
-18.3030414581 -44.6835060120 68.1870956421
-18.3382797241 -44.7611427307 68.0038833618
-18.3690128326 -44.8289527893 67.8196640015
-18.3978576660 -44.8926429749 67.6350631714
-18.4287643433 -44.9608306885 67.4510498047
-18.4629077911 -45.0360794067 67.2679367065
-18.4975051880 -45.1123161316 67.0850372314
-18.5279560089 -45.1795120239 66.9011764526
-18.5511169434 -45.2308044434 66.7155456543
-18.5668125153 -45.2658195496 66.5280609131
-18.5767250061 -45.2882194519 66.3391189575
-18.5826435089 -45.3019065857 66.1491699219
-18.5857028961 -45.3093605042 65.9584808350
-18.5865478516 -45.3119812012 65.7672119141
-18.5856075287 -45.3107147217 65.5754699707
-18.5831775665 -45.3061981201 65.3833160400
-18.5793247223 -45.2985763550 65.1907730103
-18.5737152100 -45.2871246338 64.9977416992
-18.5653114319 -45.2695732117 64.8039321899
-18.5522613525 -45.2419013977 64.6088256836
-18.5328617096 -45.2003707886 64.4119415283
-18.5079193115 -45.1467590332 64.2134704590
-18.4831275940 -45.0934715271 64.0149536133
-18.4685268402 -45.0624122620 63.8191909790
-18.4738273621 -45.0747566223 63.6289253235
-18.5024070740 -45.1378631592 63.4452056885
-18.5491600037 -45.2406082153 63.2666854858
-18.6042881012 -45.3616142273 63.0906791687
-18.6596622467 -45.4831542969 62.9148979187
-18.7127246857 -45.5996589661 62.7386131287
-18.7654666901 -45.7154579163 62.5623893738
-18.8195838928 -45.8342552185 62.3867111206
-18.8723335266 -45.9500694275 62.2107963562
-18.9175395966 -46.0494384766 62.0328216553
-18.9504623413 -46.1220130920 61.8513641357
-18.9706783295 -46.1668815613 61.6662445068
-18.9803390503 -46.1887283325 61.4780426025
-18.9806213379 -46.1901206970 61.2870597839
-18.9701957703 -46.1681671143 61.0928611755
-18.9471645355 -46.1187210083 60.8948211670
-18.9132137299 -46.0454635620 60.6933975220
-18.8757343292 -45.9645080566 60.4907875061
-18.8441219330 -45.8963546753 60.2898559570
-18.8230438232 -45.8511695862 60.0920639038
-18.8103408813 -45.8242492676 59.8967857361
-18.8018932343 -45.8066062927 59.7027854919
-18.7971401215 -45.7970237732 59.5099067688
-18.7994060516 -45.8027458191 59.3192100525
-18.8122329712 -45.8314971924 59.1318359375
-18.8360271454 -45.8841629028 58.9479675293
-18.8675956726 -45.9537887573 58.7666397095
-18.9028053284 -46.0313491821 58.5865592957
-18.9401950836 -46.1136665344 58.4072761536
-18.9818687439 -46.2053222656 58.2294845581
-19.0302715302 -46.3116531372 58.0539894104
-19.0841293335 -46.4298744202 57.8804092407
-19.1380290985 -46.5481910706 57.7069969177
-19.1856365204 -46.6527862549 57.5316696167
-19.2223892212 -46.7337074280 57.3528976440
-19.2456874847 -46.7852935791 57.1697692871
-19.2550239563 -46.8064270020 56.9820518494
-19.2531013489 -46.8030128479 56.7905883789
-19.2454833984 -46.7871818542 56.5971984863
-19.2378826141 -46.7713890076 56.4037857056
-19.2335472107 -46.7627105713 56.2114486694
-19.2320728302 -46.7602767944 56.0200653076
-19.2285728455 -46.7534217834 55.8279800415
-19.2136631012 -46.7216873169 55.6319541931
-19.1770324707 -46.6425933838 55.4283828735
-19.1152496338 -46.5086517334 55.2159767151
-19.0388278961 -46.3427886963 54.9982833862
-18.9707584381 -46.1951408386 54.7832717896
-18.9348087311 -46.1175346375 54.5793266296
-18.9423446655 -46.1347427368 54.3905982971
-18.9881000519 -46.2352943420 54.2154197693
-19.0557994843 -46.3836975098 54.0481758118
-19.1269607544 -46.5396461487 53.8823661804
-19.1880588531 -46.6736488342 53.7131538391
-19.2346496582 -46.7760200500 53.5388908386
-19.2715721130 -46.8573112488 53.3612670898
-19.3090858459 -46.9398918152 53.1839637756
-19.3565559387 -47.0441741943 53.0103950500
-19.4160270691 -47.1746292114 52.8413543701
-19.4798736572 -47.3146247864 52.6740951538
-19.5357666016 -47.4372749329 52.5040855408
-19.5753135681 -47.5242843628 52.3281784058
-19.5981960297 -47.5749549866 52.1461791992
-19.6091575623 -47.5996284485 51.9597892761
-19.6127929688 -47.6083335876 51.7706794739
-19.6106872559 -47.6045227051 51.5794067383
-19.6012306213 -47.5846786499 51.3853454590
-19.5812625885 -47.5419197083 51.1872558594
-19.5492706299 -47.4729385376 50.9845161438
-19.5085601807 -47.3849525452 50.7783355713
-19.4670772552 -47.2952804565 50.5717315674
-19.4330883026 -47.2219505310 50.3678855896
-19.4106330872 -47.1737670898 50.1683959961
-19.3988685608 -47.1488952637 49.9729843140
-19.3947753906 -47.1407470703 49.7805252075
-19.3959178925 -47.1440162659 49.5900993347
-19.4016742706 -47.1573486328 49.4014816284
-19.4134788513 -47.1838645935 49.2152633667
-19.4344024658 -47.2302665710 49.0326843262
-19.4671669006 -47.3024826050 48.8548736572
-19.5106124878 -47.3979873657 48.6814155579
-19.5578594208 -47.5017814636 48.5096054077
-19.5994129181 -47.5931587219 48.3356399536
-19.6290416718 -47.6585350037 48.1569824219
-19.6465721130 -47.6975326538 47.9734992981
-19.6556625366 -47.7181320190 47.7866325378
-19.6601409912 -47.7286720276 47.5979003906
-19.6620883942 -47.7336959839 47.4081382751
-19.6615867615 -47.7333831787 47.2173690796
-19.6566925049 -47.7234878540 47.0247764587
-19.6436176300 -47.6957588196 46.8287773132
-19.6185874939 -47.6419639587 46.6277580261
-19.5815887451 -47.5620765686 46.4216651917
-19.5387744904 -47.4695091248 46.2130165100
-19.4997291565 -47.3851585388 46.0058174133
-19.4714565277 -47.3242950439 45.8030357361
-19.4551429749 -47.2895050049 45.6052246094
-19.4481029510 -47.2749366760 45.4112968445
-19.4476375580 -47.2747001648 45.2201423645
-19.4533729553 -47.2879829407 45.0316352844
-19.4674892426 -47.3195381165 44.8467330933
-19.4931488037 -47.3762626648 44.6668395996
-19.5314235687 -47.4604873657 44.4924736023
-19.5784988403 -47.5639038086 44.3220291138
-19.6262702942 -47.6688308716 44.1520233154
-19.6665802002 -47.7574920654 43.9788970947
-19.6952991486 -47.8208847046 43.8008041382
-19.7128181458 -47.8598556519 43.6178627014
-19.7219982147 -47.8806457520 43.4312896729
-19.7263183594 -47.8908424377 43.2425842285
-19.7289161682 -47.8972854614 43.0531158447
-19.7317924500 -47.9043350220 42.8637771606
-19.7351970673 -47.9125328064 42.6746749878
-19.7378215790 -47.9190368652 42.4852256775
-19.7379512787 -47.9200935364 42.2946548462
-19.7345237732 -47.9134025574 42.1024665833
-19.7268791199 -47.8975143433 41.9083518982
-19.7131175995 -47.8682861328 41.7114219666
-19.6890544891 -47.8166046143 41.5097465515
-19.6504955292 -47.7333221436 41.3013534546
-19.5988140106 -47.6214294434 41.0868034363
-19.5447444916 -47.5043296814 40.8709945679
-19.5048484802 -47.4181327820 40.6615676880
-19.4925422668 -47.3920860291 40.4648170471
-19.5114002228 -47.4339752197 40.2825241089
-19.5546150208 -47.5289688110 40.1116523743
-19.6088638306 -47.6480102539 39.9460754395
-19.6600494385 -47.7603797913 39.7792167664
-19.6989002228 -47.8458557129 39.6066894531
-19.7234477997 -47.9001502991 39.4275054932
-19.7371177673 -47.9307250977 39.2432250977
-19.7447071075 -47.9480476379 39.0560874939
-19.7496662140 -47.9596405029 38.8677101135
-19.7535438538 -47.9688720703 38.6788253784
-19.7565250397 -47.9761466980 38.4895095825
-19.7578907013 -47.9799041748 38.2994194031
-19.7564144135 -47.9774627686 38.1079521179
-19.7511348724 -47.9667358398 37.9146308899
-19.7421607971 -47.9479446411 37.7194862366
-19.7301654816 -47.9225769043 37.5228347778
-19.7142200470 -47.8885955811 37.3242034912
-19.6903839111 -47.8374137878 37.1216468811
-19.6544780731 -47.7599182129 36.9130630493
-19.6083908081 -47.6602287292 36.6993331909
-19.5639915466 -47.5642204285 36.4862976074
-19.5390338898 -47.5105972290 36.2827835083
-19.5466079712 -47.5278854370 36.0954055786
-19.5861015320 -47.6147575378 35.9240074158
-19.6429004669 -47.7393531799 35.7613983154
-19.6976356506 -47.8594512939 35.5979194641
-19.7377586365 -47.9476928711 35.4272232056
-19.7619857788 -48.0012893677 35.2486000061
-19.7761020660 -48.0328407288 35.0649070740
-19.7866001129 -48.0564994812 34.8794059753
-19.7977371216 -48.0815620422 34.6942558289
-19.8119277954 -48.1132698059 34.5107002258
-19.8306655884 -48.1548995972 34.3295135498
-19.8542175293 -48.2070159912 34.1508560181
-19.8801307678 -48.2642822266 33.9734840393
-19.9026126862 -48.3140678406 33.7944030762
-19.9148864746 -48.3415985107 33.6100769043
-19.9135417938 -48.3394470215 33.4186859131
-19.9009437561 -48.3127632141 33.2214012146
-19.8831977844 -48.2748565674 33.0213699341
-19.8658676147 -48.2378616333 32.8215026855
-19.8513813019 -48.2070617676 32.6230697632
-19.8392524719 -48.1814002991 32.4258346558
-19.8273010254 -48.1561279297 32.2286491394
-19.8125686646 -48.1247901917 32.0299415588
-19.7925395966 -48.0819129944 31.8283615112
-19.7671642303 -48.0273780823 31.6238517761
-19.7400913239 -47.9691467285 31.4183483124
-19.7171878815 -47.9200019836 31.2150001526
-19.7034168243 -47.8907623291 31.0165004730
-19.7010860443 -47.8864593506 30.8241367340
-19.7100105286 -47.9066925049 30.6378669739
-19.7277374268 -47.9461135864 30.4564018250
-19.7495784760 -47.9945030212 30.2772274017
-19.7701072693 -48.0400314331 30.0973949432
-19.7857799530 -48.0749702454 29.9149532318
-19.7961311340 -48.0983123779 29.7296257019
-19.8025817871 -48.1131515503 29.5421733856
-19.8063888550 -48.1222305298 29.3532695770
-19.8071479797 -48.1246643066 29.1626834869
-19.8018646240 -48.1139297485 28.9687309265
-19.7849617004 -48.0778656006 28.7682800293
-19.7509212494 -48.0044479370 28.5581912994
-19.6995544434 -47.8932609558 28.3382816315
-19.6392097473 -47.7625122070 28.1131668091
-19.5828990936 -47.6405525208 27.8901348114
-19.5399436951 -47.5477066040 27.6744709015
-19.5114822388 -47.4864463806 27.4668807983
-19.4927310944 -47.4463615417 27.2647132874
-19.4773731232 -47.4136657715 27.0644149780
-19.4601802826 -47.3769760132 26.8630142212
-19.4392013550 -47.3320274353 26.6593875885
-19.4186153412 -47.2879409790 26.4559173584
-19.4084663391 -47.2666015625 26.2583827972
-19.4176692963 -47.2874450684 26.0719795227
-19.4456710815 -47.3492622375 25.8964729309
-19.4825096130 -47.4303359985 25.7261695862
-19.5172424316 -47.5068206787 25.5547466278
-19.5445957184 -47.5672225952 25.3791179657
-19.5644550323 -47.6112861633 25.1991825104
-19.5784168243 -47.6424980164 25.0158443451
-19.5879688263 -47.6641006470 24.8299503326
-19.5942115784 -47.6784896851 24.6421298981
-19.5977325439 -47.6869430542 24.4527130127
-19.5984210968 -47.6892280579 24.2616214752
-19.5953216553 -47.6832542419 24.0682773590
-19.5865516663 -47.6649208069 23.8715400696
-19.5697555542 -47.6290931702 23.6699810028
-19.5434589386 -47.5725631714 23.4626827240
-19.5086803436 -47.4975433350 23.2502079010
-19.4693698883 -47.4126472473 23.0348987579
-19.4310035706 -47.3298072815 22.8200302124
-19.3981533051 -47.2589950562 22.6083736420
-19.3727779388 -47.2044715881 22.4011383057
-19.3544158936 -47.1652336121 22.1980800629
-19.3417167664 -47.1383399963 21.9984035492
-19.3337116241 -47.1216735840 21.8015480042
-19.3300170898 -47.1144065857 21.6072998047
-19.3304195404 -47.1160659790 21.4155445099
-19.3344917297 -47.1257286072 21.2260398865
-19.3414840698 -47.1417503357 21.0383396149
-19.3503723145 -47.1619033813 20.8518257141
-19.3600578308 -47.1837959290 20.6658248901
-19.3695526123 -47.2052726746 20.4797306061
-19.3780860901 -47.2246551514 20.2930564880
-19.3850479126 -47.2406082153 20.1054210663
-19.3897953033 -47.2517395020 19.9164161682
-19.3914279938 -47.2560844421 19.7254657745
-19.3885574341 -47.2506103516 19.5316829681
-19.3793640137 -47.2313575745 19.3339004517
-19.3624019623 -47.1951751709 19.1311779022
-19.3379478455 -47.1426620483 18.9236545563
-19.3084621429 -47.0791854858 18.7128582001
-19.2770824432 -47.0115814209 18.5007591248
-19.2456798553 -46.9439277649 18.2885456085
-19.2151432037 -46.8781623840 18.0767822266
-19.1872043610 -46.8180541992 17.8665828705
-19.1647758484 -46.7699623108 17.6598320007
-19.1502647400 -46.7391242981 17.4581012726
-19.1444664001 -46.7272720337 17.2619400024
-19.1474647522 -46.7345924377 17.0714397430
-19.1600341797 -46.7627677917 16.8871459961
-19.1835002899 -46.8146972656 16.7099628448
-19.2178134918 -46.8902587891 16.5399055481
-19.2595577240 -46.9820175171 16.3747959137
-19.3023376465 -47.0760307312 16.2104816437
-19.3397750854 -47.1584053040 16.0427894592
-19.3685836792 -47.2219696045 15.8695306778
-19.3890609741 -47.2673835754 15.6908655167
-19.4032783508 -47.2991485596 15.5081205368
-19.4130744934 -47.3212814331 15.3224868774
-19.4193820953 -47.3358116150 15.1345624924
-19.4226303101 -47.3436737061 14.9446153641
-19.4233169556 -47.3459548950 14.7529649734
-19.4221878052 -47.3442764282 14.5600967407
-19.4199924469 -47.3402748108 14.3665046692
-19.4171886444 -47.3349533081 14.1724910736
-19.4138965607 -47.3285598755 13.9781332016
-19.4100952148 -47.3210601807 13.7834148407
-19.4058208466 -47.3125267029 13.5883588791
-19.4011077881 -47.3030433655 13.3929862976
-19.3956298828 -47.2918891907 13.1970739365
-19.3884010315 -47.2769203186 12.9999456406
-19.3783397675 -47.2557792664 12.8008604050
-19.3658618927 -47.2293739319 12.6000862122
-19.3540287018 -47.2043724060 12.3997087479
-19.3476123810 -47.1911735535 12.2030038834
-19.3506412506 -47.1985588074 12.0127658844
-19.3644657135 -47.2294692993 11.8299684525
-19.3872051239 -47.2798042297 11.6533603668
-19.4142913818 -47.3396186829 11.4798240662
-19.4401912689 -47.3968391418 11.3055381775
-19.4607295990 -47.4423789978 11.1275978088
-19.4743747711 -47.4728965759 10.9449110031
-19.4816761017 -47.4895973206 10.7578315735
-19.4839382172 -47.4953079224 10.5672407150
-19.4823989868 -47.4927368164 10.3739843369
-19.4780597687 -47.4840660095 10.1787481308
-19.4716205597 -47.4708213806 9.9820146561
-19.4633617401 -47.4536056519 9.7839698792
-19.4530525208 -47.4319267273 9.5844421387
-19.4401988983 -47.4047012329 9.3830747604
-19.4250450134 -47.3724632263 9.1800260544
-19.4102573395 -47.3410263062 8.9771862030
-19.4016914368 -47.3231468201 8.7787313461
-19.4062519073 -47.3338699341 8.5896263123
-19.4279460907 -47.3819274902 8.4127998352
-19.4660339355 -47.4657058716 8.2477989197
-19.5167980194 -47.5771064758 8.0920228958
-19.5757808685 -47.7064170837 7.9423193932
-19.6379070282 -47.8425750732 7.7950568199
-19.6975536346 -47.9733314514 7.6461820602
-19.7510147095 -48.0906028748 7.4929933548
-19.7988471985 -48.1956176758 7.3358697891
-19.8444671631 -48.2958068848 7.1772718430
-19.8900051117 -48.3958168030 7.0187458992
-19.9337368011 -48.4918861389 6.8590288162
-19.9711322784 -48.5741539001 6.6947937012
-19.9978599548 -48.6331748962 6.5228309631
-20.0120372772 -48.6648483276 6.3417043686
-20.0144786835 -48.6709518433 6.1519598961
-20.0074977875 -48.6565208435 5.9552516937
-19.9934177399 -48.6266212463 5.7532587051
-19.9735965729 -48.5842132568 5.5469555855
-19.9484558105 -48.5302162170 5.3366303444
-19.9186344147 -48.4660186768 5.1227345467
-19.8863239288 -48.3964004517 4.9068822861
-19.8553562164 -48.3297042847 4.6919298172
-19.8296451569 -48.2744674683 4.4808177948
-19.8113365173 -48.2353553772 4.2751789093
-19.8003063202 -48.2121086121 4.0749578476
-19.7952136993 -48.2017936707 3.8791732788
-19.7947292328 -48.2015228271 3.6868484020
-19.7980823517 -48.2096099854 3.4974203110
-19.8050956726 -48.2256736755 3.3107724190
-19.8162040710 -48.2506599426 3.1272523403
-19.8323326111 -48.2865867615 2.9475831985
-19.8540382385 -48.3346633911 2.7722122669
-19.8799190521 -48.3918380737 2.6000940800
-19.9056797028 -48.4487457275 2.4279541969
-19.9253368378 -48.4923591614 2.2511999607
-19.9339981079 -48.5120162964 2.0660386086
-19.9300346375 -48.5041618347 1.8711643219
-19.9155197144 -48.4733200073 1.6681227684
-19.8950939178 -48.4295959473 1.4604533911
-19.8735485077 -48.3834381104 1.2518491745
-19.8533191681 -48.3401451111 1.0441926718
-19.8337879181 -48.2983741760 0.8370126486
-19.8130779266 -48.2540359497 0.6288471818
-19.7905273438 -48.2056846619 0.4191728532
-19.7677688599 -48.1568832397 0.2092594057
-19.7479324341 -48.1144485474 0.0015637615
10.5539417267 -15.7918043137 88.0897216797
10.5645990372 -15.8037853241 87.8799362183
10.5847196579 -15.8288965225 87.6705398560
10.6105527878 -15.8619346619 87.4614028931
10.6403808594 -15.9005165100 87.2524719238
10.6739721298 -15.9443197250 87.0437545776
10.7110300064 -15.9929332733 86.8352432251
10.7507362366 -16.0452232361 86.6269073486
10.7919864655 -16.0996570587 86.4187164307
10.8331708908 -16.1539974213 86.2105941772
10.8713912964 -16.2042293549 86.0024032593
10.9016780853 -16.2434520721 85.7938842773
10.9175777435 -16.2627124786 85.5847015381
10.9148607254 -16.2561378479 85.3745880127
10.8968524933 -16.2283477783 85.1636581421
10.8766145706 -16.1974620819 84.9525604248
10.8736219406 -16.1905059814 84.7423477173
10.9075536728 -16.2347869873 84.5341415405
10.9929637909 -16.3505077362 84.3288803101
11.1365451813 -16.5469532013 84.1271057129
11.3354921341 -16.8202342987 83.9288253784
11.5751428604 -17.1500053406 83.7333450317
11.8286304474 -17.4989852905 83.5391769409
12.0641069412 -17.8229751587 83.3444137573
12.2579002380 -18.0891284943 83.1475219727
12.4034204483 -18.2882919312 82.9479675293
12.5091018677 -18.4321708679 82.7461318970
12.5892400742 -18.5406055450 82.5428390503
12.6552085876 -18.6293754578 82.3387603760
12.7115144730 -18.7047367096 82.1341476440
12.7574605942 -18.7657222748 81.9289321899
12.7916259766 -18.8103599548 81.7229766846
12.8147621155 -18.8396892548 81.5163040161
12.8293371201 -18.8571376801 81.3090591431
12.8376655579 -18.8659172058 81.1013793945
12.8408861160 -18.8676071167 80.8933181763
12.8391437531 -18.8624095917 80.6848907471
12.8322868347 -18.8501129150 80.4760589600
12.8204965591 -18.8309669495 80.2668228149
12.8045101166 -18.8059978485 80.0572204590
12.7852249146 -18.7764492035 79.8473205566
12.7627468109 -18.7424678802 79.6371078491
12.7356243134 -18.7020378113 79.4264602661
12.7015256882 -18.6519260406 79.2151794434
12.6594648361 -18.5907611847 79.0031585693
12.6118383408 -18.5218677521 78.7905731201
12.5647659302 -18.4537429810 78.5779190063
12.5279207230 -18.3998146057 78.3660354614
12.5139942169 -18.3776950836 78.1560516357
12.5341043472 -18.4028244019 77.9490203857
12.5893611908 -18.4767398834 77.7451324463
12.6679639816 -18.5830669403 77.5434494019
12.7540502548 -18.6997833252 77.3425903320
12.8388404846 -18.8146991730 77.1417770386
12.9213800430 -18.9264965057 76.9409179688
13.0011129379 -19.0343990326 76.7399520874
13.0737133026 -19.1324024200 76.5384597778
13.1340732574 -19.2134132385 76.3359222412
13.1812000275 -19.2760581970 76.1322174072
13.2197771072 -19.3268318176 75.9277572632
13.2578182220 -19.3768653870 75.7233123779
13.3036489487 -19.4377117157 75.5197067261
13.3656692505 -19.5210361481 75.3178253174
13.4553356171 -19.6427421570 75.1188812256
13.5880270004 -19.8241825104 74.9245452881
13.7757587433 -20.0820407867 74.7362136841
14.0145797729 -20.4108352661 74.5536270142
14.2794084549 -20.7757415771 74.3742828369
14.5351314545 -21.1280155182 74.1944885254
14.7556819916 -21.4314613342 74.0113983154
14.9335584641 -21.6756629944 73.8240814209
15.0738630295 -21.8677082062 73.6329727173
15.1836452484 -22.0173759460 73.4387359619
15.2678728104 -22.1315650940 73.2418441772
15.3314094543 -22.2170314789 73.0427627563
15.3801546097 -22.2819576263 72.8421020508
15.4193477631 -22.3336257935 72.6404266357
15.4522628784 -22.3765754700 72.4380874634
15.4813747406 -22.4142475128 72.2353591919
15.5100784302 -22.4513511658 72.0326232910
15.5416307449 -22.4924125671 71.8302764893
15.5761051178 -22.5375308990 71.6283416748
15.6104536057 -22.5824756622 71.4264450073
15.6434974670 -22.6256103516 71.2244415283
15.6799345016 -22.6734561920 71.0229187012
15.7285308838 -22.7381858826 70.8229751587
15.7978210449 -22.8316555023 70.6257171631
15.8933277130 -22.9615306854 70.4319152832
16.0150184631 -23.1277675629 70.2416534424
16.1547145844 -23.3190135956 70.0539398193
16.2972278595 -23.5141735077 69.8668670654
16.4267196655 -23.6912555695 69.6783752441
16.5342693329 -23.8378677368 69.4872360229
16.6208114624 -23.9553108215 69.2935180664
16.6936321259 -24.0537014008 69.0981216431
16.7598400116 -24.1429100037 68.9019699097
16.8219032288 -24.2263641357 68.7053756714
16.8770923615 -24.3002719879 68.5079574585
16.9194984436 -24.3564319611 68.3088760376
16.9431247711 -24.3865070343 68.1072540283
16.9451999664 -24.3866539001 67.9026489258
16.9284172058 -24.3606109619 67.6953659058
16.9006614685 -24.3193302155 67.4864807129
16.8727931976 -24.2778873444 67.2775115967
16.8564090729 -24.2523975372 67.0701293945
16.8620471954 -24.2574882507 66.8658981323
16.8960876465 -24.3020324707 66.6658248901
16.9574279785 -24.3844909668 66.4698257446
17.0379867554 -24.4936447144 66.2768020630
17.1273136139 -24.6149787903 66.0852355957
17.2166404724 -24.7363147736 65.8938446045
17.3002128601 -24.8496608734 65.7017517090
17.3760681152 -24.9522914886 65.5086364746
17.4469051361 -25.0479507446 65.3149032593
17.5184669495 -25.1446228027 65.1214065552
17.5947723389 -25.2478809357 64.9287872314
17.6739730835 -25.3551635742 64.7367706299
17.7491931915 -25.4569206238 64.5442657471
17.8137130737 -25.5438156128 64.3502120972
17.8652324677 -25.6126537323 64.1542053223
17.9053573608 -25.6656646729 63.9564552307
17.9362697601 -25.7058811188 63.7572860718
17.9589233398 -25.7346248627 63.5568237305
17.9738426208 -25.7526245117 63.3551254272
17.9824218750 -25.7618198395 63.1524047852
17.9873733521 -25.7659721375 62.9490852356
17.9929866791 -25.7710456848 62.7458724976
18.0060901642 -25.7865219116 62.5439186096
18.0368957520 -25.8265953064 62.3449707031
18.0978870392 -25.9085998535 62.1512069702
18.1994323730 -26.0469455719 61.9644927979
18.3432769775 -26.2440547943 61.7852554321
18.5174846649 -26.4833526611 61.6115570068
18.6980972290 -26.7315502167 61.4393196106
18.8597431183 -26.9534053802 61.2641220093
18.9895000458 -27.1309604645 61.0836257935
19.0928344727 -27.2718124390 60.8987007141
19.1860504150 -27.3986091614 60.7121696472
19.2810459137 -27.5278778076 60.5261421204
19.3749256134 -27.6555995941 60.3400917053
19.4533786774 -27.7618904114 60.1514282227
19.5042953491 -27.8299255371 59.9578933716
19.5278987885 -27.8600139618 59.7594375610
19.5344276428 -27.8663787842 59.5578689575
19.5345993042 -27.8639125824 59.3551216125
19.5335865021 -27.8597965240 59.1521415710
19.5318946838 -27.8547401428 58.9490203857
19.5290336609 -27.8480567932 58.7456626892
19.5259838104 -27.8411140442 58.5422515869
19.5260009766 -27.8384284973 58.3394050598
19.5344829559 -27.8475074768 58.1381721497
19.5579929352 -27.8774681091 57.9398345947
19.6022548676 -27.9362640381 57.7455596924
19.6700839996 -28.0278072357 57.5559501648
19.7605190277 -28.1507663727 57.3708953857
19.8695354462 -28.2995471954 57.1896705627
19.9915580750 -28.4664039612 57.0112342834
20.1207141876 -28.6431732178 56.8344535828
20.2509517670 -28.8214511871 56.6581459045
20.3758201599 -28.9922733307 56.4810142517
20.4891967773 -29.1471271515 56.3018074036
20.5860233307 -29.2789859772 56.1194610596
20.6617641449 -29.3815460205 55.9330024719
20.7124824524 -29.4493331909 55.7415542603
20.7377071381 -29.4816932678 55.5449409485
20.7436733246 -29.4872913361 55.3443794250
20.7420425415 -29.4823322296 55.1422386169
20.7438068390 -29.4820899963 54.9407882690
20.7534923553 -29.4928569794 54.7409973145
20.7683467865 -29.5108089447 54.5423088074
20.7825679779 -29.5278797150 54.3434982300
20.7927265167 -29.5393028259 54.1438407898
20.8002471924 -29.5470619202 53.9436264038
20.8103351593 -29.5583877563 53.7439689636
20.8295345306 -29.5823783875 53.5462913513
20.8635234833 -29.6269226074 53.3518600464
20.9153175354 -29.6962165833 53.1613731384
20.9847011566 -29.7899570465 52.9748458862
21.0693664551 -29.9049415588 52.7918205261
21.1658973694 -30.0364170074 52.6115837097
21.2692604065 -30.1773948669 52.4330596924
21.3733577728 -30.3193912506 52.2548980713
21.4738693237 -30.4564075470 52.0761337280
21.5694370270 -30.5865573883 51.8964500427
21.6584186554 -30.7075538635 51.7154579163
21.7358798981 -30.8125400543 51.5320129395
21.7957611084 -30.8930912018 51.3446922302
21.8355751038 -30.9457511902 51.1528663635
21.8579120636 -30.9741172791 50.9570808411
21.8680305481 -30.9855003357 50.7584915161
21.8709621429 -30.9868946075 50.5582351685
21.8705425262 -30.9836292267 50.3571929932
21.8701095581 -30.9803428650 50.1561317444
21.8739662170 -30.9830245972 49.9560699463
21.8888034821 -31.0009670258 49.7586059570
21.9240283966 -31.0472507477 49.5660171509
21.9899387360 -31.1361923218 49.3808288574
22.0935630798 -31.2775630951 49.2048263550
22.2336463928 -31.4696216583 49.0378189087
22.3980369568 -31.6954746246 48.8769798279
22.5668239594 -31.9274425507 48.7175407410
22.7204399109 -32.1383285522 48.5547294617
22.8468570709 -32.3114013672 48.3855476379
22.9432373047 -32.4427223206 48.2092132568
23.0136280060 -32.5379104614 48.0266342163
23.0660514832 -32.6081275940 47.8397254944
23.1092891693 -32.6655693054 47.6506233215
23.1487903595 -32.7178192139 47.4606590271
23.1840991974 -32.7642402649 47.2697067261
23.2104244232 -32.7981758118 47.0765495300
23.2233123779 -32.8134269714 46.8800239563
23.2230606079 -32.8104095459 46.6801681519
23.2168102264 -32.7990570068 46.4787635803
23.2168922424 -32.7965011597 46.2789611816
23.2345237732 -32.8183517456 46.0836677551
23.2726383209 -32.8686752319 45.8937034607
23.3252086639 -32.9391021729 45.7075614929
23.3844509125 -33.0188102722 45.5232582092
23.4479827881 -33.1044807434 45.3401908875
23.5187950134 -33.2002792358 45.1591567993
23.6002655029 -33.3108940125 44.9810676575
23.6926918030 -33.4367485046 44.8060455322
23.7933616638 -33.5740661621 44.6333923340
23.8973293304 -33.7159729004 44.4618148804
23.9974842072 -33.8525810242 44.2894210815
24.0856342316 -33.9724998474 44.1139907837
24.1558017731 -34.0674133301 43.9338684082
24.2073268890 -34.1364021301 43.7488250732
24.2445678711 -34.1855354309 43.5599861145
24.2734928131 -34.2231025696 43.3689346313
24.2981681824 -34.2547607422 43.1767692566
24.3195877075 -34.2818908691 42.9837455750
24.3369178772 -34.3033370972 42.7896232605
24.3496875763 -34.3184394836 42.5942573547
24.3592758179 -34.3291206360 42.3980216980
24.3693294525 -34.3404464722 42.2019195557
24.3852119446 -34.3598785400 42.0074653625
24.4120330811 -34.3945236206 41.8161125183
24.4514503479 -34.4466896057 41.6283645630
24.5004119873 -34.5121269226 41.4433937073
24.5547161102 -34.5849952698 41.2600326538
24.6144237518 -34.6653785706 41.0783157349
24.6847705841 -34.7605628967 40.8997650146
24.7715244293 -34.8785705566 40.7260704041
24.8757095337 -35.0208168030 40.5575790405
24.9916610718 -35.1794357300 40.3927040100
25.1089057922 -35.3398513794 40.2284317017
25.2170505524 -35.4876174927 40.0617332458
25.3110008240 -35.6156425476 39.8910903931
25.3923873901 -35.7262001038 39.7169342041
25.4659957886 -35.8259353638 39.5406379700
25.5349712372 -35.9192314148 39.3631095886
25.5988521576 -36.0054397583 39.1842002869
25.6550712585 -36.0809974670 39.0031242371
25.7018680573 -36.1434478760 38.8193321228
25.7398834229 -36.1936874390 38.6329917908
25.7707958221 -36.2340469360 38.4445724487
25.7946205139 -36.2645454407 38.2540626526
25.8090534210 -36.2819824219 38.0607452393
25.8114604950 -36.2826919556 37.8637771606
25.8010177612 -36.2655258179 37.6628799438
25.7797393799 -36.2332916260 37.4586257935
25.7527999878 -36.1931762695 37.2525749207
25.7277622223 -36.1557083130 37.0470428467
25.7120742798 -36.1312446594 36.8443412781
25.7106552124 -36.1266288757 36.6460304260
25.7258605957 -36.1451416016 36.4528846741
25.7592086792 -36.1888885498 36.2654342651
25.8121910095 -36.2599563599 36.0842018127
25.8854827881 -36.3592720032 35.9094657898
25.9779720306 -36.4853019714 35.7409324646
26.0861454010 -36.6331520081 35.5775489807
26.2031040192 -36.7932243347 35.4171714783
26.3179950714 -36.9504241943 35.2563667297
26.4180641174 -37.0870094299 35.0910453796
26.4931640625 -37.1888580322 34.9179039001
26.5391979218 -37.2502670288 34.7355384827
26.5577011108 -37.2733802795 34.5443611145
26.5528812408 -37.2640419006 34.3456497192
26.5293388367 -37.2286567688 34.1408233643
26.4919300079 -37.1739768982 33.9314117432
26.4469032288 -37.1086997986 33.7194175720
26.4025459290 -37.0443496704 33.5075378418
26.3679332733 -36.9935569763 33.2987594604
26.3498439789 -36.9657554626 33.0953636169
26.3500976563 -36.9634742737 32.8979949951
26.3655929565 -36.9823989868 32.7056846619
26.3908576965 -37.0149154663 32.5166549683
26.4215450287 -37.0549774170 32.3294754028
26.4572601318 -37.1020393372 32.1440391541
26.5017356873 -37.1612892151 31.9616146088
26.5596389771 -37.2392234802 31.7838058472
26.6326122284 -37.3381309509 31.6112098694
26.7179164886 -37.4541969299 31.4429435730
26.8100395203 -37.5797500610 31.2771682739
26.9029293060 -37.7063789368 31.1118335724
26.9910926819 -37.8264274597 30.9450607300
27.0696830750 -37.9331626892 30.7751655579
27.1346626282 -38.0209579468 30.6007251740
27.1836566925 -38.0865058899 30.4208774567
27.2168312073 -38.1300468445 30.2356262207
27.2366466522 -38.1549949646 30.0457820892
27.2464275360 -38.1659812927 29.8524627686
27.2489833832 -38.1669120789 29.6566200256
27.2461318970 -38.1603164673 29.4588718414
27.2388725281 -38.1475906372 29.2595539093
27.2275047302 -38.1291427612 29.0587558746
27.2114048004 -38.1041107178 28.8562450409
27.1890106201 -38.0703163147 28.6514511108
