-44.7461585999 15.0181932449 35.6112136841
-44.7382888794 15.0148124695 35.4155197144
-44.7201957703 15.0074968338 35.2175292969
-44.6892585754 14.9952421188 35.0166397095
-44.6472167969 14.9787149429 34.8132095337
-44.6032371521 14.9614419937 34.6092796326
-44.5715827942 14.9489107132 34.4080619812
-44.5638504028 14.9455823898 34.2122001648
-44.5815200806 14.9520263672 34.0220794678
-44.6150703430 14.9645805359 33.8355903625
-44.6505737305 14.9778852463 33.6495819092
-44.6782531738 14.9881811142 33.4618225098
-44.6961593628 14.9947166443 33.2718505859
-44.7076110840 14.9987697601 33.0804100037
-44.7168540955 15.0019721985 32.8884658813
-44.7266883850 15.0054025650 32.6966629028
-44.7382545471 15.0094976425 32.5052642822
-44.7515029907 15.0142412186 32.3142700195
-44.7656173706 15.0193176270 32.1234855652
-44.7793312073 15.0242414474 31.9326171875
-44.7912673950 15.0284795761 31.7413425446
-44.8002052307 15.0315647125 31.5493679047
-44.8050384521 15.0330705643 31.3564281464
-44.8041877747 15.0323905945 31.1621417999
-44.7945785522 15.0283403397 30.9657649994
-44.7709312439 15.0188875198 30.7660217285
-44.7266807556 15.0015096664 30.5613155365
-44.6577377319 14.9746313095 30.3506259918
-44.5677070618 14.9396390915 30.1347675323
-44.4696846008 14.9015712738 29.9168529510
-44.3807296753 14.8669919968 29.7009906769
-44.3126373291 14.8404397964 29.4900531769
-44.2675094604 14.8227224350 29.2845973969
-44.2410163879 14.8121747971 29.0836124420
-44.2282485962 14.8069076538 28.8859348297
-44.2269821167 14.8060655594 28.6910514832
-44.2379837036 14.8099451065 28.4991741180
-44.2644271851 14.8197660446 28.3111057281
-44.3109664917 14.8373165131 28.1280269623
-44.3805770874 14.8637447357 27.9507198334
-44.4689216614 14.8973817825 27.7781524658
-44.5614280701 14.9326210022 27.6067314148
-44.6386871338 14.9619941711 27.4316196442
-44.6860771179 14.9798727036 27.2491245270
-44.6980018616 14.9841079712 27.0577812195
-44.6757965088 14.9752092361 26.8578529358
-44.6261024475 14.9557342529 26.6509475708
-44.5610008240 14.9303321838 26.4400672913
-44.4944190979 14.9043598175 26.2287158966
-44.4347114563 14.8810319901 26.0190143585
-44.3808403015 14.8599491119 25.8107128143
-44.3257522583 14.8383989334 25.6020202637
-44.2625846863 14.8137388229 25.3911724091
-44.1891021729 14.7851104736 25.1775779724
-44.1104316711 14.7544851303 24.9625396729
-44.0398826599 14.7269849777 24.7494850159
-43.9939804077 14.7089681625 24.5427150726
-43.9816055298 14.7038516998 24.3445892334
-43.9972343445 14.7095098495 24.1537322998
-44.0261802673 14.7202920914 23.9663658142
-44.0560188293 14.7314186096 23.7792663574
-44.0826530457 14.7413129807 23.5913562775
-44.1082077026 14.7507896423 23.4031906128
-44.1362724304 14.7612342834 23.2157135010
-44.1688995361 14.7734336853 23.0294723511
-44.2051696777 14.7870349884 22.8442344666
-44.2410774231 14.8004980087 22.6589431763
-44.2711830139 14.8117275238 22.4721412659
-44.2913284302 14.8191232681 22.2827110291
-44.3001136780 14.8221492767 22.0902557373
-44.2979698181 14.8209695816 21.8948688507
-44.2848320007 14.8155603409 21.6965103149
-44.2582969666 14.8049945831 21.4945068359
-44.2140579224 14.7876167297 21.2876682281
-44.1497306824 14.7625074387 21.0753097534
-44.0697326660 14.7313699722 20.8585948944
-43.9858741760 14.6987457275 20.6407089233
-43.9111328125 14.6696300507 20.4251956940
-43.8519668579 14.6465072632 20.2138404846
-43.8063240051 14.6285886765 20.0061130524
-43.7681922913 14.6135587692 19.8003826141
-43.7334327698 14.5998287201 19.5955257416
-43.7024002075 14.5875301361 19.3916435242
-43.6788139343 14.5780982971 19.1897773743
-43.6669654846 14.5731840134 18.9911346436
-43.6688995361 14.5735721588 18.7963104248
-43.6825828552 14.5784816742 18.6047649384
-43.7024269104 14.5857610703 18.4149551392
-43.7222671509 14.5930414200 18.2251625061
-43.7383499146 14.5988750458 18.0343322754
-43.7498207092 14.6029329300 17.8422126770
-43.7570877075 14.6053733826 17.6489124298
-43.7599601746 14.6061229706 17.4543666840
-43.7564964294 14.6044349670 17.2580165863
-43.7427177429 14.5987758636 17.0587139130
-43.7133407593 14.5871152878 16.8549308777
-43.6637725830 14.5676841736 16.6453208923
-43.5925979614 14.5399389267 16.4294376373
-43.5026016235 14.5049486160 16.2080345154
-43.3990516663 14.4647436142 15.9825954437
-43.2873649597 14.4214067459 15.7546567917
-43.1742172241 14.3775072098 15.5261354446
-43.0715522766 14.3376407623 15.3004951477
-42.9957695007 14.3081207275 15.0825309753
-42.9581375122 14.2932815552 14.8755817413
-42.9555244446 14.2919197083 14.6788101196
-42.9728813171 14.2982416153 14.4878778458
-42.9947242737 14.3062915802 14.2982788086
-43.0133476257 14.3130998611 14.1077518463
-43.0281486511 14.3184404373 13.9161167145
-43.0408782959 14.3229818344 13.7238788605
-43.0523986816 14.3270587921 13.5312929153
-43.0622520447 14.3304929733 13.3382167816
-43.0692405701 14.3328266144 13.1442956924
-43.0716781616 14.3334064484 12.9490156174
-43.0670127869 14.3312549591 12.7516069412
-43.0517044067 14.3250055313 12.5509929657
-43.0222473145 14.3133134842 12.3460998535
-42.9776611328 14.2957973480 12.1366014481
-42.9218177795 14.2739477158 11.9236373901
-42.8630447388 14.2509717941 11.7097034454
-42.8103675842 14.2303409576 11.4975290298
-42.7693481445 14.2141971588 11.2888183594
-42.7410621643 14.2029523849 11.0839195251
-42.7240104675 14.1960325241 10.8824033737
-42.7163848877 14.1927404404 10.6837396622
-42.7169570923 14.1926021576 10.4875698090
-42.7249298096 14.1953134537 10.2936658859
-42.7397232056 14.2006492615 10.1018648148
-42.7612228394 14.2085666656 9.9121456146
-42.7905082703 14.2194805145 9.7248544693
-42.8302268982 14.2344083786 9.5408277512
-42.8831481934 14.2544193268 9.3609495163
-42.9490928650 14.2794427872 9.1851873398
-43.0229454041 14.3075084686 9.0119733810
-43.0962715149 14.3353719711 8.8386869431
-43.1607513428 14.3598327637 8.6627206802
-43.2099456787 14.3784084320 8.4820318222
-43.2394332886 14.3893995285 8.2952013016
-43.2473716736 14.3920993805 8.1016073227
-43.2351837158 14.3870506287 7.9016542435
-43.2066192627 14.3756999969 7.6964898109
-43.1655464172 14.3595342636 7.4873085022
-43.1147384644 14.3396215439 7.2749662399
-43.0568847656 14.3169975281 7.0603008270
-42.9954109192 14.2929801941 6.8443932533
-42.9330787659 14.2686309814 6.6281180382
-42.8701782227 14.2440643311 6.4115686417
-42.8048248291 14.2185516357 6.1941361427
-42.7340774536 14.1909637451 5.9748697281
-42.6545944214 14.1600131989 5.7526788712
-42.5648345947 14.1251068115 5.5270471573
-42.4690284729 14.0878744125 5.2993259430
-42.3779792786 14.0524711609 5.0730113983
-42.3037300110 14.0235347748 4.8520336151
-42.2528610229 14.0035963058 4.6385741234
-42.2246932983 13.9923963547 4.4324584007
-42.2145919800 13.9881486893 4.2322130203
-42.2177810669 13.9890174866 4.0363087654
-42.2306823730 13.9936246872 3.8435955048
-42.2504768372 14.0008850098 3.6531636715
-42.2746505737 14.0098314285 3.4641969204
-42.3014564514 14.0197906494 3.2761251926
-42.3309020996 14.0307655334 3.0889568329
-42.3651618958 14.0435934067 2.9034202099
-42.4069213867 14.0593090057 2.7204196453
-42.4559173584 14.0778093338 2.5398814678
-42.5067825317 14.0970296860 2.3600263596
-42.5512390137 14.1137828827 2.1780858040
-42.5826950073 14.1255331039 1.9918324947
-42.5983390808 14.1311960220 1.8002943993
-42.5975799561 14.1305456161 1.6032397747
-42.5801544189 14.1234798431 1.4005473852
-42.5460968018 14.1100111008 1.1921926737
-42.4965133667 14.0905675888 0.9785208106
-42.4340362549 14.0661592484 0.7603902221
-42.3629722595 14.0384464264 0.5392439365
-42.2896156311 14.0098514557 0.3172106147
-42.2220230103 13.9834737778 0.0970391482
-37.7220306396 -30.0829639435 90.0823822021
-37.7382278442 -30.0982055664 89.8901977539
-37.7741165161 -30.1296119690 89.6985168457
-37.8240318298 -30.1725349426 89.5072326660
-37.8768424988 -30.2178306580 89.3161010742
-37.9205474854 -30.2556533813 89.1247940063
-37.9474372864 -30.2796726227 88.9330825806
-37.9558258057 -30.2884998322 88.7408828735
-37.9491081238 -30.2849292755 88.5482406616
-37.9337806702 -30.2742919922 88.3553237915
-37.9165267944 -30.2620716095 88.1623153687
-37.9011840820 -30.2514247894 87.9693298340
-37.8875122070 -30.2421455383 87.7763671875
-37.8724250793 -30.2317066193 87.5833358765
-37.8525352478 -30.2173233032 87.3901062012
-37.8263778687 -30.1977977753 87.1966171265
-37.7953567505 -30.1742801666 87.0029144287
-37.7630195618 -30.1496849060 86.8091049194
-37.7335090637 -30.1274070740 86.6153411865
-37.7107048035 -30.1106357574 86.4217758179
-37.6988754272 -30.1028728485 86.2285919189
-37.7036323547 -30.1087245941 86.0360336304
-37.7313766479 -30.1334438324 85.8443984985
-37.7866706848 -30.1807727814 85.6539230347
-37.8696250916 -30.2508068085 85.4646759033
-37.9760055542 -30.3400611877 85.2765426636
-38.0993423462 -30.4432334900 85.0893020630
-38.2319488525 -30.5540122986 84.9026489258
-38.3640174866 -30.6643505096 84.7161712646
-38.4842567444 -30.7649745941 84.5293502808
-38.5837478638 -30.8485679626 84.3417434692
-38.6595001221 -30.9126777649 84.1531677246
-38.7140464783 -30.9593868256 83.9636917114
-38.7529830933 -30.9932785034 83.7735290527
-38.7839584351 -31.0206413269 83.5830307007
-38.8165397644 -31.0493183136 83.3926544189
-38.8590850830 -31.0861740112 83.2028198242
-38.9121437073 -31.1316547394 83.0135955811
-38.9640579224 -31.1761970520 82.8243789673
-38.9955177307 -31.2039508820 82.6341476440
-38.9918251038 -31.2028598785 82.4420623779
-38.9536361694 -31.1734600067 82.2480697632
-38.8977355957 -31.1295261383 82.0530242920
-38.8475303650 -31.0902652740 81.8582077026
-38.8207893372 -31.0702590942 81.6646499634
-38.8235282898 -31.0744476318 81.4727478027
-38.8519325256 -31.0996952057 81.2823410034
-38.8974494934 -31.1389865875 81.0929946899
-38.9513549805 -31.1851596832 80.9042129517
-39.0082855225 -31.2338142395 80.7156906128
-39.0681686401 -31.2848911285 80.5274353027
-39.1345520020 -31.3412990570 80.3396682739
-39.2098731995 -31.4050388336 80.1525573730
-39.2916564941 -31.4740829468 79.9659729004
-39.3730010986 -31.5427646637 79.7794799805
-39.4465446472 -31.6050453186 79.5925979614
-39.5080680847 -31.6574630737 79.4050216675
-39.5568847656 -31.6994514465 79.2166748047
-39.5937690735 -31.7316493988 79.0275878906
-39.6193885803 -31.7546043396 78.8377761841
-39.6344375610 -31.7688865662 78.6472625732
-39.6401214600 -31.7754859924 78.4561004639
-39.6377220154 -31.7754516602 78.2643737793
-39.6279907227 -31.7694034576 78.0721054077
-39.6116828918 -31.7579574585 77.8793334961
-39.5911979675 -31.7430858612 77.6862258911
-39.5714263916 -31.7288017273 77.4931335449
-39.5574264526 -31.7192516327 77.3004302979
-39.5499801636 -31.7150783539 77.1082000732
-39.5443000793 -31.7123527527 76.9160766602
-39.5353660583 -31.7069606781 76.7236938477
-39.5253372192 -31.7006683350 76.5311965942
-39.5246734619 -31.7020606995 76.3394165039
-39.5456237793 -31.7211837769 76.1493530273
-39.5947227478 -31.7634010315 75.9615707397
-39.6703720093 -31.8273944855 75.7760086060
-39.7659378052 -31.9077281952 75.5921936035
-39.8750877380 -31.9992027283 75.4096374512
-39.9945716858 -32.0991554260 75.2281036377
-40.1217918396 -32.2054519653 75.0474014282
-40.2499885559 -32.3125457764 74.8669738770
-40.3673591614 -32.4107589722 74.6858062744
-40.4618263245 -32.4901809692 74.5028305054
-40.5264892578 -32.5451545715 74.3173904419
-40.5614013672 -32.5757179260 74.1294250488
-40.5718536377 -32.5862236023 73.9393310547
-40.5652885437 -32.5827674866 73.7477188110
-40.5481796265 -32.5706634521 73.5551300049
-40.5243530273 -32.5530471802 73.3619003296
-40.4957313538 -32.5315017700 73.1681900024
-40.4644813538 -32.5077972412 72.9741744995
-40.4338035583 -32.4845695496 72.7801589966
-40.4068603516 -32.4644012451 72.5864410400
-40.3854484558 -32.4487686157 72.3932037354
-40.3700714111 -32.4380836487 72.2005004883
-40.3610229492 -32.4325981140 72.0083770752
-40.3596382141 -32.4333915710 71.8169784546
-40.3687515259 -32.4427986145 71.6265945435
-40.3917655945 -32.4636077881 71.4375991821
-40.4304351807 -32.4972534180 71.2501907349
-40.4832992554 -32.5425453186 71.0642623901
-40.5462875366 -32.5961341858 70.8794403076
-40.6141471863 -32.6537208557 70.6951980591
-40.6811904907 -32.7106361389 70.5109710693
-40.7423057556 -32.7626876831 70.3262252808
-40.7948646545 -32.8077239990 70.1406707764
-40.8392219543 -32.8460311890 69.9543304443
-40.8765754700 -32.8785934448 69.7673110962
-40.9066925049 -32.9052200317 69.5795669556
-40.9280052185 -32.9246253967 69.3909149170
-40.9392356873 -32.9357681274 69.2011947632
-40.9402389526 -32.9385147095 69.0103759766
-40.9314956665 -32.9332733154 68.8184738159
-40.9140052795 -32.9208602905 68.6255874634
-40.8905792236 -32.9035797119 68.4320068359
-40.8669586182 -32.8861389160 68.2383575439
-40.8501434326 -32.8742790222 68.0454330444
-40.8440704346 -32.8712272644 67.8536987305
-40.8468513489 -32.8754386902 67.6629562378
-40.8529586792 -32.8823738098 67.4725952148
-40.8583335876 -32.8887138367 67.2821502686
-40.8632583618 -32.8946800232 67.0916519165
-40.8712882996 -32.9031944275 66.9015197754
-40.8869628906 -32.9179763794 66.7123031616
-40.9143142700 -32.9423332214 66.5244827271
-40.9555053711 -32.9780387878 66.3383636475
-41.0087203979 -33.0236053467 66.1537551880
-41.0674438477 -33.0736846924 65.9698867798
-41.1235046387 -33.1215782166 65.7857742310
-41.1719436646 -33.1632232666 65.6008071899
-41.2128906250 -33.1987266541 65.4149780273
-41.2490043640 -33.2302665710 65.2285995483
-41.2816581726 -33.2589645386 65.0418395996
-41.3094673157 -33.2836952209 64.8545150757
-41.3297729492 -33.3022689819 64.6662673950
-41.3410797119 -33.3134689331 64.4768981934
-41.3440055847 -33.3177909851 64.2864608765
-41.3401679993 -33.3165740967 64.0951461792
-41.3304710388 -33.3105506897 63.9030609131
-41.3145103455 -33.2993927002 63.7101287842
-41.2914962769 -33.2824554443 63.5162391663
-41.2620468140 -33.2602386475 63.3214492798
-41.2292366028 -33.2352676392 63.1261634827
-41.1978874207 -33.2114944458 62.9310112000
-41.1725654602 -33.1926612854 62.7366180420
-41.1561546326 -33.1811408997 62.5433807373
-41.1502990723 -33.1782684326 62.3515510559
-41.1571350098 -33.1858024597 62.1614418030
-41.1806945801 -33.2070465088 61.9736404419
-41.2257690430 -33.2459259033 61.7888450623
-41.2934608459 -33.3033485413 61.6072692871
-41.3767318726 -33.3735389709 61.4279708862
-41.4614982605 -33.4449539185 61.2490043640
-41.5342140198 -33.5064888000 61.0684547424
-41.5891952515 -33.5534858704 60.8854866028
-41.6292114258 -33.5882186890 60.7004508972
-41.6602897644 -33.6156196594 60.5141830444
-41.6864013672 -33.6389503479 60.3272361755
-41.7076759338 -33.6583137512 60.1396179199
-41.7218399048 -33.6718521118 59.9509887695
-41.7265586853 -33.6776428223 59.7609786987
-41.7207183838 -33.6747856140 59.5694084167
-41.7046089172 -33.6635055542 59.3762969971
-41.6798820496 -33.6451644897 59.1818656921
-41.6495628357 -33.6222381592 58.9865455627
-41.6172828674 -33.5977096558 58.7908744812
-41.5860061646 -33.5740013123 58.5952949524
-41.5573387146 -33.5524330139 58.4000625610
-41.5320701599 -33.5336494446 58.2052955627
-41.5112571716 -33.5185165405 58.0111694336
-41.4969329834 -33.5087051392 57.8180084229
-41.4922485352 -33.5067939758 57.6263160706
-41.5008735657 -33.5157928467 57.4366950989
-41.5254554749 -33.5378684998 57.2495841980
-41.5654678345 -33.5725898743 57.0649452209
-41.6167335510 -33.6165351868 56.8821449280
-41.6742668152 -33.6656150818 56.7004165649
-41.7356071472 -33.7178153992 56.5193824768
-41.8004188538 -33.7728576660 56.3389930725
-41.8672943115 -33.8295936584 56.1590347290
-41.9322738647 -33.8847732544 55.9788589478
-41.9899177551 -33.9339408875 55.7975807190
-42.0345344543 -33.9724311829 55.6142463684
-42.0612144470 -33.9962196350 55.4280128479
-42.0670166016 -34.0029029846 55.2383499146
-42.0511474609 -33.9918212891 55.0450820923
-42.0139732361 -33.9632835388 54.8482170105
-41.9571533203 -33.9186439514 54.6479797363
-41.8852691650 -33.8616676331 54.4451026917
-41.8066673279 -33.7991828918 54.2409667969
-41.7314910889 -33.7395057678 54.0372886658
-41.6678848267 -33.6893119812 53.8354606628
-41.6189270020 -33.6511230469 53.6360511780
-41.5822563171 -33.6230010986 53.4386749268
-41.5524177551 -33.6004829407 53.2424240112
-41.5247802734 -33.5797653198 53.0465011597
-41.4996490479 -33.5611038208 52.8509674072
-41.4841117859 -33.5503044128 52.6570739746
-41.4888648987 -33.5561294556 52.4667320251
-41.5211906433 -33.5845451355 52.2812843323
-41.5797348022 -33.6344490051 52.1005516052
-41.6553955078 -33.6983718872 51.9229660034
-41.7366371155 -33.7668685913 51.7464981079
-41.8143424988 -33.8324661255 51.5695075989
-41.8828277588 -33.8905067444 51.3909568787
-41.9380989075 -33.9377212524 51.2100982666
-41.9770164490 -33.9715347290 51.0263290405
-41.9984741211 -33.9910430908 50.8394050598
-42.0038909912 -33.9974098206 50.6495475769
-41.9953460693 -33.9923362732 50.4571037292
-41.9733505249 -33.9762458801 50.2621345520
-41.9368591309 -33.9482765198 50.0644187927
-41.8854866028 -33.9081153870 49.8638458252
-41.8213119507 -33.8574676514 49.6607742310
-41.7483673096 -33.7996368408 49.4559326172
-41.6709403992 -33.7381324768 49.2501220703
-41.5928649902 -33.6761016846 49.0440559387
-41.5178718567 -33.6165924072 48.8384552002
-41.4501800537 -33.5630722046 48.6341285706
-41.3949737549 -33.5197792053 48.4321022034
-41.3578186035 -33.4912719727 48.2334823608
-41.3431701660 -33.4812049866 48.0391731262
-41.3537788391 -33.4918327332 47.8497695923
-41.3908958435 -33.5241699219 47.6655731201
-41.4525527954 -33.5766105652 47.4862632751
-41.5305595398 -33.6424484253 47.3102722168
-41.6111106873 -33.7103691101 47.1348991394
-41.6808891296 -33.7694587708 46.9575004578
-41.7332496643 -33.8142814636 46.7767143250
-41.7687034607 -33.8452568054 46.5926094055
-41.7906761169 -33.8651885986 46.4058341980
-41.8016891479 -33.8761367798 46.2168655396
-41.8024826050 -33.8787193298 46.0258293152
-41.7929153442 -33.8728141785 45.8326759338
-41.7725868225 -33.8580932617 45.6372947693
-41.7405700684 -33.8337974548 45.4394721985
-41.6947174072 -33.7981758118 45.2387351990
-41.6323852539 -33.7490501404 45.0345115662
-41.5538978577 -33.6866950989 44.8268203735
-41.4665756226 -33.6171073914 44.6171569824
-41.3840408325 -33.5514411926 44.4083518982
-41.3194084167 -33.5004386902 44.2031745911
-41.2785186768 -33.4688835144 44.0028953552
-41.2597122192 -33.4554176331 43.8072242737
-41.2591972351 -33.4569320679 43.6154022217
-41.2760429382 -33.4726638794 43.4272766113
-41.3124084473 -33.5043830872 43.2433471680
-41.3688926697 -33.5525817871 43.0637893677
-41.4393081665 -33.6121864319 42.8873176575
-41.5108261108 -33.6726951599 42.7111854553
-41.5705795288 -33.7235679626 42.5326042175
-41.6123771667 -33.7597312927 42.3501892090
-41.6373023987 -33.7820777893 42.1641464233
-41.6494979858 -33.7940025330 41.9753341675
-41.6523666382 -33.7982864380 41.7844810486
-41.6474761963 -33.7962150574 41.5919075012
-41.6348953247 -33.7878456116 41.3976135254
-41.6133613586 -33.7721481323 41.2012977600
-41.5802879333 -33.7469940186 41.0023612976
-41.5326461792 -33.7099151611 40.8000984192
-41.4694824219 -33.6601257324 40.5942611694
-41.3946075439 -33.6007499695 40.3856735229
-41.3167457581 -33.5389213562 40.1762809753
-41.2463455200 -33.4832115173 39.9684600830
-41.1911392212 -33.4399452209 39.7639846802
-41.1535606384 -33.4111099243 39.5634498596
-41.1317558289 -33.3951911926 39.3664741516
-41.1228790283 -33.3898620605 39.1724395752
-41.1259956360 -33.3943557739 38.9811553955
-41.1429176331 -33.4101524353 38.7930679321
-41.1767807007 -33.4398155212 38.6089477539
-41.2289466858 -33.4844703674 38.4291496277
-41.2959709167 -33.5412902832 38.2529029846
-41.3690528870 -33.6030654907 38.0781822205
-41.4369316101 -33.6605873108 37.9023399353
-41.4904708862 -33.7063598633 37.7232017517
-41.5257987976 -33.7372207642 37.5398101807
-41.5441398621 -33.7541770935 37.3524208069
-41.5491104126 -33.7601814270 37.1618537903
-41.5440864563 -33.7580070496 36.9688911438
-41.5309333801 -33.7491722107 36.7739562988
-41.5095214844 -33.7335777283 36.5769958496
-41.4778709412 -33.7096023560 36.3775177002
-41.4337768555 -33.6754379272 36.1749572754
-41.3779487610 -33.6316719055 35.9694595337
-41.3159828186 -33.5828781128 35.7623672485
-41.2563400269 -33.5359878540 35.5557365417
-41.2056350708 -33.4964141846 35.3512077332
-41.1657676697 -33.4657173157 35.1492652893
-41.1345062256 -33.4420661926 34.9493865967
-41.1077804565 -33.4221267700 34.7505760193
-41.0824851990 -33.4033622742 34.5520744324
-41.0598220825 -33.3867454529 34.3541831970
-41.0468978882 -33.3781089783 34.1586914063
-41.0533142090 -33.3853034973 33.9680366516
-41.0842895508 -33.4126014709 33.7835845947
-41.1370239258 -33.4577140808 33.6046829224
-41.2032508850 -33.5138702393 33.4292793274
-41.2736701965 -33.5734558105 33.2550392151
-41.3398017883 -33.6295318604 33.0798072815
-41.3945541382 -33.6762886047 32.9017524719
-41.4337348938 -33.7103042603 32.7197761536
-41.4569931030 -33.7312812805 32.5337448120
-41.4665527344 -33.7410469055 32.3442001343
-41.4650840759 -33.7417831421 32.1518020630
-41.4545364380 -33.7350883484 31.9570293427
-41.4358749390 -33.7217559814 31.7601165771
-41.4088211060 -33.7015495300 31.5609703064
-41.3717575073 -33.6731529236 31.3591442108
-41.3229789734 -33.6351661682 31.1541671753
-41.2632293701 -33.5881996155 30.9462089539
-41.1969337463 -33.5358772278 30.7364158630
-41.1299095154 -33.4829635620 30.5263175964
-41.0662384033 -33.4327926636 30.3170013428
-41.0087394714 -33.3876724243 30.1092243195
-40.9620170593 -33.3513755798 29.9042396545
-40.9328651428 -33.3294601440 29.7038974762
-40.9269485474 -33.3265647888 29.5097656250
-40.9456291199 -33.3437957764 29.3222656250
-40.9853973389 -33.3782882690 29.1405067444
-41.0394096375 -33.4244384766 28.9626750946
-41.0997810364 -33.4757919312 28.7866554260
-41.1591529846 -33.5263290405 28.6104507446
-41.2107200623 -33.5704765320 28.4321880341
-41.2484931946 -33.6033325195 28.2502040863
-41.2687187195 -33.6218261719 28.0634307861
-41.2703971863 -33.6251449585 27.8715515137
-41.2538604736 -33.6135520935 27.6746120453
-41.2197418213 -33.5875740051 27.4727478027
-41.1700553894 -33.5488548279 27.2664794922
-41.1089324951 -33.5007781982 27.0569267273
-41.0401229858 -33.4464149475 26.8451137543
-40.9633178711 -33.3855056763 26.6309356689
-40.8746032715 -33.3148536682 26.4132671356
-40.7725257874 -33.2332687378 26.1916732788
-40.6650085449 -33.1472320557 25.9683685303
-40.5706748962 -33.0719871521 25.7486381531
-40.5120887756 -33.0259971619 25.5389499664
-40.5045967102 -33.0218162537 25.3437747955
-40.5480651855 -33.0593338013 25.1631984711
-40.6267929077 -33.1257019043 24.9928226471
-40.7174606323 -33.2018432617 24.8260059357
-40.7998161316 -33.2711791992 24.6569194794
-40.8636283875 -33.3253402710 24.4825763702
-40.9089813232 -33.3643989563 24.3029613495
-40.9419517517 -33.3933219910 24.1197967529
-40.9697303772 -33.4179992676 23.9351615906
-40.9978904724 -33.4429855347 23.7506713867
-41.0292778015 -33.4706153870 23.5671672821
-41.0629005432 -33.5000724792 23.3843631744
-41.0933723450 -33.5269508362 23.2006721497
-41.1125984192 -33.5446243286 23.0136890411
-41.1131706238 -33.5470390320 22.8211898804
-41.0908737183 -33.5307464600 22.6218719482
-41.0453720093 -33.4954643250 22.4155845642
-40.9794769287 -33.4434967041 22.2031116486
-40.8974418640 -33.3783302307 21.9856834412
-40.8036727905 -33.3035583496 21.7645874023
-40.7031173706 -33.2232398987 21.5412883759
-40.6024513245 -33.1428337097 21.3177928925
-40.5104560852 -33.0695228577 21.0967597961
-40.4374847412 -33.0117759705 20.8813591003
-40.3935012817 -32.9777412415 20.6746730804
-40.3840065002 -32.9719314575 20.4784507751
-40.4066200256 -32.9923820496 20.2920455933
-40.4521255493 -33.0315628052 20.1126976013
-40.5090217590 -33.0800590515 19.9369239807
-40.5672492981 -33.1296463013 19.7616424561
-40.6200523376 -33.1747894287 19.5847644806
-40.6649551392 -33.2134742737 19.4055099487
-40.7030563354 -33.2465934753 19.2242031097
-40.7360305786 -33.2755203247 19.0413475037
-40.7634506226 -33.2999000549 18.8567981720
-40.7828025818 -33.3176765442 18.6697559357
-40.7913513184 -33.3266258240 18.4793434143
-40.7875900269 -33.3254966736 18.2850551605
-40.7714614868 -33.3142547607 18.0868473053
-40.7442703247 -33.2939643860 17.8851051331
-40.7082901001 -33.2664833069 17.6805229187
-40.6655578613 -33.2334785461 17.4737262726
-40.6164741516 -33.1952857971 17.2648315430
-40.5603790283 -33.1513519287 17.0536079407
-40.4985809326 -33.1027603149 16.8404598236
-40.4367752075 -33.0541572571 16.6272048950
-40.3832740784 -33.0123558044 16.4165229797
-40.3445396423 -32.9826278687 16.2105140686
-40.3227157593 -32.9667320251 16.0099105835
-40.3172950745 -32.9642524719 15.8145866394
-40.3278579712 -32.9748497009 15.6244468689
-40.3542594910 -32.9983940125 15.4394779205
-40.3939704895 -33.0328292847 15.2588930130
-40.4403800964 -33.0727424622 15.0805568695
-40.4852638245 -33.1114044189 14.9017858505
-40.5237579346 -33.1448402405 14.7209720612
-40.5566024780 -33.1736564636 14.5383472443
-40.5871315002 -33.2005805969 14.3550014496
-40.6157569885 -33.2259407043 14.1710634232
-40.6370582581 -33.2453155518 13.9847297668
-40.6429138184 -33.2520599365 13.7932767868
-40.6292228699 -33.2428169250 13.5952978134
-40.5996093750 -33.2205505371 13.3919601440
-40.5623779297 -33.1920585632 13.1860141754
-40.5241470337 -33.1627464294 12.9796648026
-40.4860801697 -33.1335716248 12.7733039856
-40.4446334839 -33.1016311646 12.5657320023
-40.3949623108 -33.0629692078 12.3553037643
-40.3350982666 -33.0159721375 12.1413307190
-40.2691230774 -32.9639778137 11.9251756668
-40.2075195313 -32.9155616760 11.7104005814
-40.1640052795 -32.8819351196 11.5017004013
-40.1500511169 -32.8724822998 11.3030519485
-40.1698799133 -32.8906555176 11.1159696579
-40.2189559937 -32.9327430725 10.9389753342
-40.2868690491 -32.9902305603 10.7685461044
-40.3621406555 -33.0537414551 10.6007604599
-40.4362373352 -33.1162834167 10.4326772690
-40.5058059692 -33.1751213074 10.2631301880
-40.5723991394 -33.2315330505 10.0926504135
-40.6389579773 -33.2879104614 9.9222536087
-40.7052307129 -33.3440513611 9.7518539429
-40.7664031982 -33.3960227966 9.5797643661
-40.8158264160 -33.4383850098 9.4036359787
-40.8486137390 -33.4671478271 9.2217235565
-40.8633384705 -33.4811401367 9.0334825516
-40.8615722656 -33.4816513062 8.8394269943
-40.8460426331 -33.4709053040 8.6404848099
-40.8184432983 -33.4502944946 8.4372234344
-40.7788391113 -33.4198684692 8.2296390533
-40.7271766663 -33.3795852661 8.0176839828
-40.6644668579 -33.3302726746 7.8016915321
-40.5920829773 -33.2730522156 7.5821266174
-40.5107116699 -33.2084808350 7.3592114449
-40.4209327698 -33.1370391846 7.1331367493
-40.3246002197 -33.0602455139 6.9045500755
-40.2253417969 -32.9810562134 6.6747460365
-40.1283416748 -32.9037170410 6.4455962181
-40.0401077271 -32.8335456848 6.2194676399
-39.9677162170 -32.7763252258 5.9989533424
-39.9169273376 -32.7367668152 5.7861943245
-39.8905677795 -32.7171821594 5.5822715759
-39.8888664246 -32.7177543640 5.3873267174
-39.9109001160 -32.7377281189 5.2010793686
-39.9543533325 -32.7752113342 5.0227336884
-40.0135421753 -32.8255577087 4.8502473831
-40.0788421631 -32.8808975220 4.6801018715
-40.1392822266 -32.9322662354 4.5082540512
-40.1866760254 -32.9729690552 4.3316550255
-40.2180824280 -33.0006027222 4.1491813660
-40.2351837158 -33.0165405273 3.9614217281
-40.2416191101 -33.0237655640 3.7697024345
-40.2405014038 -33.0248107910 3.5751595497
-40.2331657410 -33.0207748413 3.3782758713
-40.2189445496 -33.0111122131 3.1787877083
-40.1957626343 -32.9941253662 2.9758975506
-40.1615638733 -32.9681320190 2.7688069344
-40.1157112122 -32.9326171875 2.5572524071
-40.0588150024 -32.8880729675 2.3414332867
-39.9909324646 -32.8345565796 2.1213498116
-39.9106140137 -32.7708702087 1.8964204788
-39.8159866333 -32.6954917908 1.6659065485
-39.7059516907 -32.6075248718 1.4293513298
-39.5789108276 -32.5056571960 1.1861077547
-39.4302711487 -32.3861389160 0.9343739748
-39.2529640198 -32.2431945801 0.6713848710
-39.0436782837 -32.0741195679 0.3957978487
-38.8107872009 -31.8857498169 0.1107656509
-37.1463623047 24.0352497101 88.3414688110
-37.1645317078 24.0477695465 88.1486740112
-37.1987876892 24.0717334747 87.9566192627
-37.2498931885 24.1076812744 87.7653808594
-37.3140602112 24.1529216766 87.5748138428
-37.3829879761 24.2015495300 87.3845596313
-37.4472198486 24.2468376160 87.1941757202
-37.4997100830 24.2837715149 87.0033187866
-37.5373153687 24.3101177216 86.8117904663
-37.5602149963 24.3260040283 86.6195831299
-37.5702705383 24.3327560425 86.4267425537
-37.5697402954 24.3319721222 86.2333602905
-37.5613403320 24.3255958557 86.0395660400
-37.5489501953 24.3163776398 85.8455276489
-37.5371284485 24.3075656891 85.6515045166
-37.5296821594 24.3018665314 85.4576873779
-37.5290794373 24.3010311127 85.2642288208
-37.5373649597 24.3065223694 85.0712585449
-37.5572013855 24.3202285767 84.8789596558
-37.5917816162 24.3444252014 84.6875305176
-37.6441192627 24.3812541962 84.4971847534
-37.7164916992 24.4323329926 84.3080978394
-37.8101081848 24.4985237122 84.1203918457
-37.9245948792 24.5795631409 83.9340820313
-38.0572738647 24.6735458374 83.7490692139
-38.2027130127 24.7766036987 83.5650405884
-38.3534431458 24.8834266663 83.3815612793
-38.5018653870 24.9886093140 83.1981582642
-38.6416587830 25.0876522064 83.0144119263
-38.7679557800 25.1770935059 82.8299942017
-38.8775253296 25.2546386719 82.6446533203
-38.9690742493 25.3193607330 82.4582595825
-39.0420722961 25.3708896637 82.2707519531
-39.0951156616 25.4082221985 82.0819702148
-39.1270217896 25.4305191040 81.8918075562
-39.1400032043 25.4393539429 81.7003555298
-39.1399993896 25.4389476776 81.5080032349
-39.1330337524 25.4335918427 81.3151397705
-39.1220779419 25.4253959656 81.1219635010
-39.1076316833 25.4147186279 80.9285125732
-39.0903015137 25.4019889832 80.7348251343
-39.0723915100 25.3888473511 80.5410537720
-39.0580101013 25.3782157898 80.3475112915
-39.0528678894 25.3741550446 80.1546401978
-39.0637512207 25.3814945221 79.9629898071
-39.0964584351 25.4043617249 79.7730407715
-39.1528396606 25.4440689087 79.5849914551
-39.2298202515 25.4984321594 79.3986434937
-39.3217887878 25.5634593964 79.2136077881
-39.4236717224 25.6355381012 79.0295104980
-39.5315437317 25.7118797302 78.8460388184
-39.6415138245 25.7897129059 78.6629028320
-39.7494773865 25.8661174774 78.4797592163
-39.8520164490 25.9386653900 78.2963180542
-39.9470024109 26.0058403015 78.1123809814
-40.0331039429 26.0666923523 77.9278335571
-40.1088371277 26.1201705933 77.7425079346
-40.1722564697 26.1648883820 77.5562286377
-40.2215614319 26.1995639801 77.3687973022
-40.2561416626 26.2237663269 77.1801376343
-40.2773399353 26.2384490967 76.9903259277
-40.2880325317 26.2456569672 76.7995986938
-40.2911071777 26.2474441528 76.6081848145
-40.2878417969 26.2447204590 76.4161911011
-40.2773590088 26.2368621826 76.2235183716
-40.2578315735 26.2225685120 76.0299758911
-40.2293128967 26.2018795013 75.8355560303
-40.1965484619 26.1781711578 75.6406860352
-40.1687393188 26.1579875946 75.4462280273
-40.1554145813 26.1481056213 75.2531051636
-40.1616439819 26.1521358490 75.0618515015
-40.1868591309 26.1696758270 74.8724517822
-40.2276306152 26.1982841492 74.6846084595
-40.2805595398 26.2355384827 74.4980239868
-40.3420295715 26.2788696289 74.3123626709
-40.4069442749 26.3246555328 74.1271438599
-40.4705200195 26.3694858551 73.9418716431
-40.5321578979 26.4129409790 73.7564926147
-40.5958900452 26.4578819275 73.5714111328
-40.6651840210 26.5067825317 73.3870010376
-40.7373352051 26.5577144623 73.2029876709
-40.8037796021 26.6045894623 73.0184707642
-40.8562202454 26.6414985657 72.8325729370
-40.8918876648 26.6664752960 72.6449508667
-40.9133110046 26.6813163757 72.4558410645
-40.9242820740 26.6887245178 72.2656326294
-40.9263839722 26.6898193359 72.0744628906
-40.9176406860 26.6831989288 71.8820953369
-40.8930702209 26.6653175354 71.6879577637
-40.8475265503 26.6325168610 71.4914398193
-40.7806167603 26.5845108032 71.2924499512
-40.6997680664 26.5265903473 71.0917739868
-40.6175003052 26.4676589966 70.8908081055
-40.5451965332 26.4158172607 70.6908493042
-40.4897575378 26.3759727478 70.4927062988
-40.4546508789 26.3505973816 70.2968292236
-40.4416999817 26.3409805298 70.1034774780
-40.4511947632 26.3473377228 69.9127349854
-40.4812088013 26.3682899475 69.7244262695
-40.5277671814 26.4010162354 69.5381164551
-40.5865859985 26.4424648285 69.3533401489
-40.6545677185 26.4904327393 69.1697540283
-40.7290344238 26.5430145264 68.9870452881
-40.8053665161 26.5969238281 68.8046798706
-40.8765869141 26.6471996307 68.6217880249
-40.9360427856 26.6891021729 68.4375457764
-40.9805603027 26.7203769684 68.2515258789
-41.0113143921 26.7418594360 68.0638427734
-41.0320281982 26.7561969757 67.8749389648
-41.0462226868 26.7658958435 67.6852340698
-41.0554351807 26.7720527649 67.4949035645
-41.0590057373 26.7741947174 67.3038558960
-41.0549621582 26.7709159851 67.1118316650
-41.0414962769 26.7609348297 66.9185638428
-41.0185012817 26.7441768646 66.7240219116
-40.9877395630 26.7218875885 66.5284194946
-40.9508285522 26.6952266693 66.3319549561
-40.9075813293 26.6640548706 66.1345825195
-40.8577957153 26.6282310486 65.9362564087
-40.8052406311 26.5904388428 65.7374801636
-40.7585334778 26.5568046570 65.5393981934
-40.7269783020 26.5339508057 65.3432998657
-40.7157173157 26.5255413055 65.1499176025
-40.7250938416 26.5318107605 64.9593429565
-40.7534751892 26.5516052246 64.7714004517
-40.7989082336 26.5835304260 64.5858688354
-40.8573608398 26.6247215271 64.4022064209
-40.9210586548 26.6696453094 64.2193679810
-40.9809684753 26.7118740082 64.0360870361
-41.0318298340 26.7476634979 63.8516006470
-41.0742683411 26.7774600983 63.6659812927
-41.1118850708 26.8038253784 63.4797286987
-41.1466865540 26.8281898499 63.2931175232
-41.1768989563 26.8492870331 63.1058883667
-41.1982841492 26.8641014099 62.9174079895
-41.2069206238 26.8698501587 62.7270851135
-41.2009620667 26.8652076721 62.5346183777
-41.1806945801 26.8503875732 62.3400115967
-41.1478881836 26.8266429901 62.1434974670
-41.1044807434 26.7953586578 61.9453430176
-41.0507125854 26.7567005157 61.7455520630
-40.9851722717 26.7096633911 61.5438880920
-40.9092597961 26.6552467346 61.3405418396
-40.8328971863 26.6005096436 61.1370010376
-40.7744789124 26.5585422516 60.9360923767
-40.7531585693 26.5429706573 60.7408065796
-40.7785682678 26.5606517792 60.5527229309
-40.8444023132 26.6070957184 60.3709716797
-40.9308357239 26.6681995392 60.1925392151
-41.0161857605 26.7285289764 60.0140571594
-41.0885391235 26.7796134949 59.8336448669
-41.1471023560 26.8208866119 59.6511459351
-41.1956138611 26.8550052643 59.4671249390
-41.2373313904 26.8842906952 59.2820777893
-41.2736892700 26.9097614288 59.0962219238
-41.3037986755 26.9307880402 58.9094047546
-41.3254318237 26.9457817078 58.7212448120
-41.3376274109 26.9540615082 58.5315666199
-41.3416366577 26.9565143585 58.3405570984
-41.3390693665 26.9542865753 58.1484565735
-41.3301048279 26.9475078583 57.9552841187
-41.3136444092 26.9353942871 57.7608413696
-41.2889366150 26.9174137115 57.5649871826
-41.2575492859 26.8946781158 57.3679618835
-41.2241706848 26.8705272675 57.1705436707
-41.1946105957 26.8490886688 56.9737167358
-41.1711196899 26.8319740295 56.7778663635
-41.1488189697 26.8157043457 56.5821762085
-41.1186637878 26.7938461304 56.3850936890
-41.0782241821 26.7646675110 56.1861801147
-41.0406341553 26.7375183105 55.9876937866
-41.0284271240 26.7284317017 55.7935600281
-41.0541648865 26.7463474274 55.6060409546
-41.1083450317 26.7845020294 55.4235572815
-41.1682128906 26.8267040253 55.2421493530
-41.2160797119 26.8603649139 55.0586967468
-41.2477798462 26.8825244904 54.8724327087
-41.2679557800 26.8964805603 54.6841468811
-41.2822036743 26.9062175751 54.4948196411
-41.2935371399 26.9138851166 54.3049774170
-41.3027114868 26.9200134277 54.1147575378
-41.3094520569 26.9244098663 53.9240989685
-41.3132286072 26.9266967773 53.7328987122
-41.3134613037 26.9264602661 53.5410461426
-41.3092536926 26.9230670929 53.3483695984
-41.2991447449 26.9154720306 53.1545867920
-41.2815322876 26.9025382996 52.9593849182
-41.2558937073 26.8838920593 52.7626533508
-41.2231636047 26.8601989746 52.5645408630
-41.1841583252 26.8320426941 52.3651924133
-41.1380844116 26.7988548279 52.1644401550
-41.0839347839 26.7599182129 51.9620780945
-41.0234146118 26.7164478302 51.7584114075
-40.9616851807 26.6721172333 51.5544128418
-40.9061126709 26.6321697235 51.3514900208
-40.8652229309 26.6026687622 51.1513061523
-40.8473243713 26.5895309448 50.9554977417
-40.8578834534 26.5966453552 50.7651824951
-40.8975219727 26.6244506836 50.5805435181
-40.9618568420 26.6698341370 50.4007949829
-41.0421028137 26.7265396118 50.2242660522
-41.1259880066 26.7858352661 50.0485687256
-41.2001457214 26.8382091522 49.8710670471
-41.2543258667 26.8763656616 49.6896972656
-41.2850379944 26.8978214264 49.5037193298
-41.2949295044 26.9044609070 49.3136062622
-41.2879180908 26.8990707397 49.1200981140
-41.2651672363 26.8824787140 48.9233932495
-41.2259635925 26.8541774750 48.7233123779
-41.1711540222 26.8147716522 48.5199851990
-41.1041984558 26.7667198181 48.3140830994
-41.0289192200 26.7127456665 48.1063652039
-40.9476966858 26.6545410156 47.8972969055
-40.8627700806 26.5936985016 47.6873321533
-40.7795867920 26.5340976715 47.4775886536
-40.7097625732 26.4840030670 47.2704925537
-40.6700134277 26.4553127289 47.0695571899
-40.6740760803 26.4578037262 46.8777427673
-40.7220001221 26.4915065765 46.6951522827
-40.7975158691 26.5448493958 46.5184593201
-40.8772277832 26.6011753082 46.3427619934
-40.9428253174 26.6474590302 46.1641731262
-40.9866981506 26.6782817841 45.9810447693
-41.0103836060 26.6947364807 45.7936439514
-41.0210418701 26.7019214630 45.6034736633
-41.0280838013 26.7065315247 45.4125289917
-41.0392761230 26.7140941620 45.2224884033
-41.0572395325 26.7264766693 45.0339279175
-41.0786285400 26.7413005829 44.8461341858
-41.0962638855 26.7534484863 44.6575431824
-41.1025276184 26.7575035095 44.4664726257
-41.0924606323 26.7499389648 44.2718009949
-41.0649414063 26.7299518585 44.0732498169
-41.0212936401 26.6984863281 43.8710670471
-40.9631156921 26.6566791534 43.6655693054
-40.8925857544 26.6060810089 43.4572105408
-40.8156051636 26.5508899689 43.2472915649
-40.7430229187 26.4988307953 43.0382347107
-40.6862182617 26.4580001831 42.8326225281
-40.6507720947 26.4323692322 42.6317520142
-40.6347846985 26.4205894470 42.4352455139
-40.6325263977 26.4185810089 42.2418365479
-40.6387023926 26.4225711823 42.0503501892
-40.6501541138 26.4303207397 41.8600730896
-40.6655426025 26.4408702850 41.6707153320
-40.6840667725 26.4536533356 41.4820976257
-40.7038078308 26.4672985077 41.2937812805
-40.7212944031 26.4793434143 41.1049613953
-40.7339515686 26.4879474640 40.9150352478
-40.7426872253 26.4937629700 40.7241973877
-40.7498168945 26.4984378815 40.5329933167
-40.7542877197 26.5012149811 40.3411598206
-40.7518730164 26.4990959167 40.1476974487
-40.7404098511 26.4905338287 39.9520759583
-40.7221832275 26.4771595001 39.7548141479
-40.7012825012 26.4618816376 39.5568809509
-40.6806144714 26.4467678070 39.3589591980
-40.6615905762 26.4328231812 39.1613960266
-40.6449775696 26.4205989838 38.9643745422
-40.6313362122 26.4104862213 38.7680397034
-40.6208724976 26.4026355743 38.5724449158
-40.6131477356 26.3967342377 38.3774948120
-40.6068534851 26.3918514252 38.1828765869
-40.5999832153 26.3865585327 37.9880943298
-40.5906600952 26.3795223236 37.7926940918
-40.5783767700 26.3703746796 37.5965385437
-40.5643463135 26.3599853516 37.3999252319
-40.5503158569 26.3495979309 37.2032814026
-40.5371551514 26.3398265839 37.0068244934
-40.5251274109 26.3308620453 36.8106193542
-40.5151062012 26.3233280182 36.6148948669
-40.5084609985 26.3181934357 36.4199905396
-40.5056915283 26.3158187866 36.2260437012
-40.5061607361 26.3157501221 36.0329093933
-40.5092544556 26.3175487518 35.8404273987
-40.5146026611 26.3209514618 35.6485176086
-40.5199012756 26.3243198395 35.4565963745
-40.5185012817 26.3229217529 35.2629585266
-40.5007591248 26.3098888397 35.0651168823
-40.4601440430 26.2805767059 34.8613471985
-40.3995590210 26.2370510101 34.6523513794
-40.3312721252 26.1880416870 34.4412612915
-40.2693290710 26.1435489655 34.2317008972
-40.2209129333 26.1086826324 34.0255622864
-40.1840934753 26.0820713043 33.8223724365
-40.1529083252 26.0594692230 33.6205940247
-40.1244964600 26.0388431549 33.4194908142
-40.1023063660 26.0226440430 33.2199707031
-40.0929336548 26.0155677795 33.0237998962
-40.1002616882 26.0203800201 32.8320350647
-40.1226806641 26.0359344482 32.6442909241
-40.1548271179 26.0584125519 32.4591636658
-40.1904029846 26.0833301544 32.2749977112
-40.2238693237 26.1067485809 32.0903091431
-40.2516517639 26.1261196136 31.9041366577
-40.2731513977 26.1410179138 31.7163047791
-40.2902565002 26.1527900696 31.5273075104
-40.3045501709 26.1625595093 31.3375644684
-40.3138389587 26.1687698364 31.1464748383
-40.3116455078 26.1668052673 30.9522552490
-40.2913627625 26.1519622803 30.7530746460
-40.2516975403 26.1233234406 30.5485324860
-40.1972846985 26.0841884613 30.3398628235
-40.1338272095 26.0386123657 30.1286029816
-40.0640945435 25.9885730743 29.9155006409
-39.9894828796 25.9350566864 29.7009258270
-39.9135246277 25.8805847168 29.4858551025
-39.8417396545 25.8290805817 29.2718219757
-39.7789306641 25.7839679718 29.0601806641
-39.7291450500 25.7481231689 28.8520908356
-39.6972236633 25.7249946594 28.6489429474
-39.6865921021 25.7170219421 28.4517459869
-39.6945800781 25.7223033905 28.2597942352
-39.7125396729 25.7346820831 28.0706768036
-39.7317886353 25.7479801178 27.8819446564
-39.7485122681 25.7594776154 27.6925125122
-39.7632255554 25.7695484161 27.5025253296
-39.7775039673 25.7793045044 27.3124256134
-39.7916908264 25.7889995575 27.1223144531
-39.8046417236 25.7978153229 26.9318599701
-39.8144569397 25.8043937683 26.7405090332
-39.8193206787 25.8074550629 26.5477313995
-39.8178634644 25.8060112000 26.3531150818
-39.8084182739 25.7988834381 26.1561584473
-39.7878761292 25.7838535309 25.9559364319
-39.7516899109 25.7576885223 25.7510890961
-39.6965026855 25.7179985046 25.5405960083
-39.6239013672 25.6659126282 25.3248767853
-39.5418281555 25.6070823669 25.1062393188
-39.4617919922 25.5497016907 24.8880710602
-39.3939933777 25.5010318756 24.6734027863
-39.3446044922 25.4654674530 24.4641017914
-39.3168869019 25.4453315735 24.2611865997
-39.3131217957 25.4422435760 24.0653858185
-39.3339004517 25.4566307068 23.8769359589
-39.3760643005 25.4862403870 23.6949405670
-39.4322814941 25.5258522034 23.5172405243
-39.4929580688 25.5686397552 23.3409690857
-39.5496406555 25.6085834503 23.1635704041
-39.5982894897 25.6428108215 22.9838123322
-39.6396522522 25.6718502045 22.8018989563
-39.6759986877 25.6973190308 22.6185112000
-39.7076988220 25.7194805145 22.4337482452
-39.7329635620 25.7370605469 22.2470493317
-39.7497634888 25.7486133575 22.0577774048
-39.7567672729 25.7531948090 21.8654994965
-39.7525024414 25.7497539520 21.6697387695
-39.7347259521 25.7366924286 21.4697742462
-39.7014770508 25.7126178741 21.2649631500
-39.6528968811 25.6776275635 21.0553150177
-39.5919456482 25.6338310242 20.8417167664
-39.5235824585 25.5847587585 20.6256961823
-39.4531288147 25.5341949463 20.4089031219
-39.3850708008 25.4853401184 20.1927490234
-39.3233261108 25.4409770966 19.9784717560
-39.2718467712 25.4039230347 19.7673358917
-39.2333488464 25.3761081696 19.5602302551
-39.2072982788 25.3571548462 19.3570098877
-39.1908073425 25.3450088501 19.1567897797
-39.1817550659 25.3381576538 18.9589099884
-39.1801872253 25.3366355896 18.7634048462
-39.1870956421 25.3411464691 18.5706081390
-39.2025680542 25.3517551422 18.3805694580
-39.2246055603 25.3670368195 18.1926651001
-39.2490768433 25.3840522766 18.0055713654
-39.2712707520 25.3994464874 17.8177700043
-39.2880134583 25.4109573364 17.6282234192
-39.2983474731 25.4179077148 17.4366092682
-39.3025207520 25.4204711914 17.2429904938
-39.3009567261 25.4189529419 17.0474929810
-39.2941284180 25.4136848450 16.8502597809
-39.2822875977 25.4048480988 16.6513595581
-39.2645149231 25.3917884827 16.4504776001
-39.2380371094 25.3725280762 16.2466850281
-39.1988639832 25.3442344666 16.0386409760
-39.1435775757 25.3044662476 15.8251819611
-39.0712471008 25.2525634766 15.6059598923
-38.9846191406 25.1904850006 15.3818521500
-38.8898658752 25.1226177216 15.1548843384
-38.7947502136 25.0544948578 14.9276418686
-38.7063369751 24.9911403656 14.7024927139
-38.6300888062 24.9364490509 14.4812917709
-38.5709342957 24.8939247131 14.2657270432
-38.5337562561 24.8670501709 14.0574913025
-38.5217819214 24.8581161499 13.8577280045
-38.5344619751 24.8667354584 13.6663093567
-38.5667915344 24.8893432617 13.4815874100
-38.6104812622 24.9200401306 13.3007831573
-38.6570091248 24.9527568817 13.1210098267
-38.7005882263 24.9833774567 12.9402894974
-38.7381820679 25.0097332001 12.7575721741
-38.7667427063 25.0296592712 12.5717964172
-38.7815628052 25.0398044586 12.3813152313
-38.7775268555 25.0365200043 12.1843290329
-38.7516288757 25.0176753998 11.9797534943
-38.7046928406 24.9838504791 11.7678213120
-38.6414566040 24.9384193420 11.5501346588
-38.5688133240 24.8862915039 11.3290586472
-38.4927864075 24.8317546844 11.1066789627
-38.4169120789 24.7773246765 10.8842258453
-38.3440475464 24.7250385284 10.6627044678
-38.2792701721 24.6785087585 10.4439067841
-38.2293624878 24.6425685883 10.2302465439
-38.1992263794 24.6207008362 10.0234889984
-38.1897621155 24.6135540009 9.8240013123
-38.1992111206 24.6198730469 9.6312065125
-38.2251663208 24.6379413605 9.4442901611
-38.2649650574 24.6658687592 9.2623443604
-38.3155136108 24.7014503479 9.0842943192
-38.3736267090 24.7424182892 8.9090232849
-38.4363784790 24.7866859436 8.7354974747
-38.5012855530 24.8324928284 8.5628385544
-38.5668945313 24.8787956238 8.3905239105
-38.6325988770 24.9251670837 8.2183380127
-38.6969909668 24.9706058502 8.0457696915
-38.7563438416 25.0124568939 7.8714656830
-38.8048286438 25.0465698242 7.6932926178
-38.8360481262 25.0683898926 7.5088963509
-38.8455810547 25.0747699738 7.3166198730
-38.8335380554 25.0657863617 7.1164531708
-38.8046455383 25.0448074341 6.9100818634
-38.7649765015 25.0161533356 6.6996955872
-38.7184104919 24.9825897217 6.4866995811
-38.6664009094 24.9451484680 6.2716131210
-38.6104087830 24.9048709869 6.0549640656
-38.5532569885 24.8637714386 5.8377914429
-38.4974594116 24.8236312866 5.6210231781
-38.4429321289 24.7843990326 5.4046335220
-38.3872413635 24.7443370819 5.1877155304
-38.3283042908 24.7019653320 4.9694914818
-38.2675933838 24.6583251953 4.7505002022
-38.2113647461 24.6178817749 4.5330901146
-38.1683654785 24.5868549347 4.3205590248
-38.1454048157 24.5700969696 4.1155042648
-38.1448440552 24.5692882538 3.9188628197
-38.1649322510 24.5831813812 3.7300262451
-38.2005538940 24.6081352234 3.5471017361
-38.2436485291 24.6384086609 3.3670635223
-38.2853050232 24.6676616669 3.1865375042
-38.3192596436 24.6914291382 3.0031285286
-38.3436279297 24.7083702087 2.8160996437
-38.3596382141 24.7193622589 2.6258988380
-38.3693580627 24.7258720398 2.4332990646
-38.3743972778 24.7290496826 2.2389059067
-38.3756332397 24.7295227051 2.0430481434
-38.3731727600 24.7273597717 1.8457547426
-38.3663673401 24.7221050262 1.6467685699
-38.3545112610 24.7132511139 1.4458038807
-38.3381118774 24.7011661530 1.2430484295
-38.3195877075 24.6875648499 1.0394312143
-38.3019905090 24.6746253967 0.8361384273
-38.2865409851 24.6632137299 0.6336494684
-38.2713279724 24.6519718170 0.4312206209
-38.2525329590 24.6381797791 0.2273549885
-38.2271423340 24.6196899414 0.0208578184
-47.9425086975 -21.5984439850 88.6394119263
-47.9432868958 -21.6004428864 88.4493713379
-47.9506111145 -21.6054916382 88.2594909668
-47.9651908875 -21.6139221191 88.0698165894
-47.9855079651 -21.6250247955 87.8803024292
-48.0081710815 -21.6372203827 87.6908798218
-48.0297851563 -21.6489257813 87.5014419556
-48.0482826233 -21.6591815948 87.3119354248
