-27.5768775940 -28.4344253540 37.8421897888
-27.6011314392 -28.4547615051 37.6495246887
-27.6260070801 -28.4756965637 37.4570503235
-27.6478481293 -28.4937038422 37.2637710571
-27.6642665863 -28.5064697266 37.0690116882
-27.6753005981 -28.5140342712 36.8727722168
-27.6827793121 -28.5181636810 36.6755447388
-27.6887531281 -28.5208415985 36.4778900146
-27.6944274902 -28.5232276917 36.2801513672
-27.6999988556 -28.5255146027 36.0823745728
-27.7049808502 -28.5272312164 35.8844223022
-27.7086238861 -28.5276565552 35.6860847473
-27.7103157043 -28.5261936188 35.4871864319
-27.7097949982 -28.5225944519 35.2876434326
-27.7070579529 -28.5168533325 35.0874481201
-27.7020263672 -28.5088939667 34.8865776062
-27.6942253113 -28.4982585907 34.6848831177
-27.6823711395 -28.4837074280 34.4819908142
-27.6642627716 -28.4631099701 34.2772521973
-27.6379947662 -28.4346294403 34.0701026917
-27.6047954559 -28.3994503021 33.8608703613
-27.5710544586 -28.3637447357 33.6514053345
-27.5462913513 -28.3367137909 33.4444923401
-27.5379886627 -28.3255882263 33.2423515320
-27.5480823517 -28.3322410583 33.0455932617
-27.5737056732 -28.3539009094 32.8534240723
-27.6096839905 -28.3855705261 32.6643486023
-27.6500415802 -28.4214706421 32.4766235352
-27.6888942719 -28.4559192657 32.2885055542
-27.7218570709 -28.4846725464 32.0986747742
-27.7472133636 -28.5060787201 31.9066104889
-27.7659320831 -28.5210685730 31.7125797272
-27.7808876038 -28.5324230194 31.5174293518
-27.7960052490 -28.5439338684 31.3223381042
-27.8152561188 -28.5594387054 31.1285114288
-27.8412456512 -28.5814590454 30.9367504120
-27.8742675781 -28.6102752686 30.7471656799
-27.9125804901 -28.6442050934 30.5592403412
-27.9532394409 -28.6804046631 30.3720874786
-27.9925003052 -28.7152538300 30.1845588684
-28.0264911652 -28.7450084686 29.9954586029
-28.0527687073 -28.7673091888 29.8040142059
-28.0715808868 -28.7823963165 29.6102828979
-28.0855712891 -28.7928199768 29.4150676727
-28.0981636047 -28.8018932343 29.2194232941
-28.1115589142 -28.8117408752 29.0240364075
-28.1256675720 -28.8222808838 28.8288822174
-28.1388988495 -28.8319721222 28.6334590912
-28.1498146057 -28.8394241333 28.4373130798
-28.1580314636 -28.8442687988 28.2403144836
-28.1640987396 -28.8470325470 28.0426330566
-28.1691074371 -28.8487758636 27.8446063995
-28.1744880676 -28.8508777618 27.6466922760
-28.1819686890 -28.8550090790 27.4494438171
-28.1937427521 -28.8632907867 27.2535705566
-28.2125110626 -28.8783359528 27.0599517822
-28.2407894135 -28.9025764465 26.8694210052
-28.2792510986 -28.9366607666 26.6822185516
-28.3251838684 -28.9779701233 26.4974937439
-28.3728351593 -29.0209426880 26.3133926392
-28.4157218933 -29.0593090057 26.1278038025
-28.4488773346 -29.0882682800 25.9390907288
-28.4698295593 -29.1054267883 25.7464179993
-28.4791240692 -29.1113147736 25.5499286652
-28.4805259705 -29.1095733643 25.3508377075
-28.4795227051 -29.1055030823 25.1509361267
-28.4803199768 -29.1031761169 24.9516124725
-28.4838829041 -29.1035213470 24.7531948090
-28.4885463715 -29.1049308777 24.5551319122
-28.4920883179 -29.1052551270 24.3566875458
-28.4934196472 -29.1034431458 24.1574916840
-28.4931011200 -29.1000328064 23.9577274323
-28.4929275513 -29.0967655182 23.7579936981
-28.4951553345 -29.0958175659 23.5590553284
-28.5019397736 -29.0992794037 23.3616485596
-28.5154323578 -29.1092243195 23.1665153503
-28.5381374359 -29.1280803680 22.9745273590
-28.5722255707 -29.1579456329 22.7864494324
-28.6173667908 -29.1985015869 22.6021976471
-28.6691570282 -29.2454891205 22.4202938080
-28.7206363678 -29.2921752930 22.2383575439
-28.7657184601 -29.3326778412 22.0542888641
-28.8012046814 -29.3638992310 21.8669643402
-28.8265323639 -29.3852958679 21.6761665344
-28.8429431915 -29.3980712891 21.4822959900
-28.8528003693 -29.4045047760 21.2861518860
-28.8589515686 -29.4073543549 21.0887165070
-28.8646221161 -29.4097404480 20.8911056519
-28.8736534119 -29.4153766632 20.6946697235
-28.8895149231 -29.4276180267 20.5006370544
-28.9126110077 -29.4468593597 20.3091697693
-28.9386138916 -29.4689121246 20.1187572479
-28.9604377747 -29.4869232178 19.9268913269
-28.9723854065 -29.4953784943 19.7315349579
-28.9729461670 -29.4928226471 19.5321235657
-28.9650707245 -29.4821033478 19.3296794891
-28.9548892975 -29.4691543579 19.1263809204
-28.9496517181 -29.4609870911 18.9248218536
-28.9553356171 -29.4633846283 18.7271709442
-28.9749126434 -29.4792213440 18.5345287323
-29.0079536438 -29.5080852509 18.3467769623
-29.0512866974 -29.5469055176 18.1628017426
-29.1000099182 -29.5909423828 17.9808483124
-29.1485424042 -29.6347961426 17.7988948822
-29.1918201447 -29.6735649109 17.6150913239
-29.2266921997 -29.7042045593 17.4282684326
-29.2528400421 -29.7264022827 17.2382869720
-29.2724456787 -29.7422714233 17.0459270477
-29.2887840271 -29.7549819946 16.8523807526
-29.3049106598 -29.7674846649 16.6587677002
-29.3231658936 -29.7820491791 16.4659576416
-29.3450489044 -29.8001232147 16.2745113373
-29.3709182739 -29.8220539093 16.0845718384
-29.3999958038 -29.8470897675 15.8958616257
-29.4312095642 -29.8741950989 15.7079858780
-29.4641036987 -29.9029254913 15.5207796097
-29.4986763000 -29.9332809448 15.3342475891
-29.5344486237 -29.9647960663 15.1482114792
-29.5698356628 -29.9959411621 14.9620790482
-29.6024284363 -30.0243816376 14.7749328613
-29.6301441193 -30.0481052399 14.5859766006
-29.6527156830 -30.0668506622 14.3950967789
-29.6721954346 -30.0826053619 14.2030601501
-29.6916255951 -30.0983104706 14.0110225677
-29.7126007080 -30.1155109406 13.8195953369
-29.7337951660 -30.1329250336 13.6282730103
-29.7518119812 -30.1472625732 13.4357490540
-29.7634658813 -30.1554450989 13.2407846451
-29.7676391602 -30.1563854218 13.0429306030
-29.7659378052 -30.1516418457 12.8427896500
-29.7623825073 -30.1451015472 12.6419076920
-29.7620105743 -30.1416435242 12.4422426224
-29.7686424255 -30.1449642181 12.2452964783
-29.7831382751 -30.1558952332 12.0514221191
-29.8036022186 -30.1726036072 11.8598976135
-29.8273983002 -30.1925373077 11.6697034836
-29.8529720306 -30.2141914368 11.4802350998
-29.8797512054 -30.2370128632 11.2912731171
-29.9068431854 -30.2601394653 11.1024656296
-29.9326419830 -30.2820110321 10.9131765366
-29.9557743073 -30.3013038635 10.7228574753
-29.9759941101 -30.3177795410 10.5314025879
-29.9941596985 -30.3322658539 10.3391466141
-30.0119285583 -30.3463687897 10.1467485428
-30.0317211151 -30.3624286652 9.9551763535
-30.0565681458 -30.3833847046 9.7656555176
-30.0891857147 -30.4118633270 9.5792951584
-30.1301136017 -30.4483852386 9.3963308334
-30.1761417389 -30.4898452759 9.2154874802
-30.2210578918 -30.5302333832 9.0342597961
-30.2591705322 -30.5640335083 8.8503293991
-30.2884979248 -30.5893287659 8.6628713608
-30.3103561401 -30.6073951721 8.4723997116
-30.3265304565 -30.6199588776 8.2796249390
-30.3376808167 -30.6276550293 8.0848007202
-30.3438358307 -30.6305198669 7.8879289627
-30.3456439972 -30.6291732788 7.6892595291
-30.3455085754 -30.6259441376 7.4897751808
-30.3479595184 -30.6252212524 7.2913441658
-30.3585510254 -30.6323776245 7.0962753296
-30.3818416595 -30.6518306732 6.9064855576
-30.4198513031 -30.6855373383 6.7228488922
-30.4716243744 -30.7325706482 6.5450072289
-30.5336914063 -30.7895736694 6.3715462685
-30.6008510590 -30.8515071869 6.2003135681
-30.6671314240 -30.9125957489 6.0288162231
-30.7272434235 -30.9677066803 5.8548240662
-30.7779350281 -31.0137023926 5.6769509315
-30.8182392120 -31.0496368408 5.4947614670
-30.8488273621 -31.0761642456 5.3085126877
-30.8716011047 -31.0951232910 5.1189851761
-30.8893718719 -31.1092395782 4.9273543358
-30.9052810669 -31.1215534210 4.7349452972
-30.9221611023 -31.1348075867 4.5429625511
-30.9419479370 -31.1508769989 4.3522381783
-30.9649696350 -31.1700801849 4.1629199982
-30.9896392822 -31.1908779144 3.9743349552
-31.0135707855 -31.2109622955 3.7854592800
-31.0356731415 -31.2292766571 3.5958209038
-31.0574245453 -31.2472496033 3.4060533047
-31.0821094513 -31.2680625916 3.2175796032
-31.1128463745 -31.2947406769 3.0317618847
-31.1511707306 -31.3287677765 2.8492856026
-31.1967773438 -31.3698501587 2.6700367928
-31.2474784851 -31.4158649445 2.4930787086
-31.2992763519 -31.4629459381 2.3166759014
-31.3478851318 -31.5069370270 2.1389503479
-31.3912239075 -31.5458259583 1.9589779377
-31.4300518036 -31.5803451538 1.7770793438
-31.4657611847 -31.6118450165 1.5938571692
-31.4980602264 -31.6400432587 1.4091744423
-31.5252189636 -31.6632614136 1.2222542763
-31.5462074280 -31.6805019379 1.0326256752
-31.5622749329 -31.6929779053 0.8408278823
-31.5769329071 -31.7040882111 0.6484141350
-31.5951538086 -31.7186489105 0.4576021433
-31.6223239899 -31.7418804169 0.2708136737
-31.6628017426 -31.7780056000 0.0900282264
-33.2492904663 -18.1988697052 80.7739639282
-33.2335281372 -18.1887550354 80.5758285522
-33.2083778381 -18.1740798950 80.3770217896
-33.1824836731 -18.1590404510 80.1781234741
-33.1623420715 -18.1467952728 79.9795608521
-33.1512069702 -18.1389293671 79.7815856934
-33.1489562988 -18.1353797913 79.5841979980
-33.1522674561 -18.1345367432 79.3871917725
-33.1563224792 -18.1340541840 79.1902236938
-33.1570510864 -18.1319541931 78.9930038452
-33.1520690918 -18.1270790100 78.7953643799
-33.1407585144 -18.1191253662 78.5972290039
-33.1249275208 -18.1089744568 78.3987274170
-33.1093940735 -18.0989665985 78.2002182007
-33.1006507874 -18.0922603607 78.0021820068
-33.1035308838 -18.0912055969 77.8050003052
-33.1183967590 -18.0959758759 77.6087417603
-33.1410026550 -18.1045112610 77.4130859375
-33.1651153564 -18.1137790680 77.2175598145
-33.1858901978 -18.1214256287 77.0217971802
-33.2016410828 -18.1266269684 76.8256454468
-33.2132453918 -18.1298141479 76.6291656494
-33.2224426270 -18.1318302155 76.4324874878
-33.2305793762 -18.1333312988 76.2357254028
-33.2384376526 -18.1346950531 76.0389328003
-33.2466735840 -18.1362457275 75.8421707153
-33.2560806274 -18.1383628845 75.6455078125
-33.2668952942 -18.1411647797 75.4489593506
-33.2774810791 -18.1438560486 75.2523880005
-33.2841873169 -18.1446609497 75.0554885864
-33.2838096619 -18.1420211792 74.8579635620
-33.2767486572 -18.1361274719 74.6598358154
-33.2673263550 -18.1290893555 74.4614791870
-33.2611274719 -18.1236171722 74.2633819580
-33.2622528076 -18.1217060089 74.0659179688
-33.2722091675 -18.1240901947 73.8692398071
-33.2896766663 -18.1301288605 73.6732406616
-33.3108787537 -18.1379833221 73.4775924683
-33.3314247131 -18.1455173492 73.2818984985
-33.3489303589 -18.1515731812 73.0859375000
-33.3641700745 -18.1565284729 72.8897705078
-33.3795585632 -18.1615562439 72.6936264038
-33.3962211609 -18.1672019958 72.4976043701
-33.4121818542 -18.1725082397 72.3015289307
-33.4233360291 -18.1754741669 72.1049957275
-33.4264945984 -18.1745529175 71.9076919556
-33.4219665527 -18.1698913574 71.7096176147
-33.4136924744 -18.1634063721 71.5111541748
-33.4071159363 -18.1577491760 71.3128280640
-33.4066123962 -18.1550445557 71.1150894165
-33.4139518738 -18.1561546326 70.9181289673
-33.4280700684 -18.1605644226 70.7218475342
-33.4457092285 -18.1666851044 70.5259323120
-33.4630508423 -18.1726627350 70.3299942017
-33.4776306152 -18.1772975922 70.1337814331
-33.4890480042 -18.1803913116 69.9372482300
-33.4980926514 -18.1823329926 69.7404632568
-33.5056037903 -18.1835269928 69.5435104370
-33.5120468140 -18.1842021942 69.3464431763
-33.5177764893 -18.1845302582 69.1492919922
-33.5233879089 -18.1848011017 68.9521255493
-33.5298881531 -18.1855030060 68.7550430298
-33.5384635925 -18.1872158051 68.5581817627
-33.5498847961 -18.1903114319 68.3616333008
-33.5638351440 -18.1946392059 68.1653594971
-33.5789794922 -18.1995487213 67.9692306519
-33.5937004089 -18.2042503357 67.7730560303
-33.6065826416 -18.2080574036 67.5766830444
-33.6164131165 -18.2103805542 67.3799667358
-33.6223678589 -18.2108173370 67.1828079224
-33.6243247986 -18.2093086243 66.9851760864
-33.6229286194 -18.2061672211 66.7871551514
-33.6196632385 -18.2021160126 66.5888977051
-33.6171073914 -18.1984100342 66.3907012939
-33.6181602478 -18.1964607239 66.1929092407
-33.6239929199 -18.1968383789 65.9956741333
-33.6328239441 -18.1986732483 65.7987823486
-33.6411552429 -18.2002639771 65.6018371582
-33.6461372375 -18.2002277374 65.4044799805
-33.6467018127 -18.1980400085 65.2065811157
-33.6428565979 -18.1937046051 65.0081253052
-33.6341514587 -18.1870040894 64.8090667725
-33.6186599731 -18.1770000458 64.6091384888
-33.5940361023 -18.1625499725 64.4080429077
-33.5607185364 -18.1438674927 64.2058181763
-33.5242118835 -18.1236305237 64.0031280518
-33.4930915833 -18.1060161591 63.8010559082
-33.4744529724 -18.0944766998 63.6005058289
-33.4718551636 -18.0907459259 63.4019508362
-33.4868087769 -18.0955600739 63.2056274414
-33.5193138123 -18.1089172363 63.0115661621
-33.5649948120 -18.1286907196 62.8192405701
-33.6134605408 -18.1498222351 62.6273269653
-33.6525764465 -18.1664009094 62.4342422485
-33.6753578186 -18.1750278473 62.2390480042
-33.6822776794 -18.1759300232 62.0417785645
-33.6782913208 -18.1715240479 61.8430519104
-33.6692771912 -18.1646671295 61.6436347961
-33.6601638794 -18.1577663422 61.4441757202
-33.6537475586 -18.1521739960 61.2450561523
-33.6502494812 -18.1480045319 61.0463027954
-33.6486091614 -18.1447391510 60.8477859497
-33.6483879089 -18.1421642303 60.6494483948
-33.6505813599 -18.1407642365 60.4514274597
-33.6573257446 -18.1415805817 60.2540206909
-33.6713142395 -18.1459255219 60.0576210022
-33.6949234009 -18.1549549103 59.8625717163
-33.7289543152 -18.1690597534 59.6690025330
-33.7717781067 -18.1874465942 59.4767074585
-33.8197250366 -18.2083301544 59.2851867676
-33.8680763245 -18.2294120789 59.0937767029
-33.9117088318 -18.2481937408 58.9017410278
-33.9459266663 -18.2623920441 58.7083969116
-33.9679374695 -18.2706470490 58.5133171082
-33.9776268005 -18.2728996277 58.3164634705
-33.9765701294 -18.2699184418 58.1180343628
-33.9665985107 -18.2625942230 57.9182815552
-33.9496307373 -18.2518634796 57.7174682617
-33.9283561707 -18.2390327454 57.5159759521
-33.9062194824 -18.2257823944 57.3143081665
-33.8865966797 -18.2137565613 57.1129760742
-33.8721961975 -18.2042732239 56.9123840332
-33.8649826050 -18.1982898712 56.7128410339
-33.8662910461 -18.1964588165 56.5145683289
-33.8767929077 -18.1991043091 56.3176841736
-33.8959579468 -18.2059726715 56.1221275330
-33.9212722778 -18.2158336639 55.9275245667
-33.9482116699 -18.2264900208 55.7331962585
-33.9720153809 -18.2356166840 55.5384063721
-33.9900245667 -18.2419204712 55.3427276611
-34.0025215149 -18.2455387115 55.1461982727
-34.0115547180 -18.2474708557 54.9491233826
-34.0192756653 -18.2487621307 54.7518386841
-34.0271949768 -18.2501506805 54.5545845032
-34.0364418030 -18.2521858215 54.3575363159
-34.0480918884 -18.2553939819 54.1608734131
-34.0627365112 -18.2600593567 53.9646911621
-34.0797500610 -18.2658786774 53.7688980103
-34.0977439880 -18.2721767426 53.5732727051
-34.1160011292 -18.2786026001 53.3776969910
-34.1345901489 -18.2851905823 53.1821899414
-34.1526832581 -18.2915363312 52.9866142273
-34.1677513123 -18.2964096069 52.7905464172
-34.1770706177 -18.2984809875 52.5935325623
-34.1793251038 -18.2971096039 52.3953399658
-34.1748962402 -18.2924785614 52.1960182190
-34.1656723022 -18.2855148315 51.9958724976
-34.1549339294 -18.2778091431 51.7954406738
-34.1462135315 -18.2710895538 51.5953216553
-34.1414985657 -18.2663192749 51.3958549500
-34.1404838562 -18.2633533478 51.1969985962
-34.1415252686 -18.2613887787 50.9984779358
-34.1430091858 -18.2596397400 50.8000221252
-34.1439933777 -18.2576484680 50.6014671326
-34.1441421509 -18.2552471161 50.4027519226
-34.1434402466 -18.2524337769 50.2038726807
-34.1420249939 -18.2492694855 50.0048522949
-34.1400871277 -18.2458515167 49.8057250977
-34.1378936768 -18.2423095703 49.6065368652
-34.1358184814 -18.2388248444 49.4073486328
-34.1343955994 -18.2356567383 49.2082595825
-34.1343955994 -18.2331829071 49.0094070435
-34.1370315552 -18.2319946289 48.8110122681
-34.1442565918 -18.2330417633 48.6134300232
-34.1586418152 -18.2375812531 48.4171371460
-34.1818618774 -18.2464256287 48.2224502563
-34.2119445801 -18.2586174011 48.0290298462
-34.2420005798 -18.2707958221 47.8356323242
-34.2633209229 -18.2787151337 47.6406593323
-34.2711410522 -18.2800540924 47.4432182312
-34.2675094604 -18.2758083344 47.2436523438
-34.2587127686 -18.2690467834 47.0431137085
-34.2506217957 -18.2626266479 46.8426742554
-34.2464828491 -18.2581329346 46.6429519653
-34.2478218079 -18.2563095093 46.4442329407
-34.2559356689 -18.2577896118 46.2467765808
-34.2718772888 -18.2630882263 46.0507965088
-34.2951049805 -18.2719383240 45.8562088013
-34.3225822449 -18.2828617096 45.6624450684
-34.3499641418 -18.2937374115 45.4686889648
-34.3740768433 -18.3030204773 45.2743263245
-34.3944892883 -18.3104972839 45.0792694092
-34.4131050110 -18.3171005249 44.8838844299
-34.4328727722 -18.3242645264 44.6887283325
-34.4563713074 -18.3332481384 44.4943161011
-34.4844894409 -18.3444843292 44.3008193970
-34.5158462524 -18.3573017120 44.1079864502
-34.5482673645 -18.3706378937 43.9153900146
-34.5813026428 -18.3842735291 43.7229461670
-34.6170845032 -18.3992500305 43.5310783386
-34.6580314636 -18.4167442322 43.3402709961
-34.7035980225 -18.4364929199 43.1504287720
-34.7490653992 -18.4561958313 42.9606170654
-34.7873611450 -18.4723987579 42.7694129944
-34.8127059937 -18.4822864532 42.5756378174
-34.8239746094 -18.4853076935 42.3790321350
-34.8253288269 -18.4834957123 42.1804122925
-34.8230247498 -18.4798965454 41.9810371399
-34.8208732605 -18.4763717651 41.7816696167
-34.8187980652 -18.4728851318 41.5823059082
-34.8153991699 -18.4687519073 41.3826484680
-34.8107681274 -18.4640159607 41.1827163696
-34.8064270020 -18.4594249725 40.9828224182
-34.8037147522 -18.4556236267 40.7832489014
-34.8030738831 -18.4528369904 40.5840873718
-34.8046073914 -18.4511070251 40.3853645325
-34.8084716797 -18.4505157471 40.1871185303
-34.8147850037 -18.4511203766 39.9893798828
-34.8234710693 -18.4528827667 39.7921371460
-34.8345336914 -18.4558010101 39.5953941345
-34.8486022949 -18.4601879120 39.3992919922
-34.8669433594 -18.4666595459 39.2041091919
-34.8903388977 -18.4755992889 39.0100212097
-34.9176368713 -18.4864406586 38.8167915344
-34.9454765320 -18.4975471497 38.6236991882
-34.9697685242 -18.5069236755 38.4298667908
-34.9877777100 -18.5132331848 38.2346878052
-34.9992179871 -18.5163383484 38.0380859375
-35.0057868958 -18.5170669556 37.8404197693
-35.0097465515 -18.5165233612 37.6421775818
-35.0128288269 -18.5155487061 37.4437294006
-35.0160560608 -18.5146484375 37.2453079224
-35.0203399658 -18.5142593384 37.0471038818
-35.0271453857 -18.5151023865 36.8494567871
-35.0387153625 -18.5182723999 36.6528625488
-35.0573844910 -18.5249042511 36.4578590393
-35.0842132568 -18.5355205536 36.2646942139
-35.1181221008 -18.5495910645 36.0731468201
-35.1564674377 -18.5658283234 35.8826332092
-35.1965522766 -18.5829124451 35.6925506592
-35.2368316650 -18.6000957489 35.5025558472
-35.2771949768 -18.6173191071 35.3126220703
-35.3173751831 -18.6344528198 35.1226882935
-35.3537902832 -18.6497497559 34.9319343567
-35.3787193298 -18.6594390869 34.7385711670
-35.3850212097 -18.6600399017 34.5409355164
-35.3727684021 -18.6515808105 34.3390007019
-35.3505401611 -18.6382541656 34.1347198486
-35.3306159973 -18.6260509491 33.9309272766
-35.3230133057 -18.6198616028 33.7299690247
-35.3320693970 -18.6218051910 33.5328865051
-35.3557052612 -18.6308650970 33.3392257690
-35.3871574402 -18.6437397003 33.1474227905
-35.4188880920 -18.6567516327 32.9557151794
-35.4467582703 -18.6678791046 32.7631263733
-35.4718627930 -18.6776580811 32.5699005127
-35.4994316101 -18.6886386871 32.3772850037
-35.5358848572 -18.7039585114 32.1868171692
-35.5850563049 -18.7254867554 31.9994335175
-35.6450881958 -18.7523174286 31.8147201538
-35.7086830139 -18.7808914185 31.6309356689
-35.7672958374 -18.8070316315 31.4460201263
-35.8155136108 -18.8280963898 31.2586479187
-35.8517761230 -18.8433284760 31.0684223175
-35.8765068054 -18.8529262543 30.8754177094
-35.8908576965 -18.8574581146 30.6798915863
-35.8966827393 -18.8578262329 30.4822788239
-35.8961944580 -18.8551101685 30.2831020355
-35.8911972046 -18.8501949310 30.0827980042
-35.8828697205 -18.8436489105 29.8816471100
-35.8721885681 -18.8359565735 29.6798858643
-35.8608360291 -18.8279361725 29.4779243469
-35.8519401550 -18.8211154938 29.2765483856
-35.8494987488 -18.8174438477 29.0767593384
-35.8558731079 -18.8180789948 28.8791656494
-35.8696517944 -18.8223304749 28.6834316254
-35.8868637085 -18.8282566071 28.4885692596
-35.9045219421 -18.8344020844 28.2938289642
-35.9223670959 -18.8406410217 28.0991458893
-35.9410324097 -18.8472785950 27.9046840668
-35.9595527649 -18.8538455963 27.7101936340
-35.9754447937 -18.8591289520 27.5150413513
-35.9869422913 -18.8622665405 27.3187694550
-35.9945907593 -18.8635234833 27.1215076447
-36.0008583069 -18.8641052246 26.9238834381
-36.0086784363 -18.8654479980 26.7266559601
-36.0201377869 -18.8685665131 26.5303688049
-36.0358581543 -18.8737659454 26.3351917267
-36.0552406311 -18.8807563782 26.1409797668
-36.0774230957 -18.8891124725 25.9475116730
-36.1021423340 -18.8987102509 25.7547283173
-36.1296539307 -18.9096698761 25.5626964569
-36.1596107483 -18.9218254089 25.3713359833
-36.1903152466 -18.9343471527 25.1802005768
-36.2197151184 -18.9462299347 24.9887466431
-36.2473754883 -18.9572658539 24.7968578339
-36.2747802734 -18.9681739807 24.6049232483
-36.3031120300 -18.9795379639 24.4132614136
-36.3311691284 -18.9907665253 24.2215518951
-36.3558807373 -19.0003623962 24.0289669037
-36.3748970032 -19.0071754456 23.8348655701
-36.3884735107 -19.0113315582 23.6393070221
-36.3995018005 -19.0142402649 23.4430599213
-36.4122810364 -19.0180053711 23.2472896576
-36.4307746887 -19.0245647430 23.0530815125
-36.4566078186 -19.0347080231 22.8608875275
-36.4879188538 -19.0475292206 22.6702156067
-36.5205192566 -19.0609817505 22.4799270630
-36.5507888794 -19.0732936859 22.2890281677
-36.5778465271 -19.0840377808 22.0972709656
-36.6032180786 -19.0939579010 21.9050693512
-36.6286773682 -19.1039218903 21.7129135132
-36.6545295715 -19.1140766144 21.5208892822
-36.6799850464 -19.1240386963 21.3287734985
-36.7049980164 -19.1337833405 21.1365566254
-36.7312240601 -19.1441249847 20.9447021484
-36.7609901428 -19.1561946869 20.7538623810
-36.7953300476 -19.1704978943 20.5643367767
-36.8331565857 -19.1865081787 20.3758316040
-36.8722343445 -19.2031307220 20.1877193451
-36.9103889465 -19.2193012238 19.9993839264
-36.9452362061 -19.2338562012 19.8101482391
-36.9734191895 -19.2451553345 19.6190452576
-36.9915885925 -19.2515583038 19.4251041412
-36.9985313416 -19.2524738312 19.2279548645
-36.9959869385 -19.2487525940 19.0280742645
-36.9878463745 -19.2422981262 18.8265628815
-36.9795227051 -19.2357482910 18.6249713898
-36.9775428772 -19.2323036194 18.4251899719
-36.9880447388 -19.2349586487 18.2290134430
-37.0143852234 -19.2453575134 18.0374431610
-37.0558242798 -19.2631378174 17.8502998352
-37.1074829102 -19.2859134674 17.6661891937
-37.1608963013 -19.3095474243 17.4826507568
-37.2062606812 -19.3292484283 17.2968082428
-37.2372016907 -19.3418979645 17.1067657471
-37.2548255920 -19.3480377197 16.9128227234
-37.2667922974 -19.3514099121 16.7172164917
-37.2820396423 -19.3563880920 16.5225830078
-37.3059539795 -19.3656044006 16.3305339813
-37.3392219543 -19.3793907166 16.1412925720
-37.3795318604 -19.3966236115 15.9541864395
-37.4235877991 -19.4156875610 15.7682447433
-37.4680747986 -19.4349651337 15.5824813843
-37.5105171204 -19.4532413483 15.3961496353
-37.5503616333 -19.4702472687 15.2090797424
-37.5889320374 -19.4866313934 15.0216655731
-37.6276168823 -19.5030727386 14.8343276978
-37.6663627625 -19.5195446014 14.6470470428
-37.7042045593 -19.5355720520 14.4595308304
-37.7405586243 -19.5508747101 14.2716007233
-37.7749404907 -19.5652141571 14.0831031799
-37.8057327271 -19.5777969360 13.8935384750
-37.8304405212 -19.5874061584 13.7021341324
-37.8476219177 -19.5933322906 13.5084304810
-37.8581886292 -19.5960254669 13.3126935959
-37.8650665283 -19.5969123840 13.1158161163
-37.8721618652 -19.5979061127 12.9189996719
-37.8834609985 -19.6009578705 12.7234859467
-37.9019050598 -19.6075038910 12.5302000046
-37.9277610779 -19.6176738739 12.3392391205
-37.9577903748 -19.6298847198 12.1496057510
-37.9867591858 -19.6415786743 11.9596681595
-38.0108261108 -19.6508769989 11.7682151794
-38.0301475525 -19.6578521729 11.5752859116
-38.0486412048 -19.6644210815 11.3821077347
-38.0713310242 -19.6730461121 11.1902694702
-38.1016616821 -19.6854076385 11.0008726120
-38.1406517029 -19.7020053864 10.8142576218
-38.1873664856 -19.7223815918 10.6301450729
-38.2387237549 -19.7450313568 10.4475679398
-38.2891845703 -19.7672443390 10.2647619247
-38.3324546814 -19.7859382629 10.0797052383
-38.3648910522 -19.7993316650 9.8912105560
-38.3876037598 -19.8079681396 9.6996135712
-38.4054756165 -19.8142375946 9.5064697266
-38.4240837097 -19.8208694458 9.3135757446
-38.4464530945 -19.8293380737 9.1219129562
-38.4716224670 -19.8391780853 8.9311761856
-38.4961662292 -19.8487129211 8.7402572632
-38.5174560547 -19.8566570282 8.5482969284
-38.5357208252 -19.8631172180 8.3553590775
-38.5533447266 -19.8692665100 8.1622247696
-38.5725250244 -19.8761768341 7.9696097374
-38.5934791565 -19.8839569092 7.7775936127
-38.6149864197 -19.8920078278 7.5857729912
-38.6364746094 -19.9000473022 7.3939623833
-38.6594085693 -19.9087963104 7.2026467323
-38.6864471436 -19.9195537567 7.0127129555
-38.7193641663 -19.9331874847 6.8247594833
-38.7579956055 -19.9496192932 6.6387453079
-38.8013305664 -19.9683532715 6.4543452263
-38.8490180969 -19.9892177582 6.2714505196
-38.9007034302 -20.0120391846 6.0899515152
-38.9536552429 -20.0354824066 5.9089374542
-39.0022811890 -20.0568065643 5.7265238762
-39.0410957336 -20.0733318329 5.5408496857
-39.0682373047 -20.0841426849 5.3512611389
-39.0859107971 -20.0903205872 5.1584815979
-39.0981101990 -20.0938186646 4.9638509750
-39.1082992554 -20.0963344574 4.7685375214
-39.1186714172 -20.0989360809 4.5732846260
-39.1306152344 -20.1023101807 4.3785705566
-39.1454696655 -20.1071071625 4.1848564148
-39.1647071838 -20.1140537262 3.9926564693
-39.1892547607 -20.1235961914 3.8022966385
-39.2183418274 -20.1353626251 3.6135241985
-39.2492294312 -20.1480102539 3.4254007339
-39.2785797119 -20.1599044800 3.2367732525
-39.3045578003 -20.1701488495 3.0470013618
-39.3278770447 -20.1790924072 2.8563272953
-39.3511238098 -20.1879997253 2.6656451225
-39.3769874573 -20.1981906891 2.4758963585
-39.4065780640 -20.2102050781 2.2874743938
-39.4390068054 -20.2236080170 2.1000747681
-39.4726982117 -20.2376308441 1.9131506681
-39.5068702698 -20.2518901825 1.7264300585
-39.5411987305 -20.2662258148 1.5397977829
-39.5742797852 -20.2799510956 1.3527585268
-39.6034698486 -20.2917709351 1.1643711329
-39.6265640259 -20.3006076813 0.9738464355
-39.6434822083 -20.3064212799 0.7811414003
-39.6566467285 -20.3103942871 0.5871059895
-39.6706352234 -20.3147697449 0.3933682144
-39.6914520264 -20.3224925995 0.2020818293
-39.7250137329 -20.3364543915 0.0153817004
-37.1001663208 -7.0133028030 80.7652511597
-37.0952033997 -7.0103840828 80.5678176880
-37.0893669128 -7.0073447227 80.3703155518
-37.0866775513 -7.0047421455 80.1729812622
-37.0894088745 -7.0028944016 79.9759674072
-37.0981292725 -7.0018801689 79.7793273926
-37.1114730835 -7.0015091896 79.5829772949
-37.1261596680 -7.0013251305 79.3867111206
-37.1389579773 -7.0008788109 79.1903305054
-37.1491088867 -7.0000638962 78.9937820435
-37.1588706970 -6.9991946220 78.7972030640
-37.1723518372 -6.9988431931 78.6008682251
-37.1937026978 -6.9995870590 78.4050674438
-37.2250595093 -7.0017251968 78.2099685669
-37.2649536133 -7.0050520897 78.0154724121
-37.3081512451 -7.0088400841 77.8212509155
-37.3468856812 -7.0120062828 77.6267547607
-37.3731956482 -7.0134429932 77.4314117432
-37.3822402954 -7.0124740601 77.2348632813
-37.3749961853 -7.0092372894 77.0371398926
-37.3576965332 -7.0045986176 76.8386611938
-37.3381385803 -6.9996447563 76.6399917603
-37.3225173950 -6.9952397346 76.4415664673
-37.3148689270 -6.9919447899 76.2436981201
-37.3178901672 -6.9901366234 76.0466156006
-37.3329505920 -6.9900050163 75.8504257202
-37.3588638306 -6.9913864136 75.6550750732
-37.3912544250 -6.9936704636 75.4602355957
-37.4241027832 -6.9960188866 75.2654571533
-37.4525299072 -6.9977512360 75.0703659058
-37.4742088318 -6.9985427856 74.8747634888
-37.4886207581 -6.9983220100 74.6785964966
-37.4957122803 -6.9970812798 74.4818496704
-37.4953269958 -6.9947981834 74.2844924927
-37.4875259399 -6.9914808273 74.0865249634
-37.4734230042 -6.9872841835 73.8880081177
-37.4557113647 -6.9825849533 73.6891632080
-37.4379653931 -6.9778800011 73.4902801514
-37.4229965210 -6.9735617638 73.2915954590
-37.4121360779 -6.9698166847 73.0932235718
-37.4060020447 -6.9667301178 72.8952255249
-37.4052391052 -6.9643917084 72.6976699829
-37.4107284546 -6.9629254341 72.5006332397
-37.4236183167 -6.9624915123 72.3042373657
-37.4447708130 -6.9632101059 72.1085739136
-37.4734916687 -6.9649839401 71.9135818481
-37.5067100525 -6.9673857689 71.7190170288
-37.5395202637 -6.9697308540 71.5244445801
-37.5668678284 -6.9713144302 71.3294067383
-37.5853271484 -6.9716582298 71.1335754395
-37.5936851501 -6.9705924988 70.9368362427
-37.5924797058 -6.9681925774 70.7392120361
-37.5839118958 -6.9647650719 70.5408935547
-37.5719833374 -6.9608683586 70.3422317505
-37.5615463257 -6.9571795464 70.1436843872
-37.5564842224 -6.9542407990 69.9456176758
-37.5588417053 -6.9523367882 69.7482299805
-37.5690650940 -6.9515304565 69.5515975952
-37.5859680176 -6.9516568184 69.3555984497
-37.6065254211 -6.9522933960 69.1599655151
-37.6269798279 -6.9529151917 68.9643402100
-37.6449241638 -6.9531869888 68.7684707642
-37.6601486206 -6.9530792236 68.5723495483
-37.6734008789 -6.9526963234 68.3760299683
-37.6848602295 -6.9520630836 68.1795349121
-37.6937141418 -6.9510660172 67.9827804565
-37.6987113953 -6.9495301247 67.7856292725
-37.6989898682 -6.9473357201 67.5879898071
-37.6947402954 -6.9445085526 67.3898696899
-37.6873016357 -6.9412360191 67.1913986206
-37.6786994934 -6.9378004074 66.9927902222
-37.6708717346 -6.9344730377 66.7942276001
-37.6650924683 -6.9314312935 66.5958633423
-37.6617813110 -6.9287338257 66.3977432251
-37.6606712341 -6.9263439178 66.1998291016
-37.6611900330 -6.9241809845 66.0020828247
-37.6628189087 -6.9221735001 65.8044433594
-37.6652946472 -6.9202842712 65.6068801880
-37.6685638428 -6.9185056686 65.4093933105
-37.6725196838 -6.9168224335 65.2119750977
-37.6768035889 -6.9151849747 65.0145797729
-37.6808891296 -6.9135198593 64.8171539307
-37.6843490601 -6.9117674828 64.6196517944
-37.6871528625 -6.9099230766 64.4220657349
-37.6897811890 -6.9080543518 64.2244491577
-37.6931037903 -6.9062824249 64.0269012451
-37.6980400085 -6.9047355652 63.8295288086
-37.7052612305 -6.9035086632 63.6324081421
-37.7153244019 -6.9026784897 63.4356155396
-37.7289733887 -6.9023494720 63.2392349243
-37.7469139099 -6.9026207924 63.0433616638
-37.7687988281 -6.9034433365 62.8479576111
-37.7925224304 -6.9045238495 62.6527862549
-37.8151588440 -6.9054522514 62.4575004578
-37.8347434998 -6.9059534073 62.2618675232
-37.8509368896 -6.9059815407 62.0658378601
-37.8642272949 -6.9056024551 61.8694648743
-37.8750114441 -6.9048738480 61.6727867126
-37.8835983276 -6.9038376808 61.4758453369
-37.8908538818 -6.9026150703 61.2787361145
-37.8987617493 -6.9014840126 61.0817031860
-37.9098472595 -6.9007973671 60.8850593567
-37.9252357483 -6.9007124901 60.6889533997
-37.9431877136 -6.9009861946 60.4931678772
-37.9601516724 -6.9011220932 60.2972717285
-37.9735412598 -6.9007577896 60.1009292603
-37.9833106995 -6.8998870850 59.9041328430
-37.9911575317 -6.8987474442 59.7070884705
-37.9988059998 -6.8975796700 59.5100135803
-38.0071868896 -6.8965144157 59.3130302429
-38.0170783997 -6.8956604004 59.1162376404
-38.0302009583 -6.8952589035 58.9198646545
-38.0489082336 -6.8956389427 58.7242240906
-38.0731048584 -6.8967876434 58.5293159485
-38.0967788696 -6.8978629112 58.3343544006
-38.1097221375 -6.8974370956 58.1379890442
-38.1055946350 -6.8946208954 57.9393463135
-38.0883674622 -6.8899703026 57.7389297485
-38.0689201355 -6.8850088120 57.5381774902
-38.0555419922 -6.8808965683 57.3382110596
-38.0494461060 -6.8778033257 57.1391983032
-38.0487709045 -6.8754692078 56.9409065247
-38.0544395447 -6.8740239143 56.7434730530
-38.0711441040 -6.8741235733 56.5475502014
-38.1028404236 -6.8763222694 56.3537063599
-38.1475677490 -6.8803472519 56.1617050171
-38.1972198486 -6.8850622177 55.9704322815
-38.2428474426 -6.8892135620 55.7786445618
-38.2800369263 -6.8921837807 55.5857124329
-38.3088531494 -6.8939814568 55.3916282654
-38.3289718628 -6.8945608139 55.1963310242
-38.3360633850 -6.8933148384 54.9991798401
-38.3243408203 -6.8894333839 54.7993278503
-38.2933158875 -6.8828473091 54.5966644287
-38.2513389587 -6.8747253418 54.3923606873
-38.2120094299 -6.8669738770 54.1883735657
-38.1877250671 -6.8613300323 53.9865188599
-38.1859054565 -6.8588337898 53.7879180908
-38.2076568604 -6.8596410751 53.5927696228
-38.2471771240 -6.8629388809 53.4002685547
-38.2936439514 -6.8672108650 53.2088317871
-38.3363952637 -6.8709626198 53.0168876648
-38.3694992065 -6.8733620644 52.8235397339
-38.3922958374 -6.8743171692 52.6286659241
-38.4074821472 -6.8742055893 52.4326591492
-38.4197196960 -6.8736801147 52.2362060547
-38.4339866638 -6.8734397888 52.0400695801
-38.4528541565 -6.8738446236 51.8446388245
-38.4748725891 -6.8746910095 51.6497001648
-38.4964103699 -6.8754706383 51.4547042847
-38.5150489807 -6.8758430481 51.2592697144
-38.5312919617 -6.8758802414 51.0634765625
-38.5476722717 -6.8759365082 50.8677062988
-38.5665740967 -6.8763470650 50.6723442078
-38.5881881714 -6.8771376610 50.4774169922
-38.6097068787 -6.8779153824 50.2824859619
-38.6264419556 -6.8780217171 50.0868110657
-38.6338081360 -6.8768138885 49.8896484375
-38.6284713745 -6.8738236427 49.6904487610
-38.6087417603 -6.8688144684 49.4889144897
-38.5756759644 -6.8619337082 49.2851905823
-38.5345611572 -6.8539218903 49.0801048279
-38.4942359924 -6.8460211754 48.8750839233
-38.4635086060 -6.8394665718 48.6715621948
-38.4475135803 -6.8349781036 48.4704017639
-38.4470710754 -6.8326721191 48.2717666626
-38.4603157043 -6.8322873116 48.0753784180
-38.4840164185 -6.8333697319 47.8807258606
-38.5142974854 -6.8353767395 47.6871833801
-38.5480804443 -6.8378748894 47.4942512512
-38.5845832825 -6.8407559395 47.3018074036
-38.6246795654 -6.8441410065 47.1099967957
-38.6680908203 -6.8479928970 46.9187889099
-38.7111358643 -6.8517928123 46.7275543213
-38.7473487854 -6.8546347618 46.5352020264
-38.7706604004 -6.8556642532 46.3406753540
-38.7789878845 -6.8545908928 46.1435928345
-38.7764701843 -6.8519940376 45.9446372986
-38.7728843689 -6.8492474556 45.7454833984
-38.7790718079 -6.8478727341 45.5480041504
-38.7998619080 -6.8485493660 45.3530654907
-38.8309020996 -6.8506655693 45.1599273682
-38.8633422852 -6.8529791832 44.9670600891
-38.8911590576 -6.8546428680 44.7734069824
-38.9133148193 -6.8555116653 44.5787734985
-38.9310836792 -6.8557648659 44.3833808899
-38.9458465576 -6.8555951118 44.1874580383
-38.9591369629 -6.8552188873 43.9912796021
-38.9729652405 -6.8549189568 43.7951965332
-38.9891242981 -6.8549456596 43.5995407104
-39.0076484680 -6.8553051949 43.4043159485
-39.0260772705 -6.8556513786 43.2090835571
-39.0414047241 -6.8555612564 43.0132980347
-39.0532798767 -6.8549866676 42.8168907166
-39.0646629333 -6.8543429375 42.6203880310
-39.0795249939 -6.8541879654 42.4245300293
-39.1002807617 -6.8548612595 42.2297630310
-39.1264305115 -6.8562936783 42.0360031128
-39.1546669006 -6.8580193520 41.8426551819
-39.1806068420 -6.8594222069 41.6488952637
-39.2011528015 -6.8600673676 41.4541511536
-39.2156181335 -6.8598566055 41.2582778931
-39.2250442505 -6.8589386940 41.0614585876
-39.2310447693 -6.8575382233 40.8639945984
-39.2349014282 -6.8558363914 40.6661148071
-39.2371520996 -6.8539085388 40.4679222107
-39.2375106812 -6.8517146111 40.2693557739
-39.2351646423 -6.8491401672 40.0702590942
-39.2293815613 -6.8460817337 39.8704833984
-39.2200927734 -6.8425302505 39.6700134277
-39.2083740234 -6.8386363983 39.4690475464
-39.1969108582 -6.8347783089 39.2681045532
-39.1901016235 -6.8315749168 39.0680351257
-39.1927986145 -6.8297085762 38.8697967529
-39.2077522278 -6.8295664787 38.6739540100
-39.2340202332 -6.8310165405 38.4803352356
-39.2678871155 -6.8335356712 38.2882347107
-39.3044967651 -6.8364415169 38.0967063904
-39.3383712769 -6.8389625549 37.9046669006
-39.3642349243 -6.8403568268 37.7110633850
-39.3801956177 -6.8403573036 37.5155029297
-39.3904914856 -6.8395609856 37.3188133240
-39.4034004211 -6.8391323090 37.1226463318
-39.4255180359 -6.8399991989 36.9283370972
-39.4581222534 -6.8423433304 36.7361679077
-39.4977760315 -6.8456797600 36.5454521179
-39.5385360718 -6.8491725922 36.3549995422
-39.5741653442 -6.8519434929 36.1635398865
-39.6005020142 -6.8534059525 35.9702072144
-39.6169853210 -6.8534812927 35.7748680115
-39.6261978149 -6.8525333405 35.5780410767
-39.6321907043 -6.8511319160 35.3805427551
-39.6387176514 -6.8498048782 35.1831474304
-39.6476745605 -6.8488206863 34.9862556458
-39.6584014893 -6.8480858803 34.7897300720
-39.6688995361 -6.8473181725 34.5931549072
-39.6782341003 -6.8463869095 34.3963356018
-39.6877288818 -6.8454780579 34.1995468140
-39.6999740601 -6.8449568748 34.0033378601
-39.7170372009 -6.8451142311 33.8081512451
-39.7396278381 -6.8460507393 33.6141471863
-39.7675819397 -6.8477430344 33.4213027954
-39.8007240295 -6.8501667976 33.2295875549
-39.8391151428 -6.8533296585 33.0390281677
-39.8822669983 -6.8571643829 32.8495254517
-39.9280471802 -6.8613700867 32.6606330872
-39.9723510742 -6.8653683662 32.4714660645
-40.0102615356 -6.8684654236 32.2809524536
-40.0381164551 -6.8701462746 32.0882835388
-40.0550651550 -6.8702893257 31.8932590485
-40.0628814697 -6.8691458702 31.6962413788
-40.0645332336 -6.8671326637 31.4978656769
-40.0628471375 -6.8646497726 31.2987442017
-40.0601463318 -6.8620228767 31.0993804932
-40.0582923889 -6.8595151901 30.9001884460
-40.0586929321 -6.8573255539 30.7014808655
-40.0621337891 -6.8555641174 30.5034370422
-40.0687141418 -6.8542451859 30.3060836792
-40.0779190063 -6.8532967567 30.1093139648
-40.0887756348 -6.8525810242 29.9129123688
-40.1000404358 -6.8519229889 29.7166023254
-40.1105232239 -6.8511548042 29.5201168060
-40.1194000244 -6.8501591682 29.3232650757
-40.1265373230 -6.8489189148 29.1260185242
-40.1327323914 -6.8475456238 28.9285488129
-40.1395988464 -6.8462667465 28.7312278748
-40.1489639282 -6.8453407288 28.5344753265
-40.1620750427 -6.8449430466 28.3385810852
-40.1793746948 -6.8451361656 28.1436538696
-40.2007331848 -6.8459024429 27.9496746063
-40.2253723145 -6.8471317291 27.7564697266
-40.2515182495 -6.8485732079 27.5636310577
-40.2769927979 -6.8499207497 27.3706550598
-40.3005447388 -6.8509964943 27.1772480011
-40.3226470947 -6.8518686295 26.9835186005
-40.3452720642 -6.8528146744 26.7899265289
-40.3708724976 -6.8541798592 26.5970497131
-40.4007644653 -6.8561520576 26.4052066803
-40.4340362549 -6.8586015701 26.2141876221
-40.4683456421 -6.8611974716 26.0234451294
-40.5021057129 -6.8637166023 25.8326015472
-40.5353431702 -6.8661618233 25.6416606903
-40.5681648254 -6.8685488701 25.4506492615
-40.5991973877 -6.8706836700 25.2592372894
-40.6264533997 -6.8722853661 25.0669422150
-40.6494331360 -6.8732833862 24.8736362457
-40.6692657471 -6.8738369942 24.6795825958
-40.6866798401 -6.8740496635 24.4849529266
-40.7008628845 -6.8738055229 24.2895450592
-40.7109336853 -6.8729810715 24.0931396484
-40.7178077698 -6.8717050552 23.8959503174
-40.7240829468 -6.8703446388 23.6986083984
-40.7328071594 -6.8693289757 23.5018634796
-40.7464981079 -6.8690156937 23.3063392639
-40.7662582397 -6.8695602417 23.1123199463
-40.7909736633 -6.8708047867 22.9195404053
-40.8176803589 -6.8723306656 22.7272720337
-40.8428077698 -6.8736338615 22.5346317291
-40.8630409241 -6.8742451668 22.3407878876
-40.8760337830 -6.8738341331 22.1451416016
-40.8818550110 -6.8724088669 21.9476966858
-40.8837127686 -6.8704242706 21.7492465973
-40.8864936829 -6.8685693741 21.5510196686
-40.8944664001 -6.8674483299 21.3540954590
-40.9105567932 -6.8674750328 21.1592273712
-40.9366798401 -6.8689193726 20.9669151306
-40.9731292725 -6.8718242645 20.7772560120
-41.0174026489 -6.8758349419 20.5896301270
-41.0647811890 -6.8802857399 20.4028415680
-41.1113319397 -6.8846201897 20.2158889771
-41.1562385559 -6.8887224197 20.0285587311
-41.2007064819 -6.8927631378 19.8411579132
-41.2445564270 -6.8967170715 19.6536407471
-41.2842826843 -6.9000878334 19.4650955200
-41.3145027161 -6.9021153450 19.2741165161
-41.3310775757 -6.9022121429 19.0796031952
-41.3328704834 -6.9002189636 18.8812313080
-41.3217964172 -6.8964056969 18.6794795990
-41.3025054932 -6.8914299011 18.4755382538
-41.2818984985 -6.8862676620 18.2712116241
-41.2674598694 -6.8819770813 18.0684738159
-41.2650985718 -6.8793950081 17.8688983917
-41.2782096863 -6.8790016174 17.6734104156
-41.3076324463 -6.8809165955 17.4822616577
-41.3506965637 -6.8847618103 17.2947750092
-41.4004669189 -6.8895564079 17.1091194153
-41.4480972290 -6.8940491676 16.9229431152
-41.4877090454 -6.8974070549 16.7346591949
-41.5191993713 -6.8996162415 16.5442276001
-41.5465354919 -6.9012379646 16.3527011871
-41.5736541748 -6.9028291702 16.1611366272
-41.6016578674 -6.9045453072 15.9698343277
-41.6290397644 -6.9061746597 15.7783851624
-41.6537780762 -6.9074292183 15.5862360001
-41.6748275757 -6.9081616402 15.3930978775
-41.6922874451 -6.9083867073 15.1989908218
-41.7072448730 -6.9082570076 15.0042047501
-41.7217712402 -6.9080662727 14.8093061447
-41.7382392883 -6.9081506729 14.6149463654
-41.7576370239 -6.9086499214 14.4214038849
-41.7784194946 -6.9093456268 14.2282562256
-41.7975540161 -6.9098081589 14.0346641541
-41.8129692078 -6.9097437859 13.8400468826
-41.8250236511 -6.9092035294 13.6444978714
-41.8359336853 -6.9085011482 13.4486312866
-41.8484458923 -6.9080257416 13.2532129288
-41.8647651672 -6.9080901146 13.0588674545
-41.8856277466 -6.9087972641 12.8658046722
-41.9093322754 -6.9099082947 12.6735582352
-41.9322891235 -6.9109125137 12.4811162949
-41.9517898560 -6.9114279747 12.2877101898
-41.9685134888 -6.9115500450 12.0935277939
-41.9852676392 -6.9116764069 11.8993606567
-42.0033493042 -6.9119906425 11.7055788040
-42.0213470459 -6.9122934341 11.5117835999
-42.0375175476 -6.9123373032 11.3174734116
-42.0522270203 -6.9121737480 11.1227502823
-42.0681495667 -6.9121823311 10.9283809662
-42.0890960693 -6.9129037857 10.7354679108
-42.1186332703 -6.9148426056 10.5450525284
-42.1585884094 -6.9182581902 10.3576793671
-42.2078208923 -6.9229903221 10.1730394363
-42.2624549866 -6.9284882545 9.9900217056
-42.3177566528 -6.9340815544 9.8072547913
-42.3701400757 -6.9392619133 9.6236925125
-42.4175109863 -6.9437317848 9.4387140274
-42.4581642151 -6.9472498894 9.2518100739
-42.4903793335 -6.9495720863 9.0624618530
-42.5134124756 -6.9505920410 8.8704309464
-42.5283546448 -6.9504642487 8.6760244370
-42.5376434326 -6.9495353699 8.4799480438
-42.5440635681 -6.9481987953 8.2830171585
-42.5502624512 -6.9468317032 8.0860157013
-42.5587730408 -6.9457917213 7.8896961212
-42.5718421936 -6.9453988075 7.6947369576
-42.5907058716 -6.9458279610 7.5015158653
-42.6144409180 -6.9469480515 7.3097667694
-42.6396903992 -6.9482836723 7.1184906960
-42.6623497009 -6.9492516518 6.9264521599
-42.6800689697 -6.9495186806 6.7329359055
-42.6932334900 -6.9491400719 6.5380501747
-42.7039108276 -6.9484081268 6.3424119949
-42.7144012451 -6.9476494789 6.1467161179
-42.7267608643 -6.9471559525 5.9515895844
-42.7430801392 -6.9472250938 5.7576756477
-42.7657890320 -6.9482007027 5.5657219887
-42.7972412109 -6.9504179955 5.3764653206
-42.8386383057 -6.9540472031 5.1902918816
-42.8892669678 -6.9589877129 5.0070004463
-42.9471321106 -6.9649562836 4.8259944916
-43.0103836060 -6.9716897011 4.6467137337
-43.0778579712 -6.9790239334 4.4688110352
-43.1482315063 -6.9867701530 4.2918810844
-43.2183570862 -6.9944825172 4.1149506569
-43.2825050354 -7.0013470650 3.9362342358
-43.3345146179 -7.0064878464 3.7537927628
-43.3719367981 -7.0095577240 3.5668368340
-43.3982658386 -7.0110526085 3.3764345646
-43.4209060669 -7.0120234489 3.1848919392
-43.4467391968 -7.0134487152 2.9943711758
-43.4785308838 -7.0157198906 2.8057508469
-43.5140800476 -7.0185251236 2.6183459759
-43.5483551025 -7.0211501122 2.4305691719
-43.5769042969 -7.0229616165 2.2410039902
-43.5979347229 -7.0237054825 2.0490689278
-43.6120910645 -7.0234727859 1.8549534082
-43.6210708618 -7.0225038528 1.6591875553
-43.6265296936 -7.0210351944 1.4622919559
-43.6296653748 -7.0192360878 1.2646436691
-43.6312217712 -7.0172123909 1.0664770603
-43.6316719055 -7.0150318146 0.8679422140
-43.6315345764 -7.0127673149 0.6692044735
-43.6317481995 -7.0105519295 0.4705646932
-43.6340789795 -7.0086379051 0.2725977600
-43.6416358948 -7.0074667931 0.0763179138
-37.5941925049 4.8198795319 80.7738342285
-37.5719108582 4.8181595802 80.5754852295
-37.5372352600 4.8142371178 80.3763275146
-37.5027961731 4.8103580475 80.1771240234
-37.4798164368 4.8085155487 79.9785842896
-37.4747505188 4.8098564148 79.7811431885
-37.4875755310 4.8143768311 79.5848236084
-37.5128211975 4.8211030960 79.3893127441
-37.5432281494 4.8287467957 79.1941604614
-37.5728836060 4.8362565041 78.9989776611
-37.5978736877 4.8429369926 78.8035125732
-37.6162567139 4.8484444618 78.6076202393
-37.6286048889 4.8528785706 78.4113311768
-37.6377639771 4.8567466736 78.2148284912
-37.6471939087 4.8606634140 78.0183410645
-37.6593513489 4.8650641441 77.8220367432
-37.6752815247 4.8701343536 77.6260070801
-37.6946449280 4.8758153915 77.4302291870
-37.7151145935 4.8816919327 77.2345428467
-37.7320175171 4.8869352341 77.0386047363
-37.7401199341 4.8906159401 76.8420410156
-37.7370452881 4.8923110962 76.6446456909
-37.7251243591 4.8924365044 76.4465866089
-37.7096519470 4.8919310570 76.2482223511
-37.6953506470 4.8916344643 76.0499191284
-37.6845550537 4.8919601440 75.8518524170
-37.6778907776 4.8930196762 75.6540756226
-37.6758232117 4.8948960304 75.4566345215
-37.6791648865 4.8977317810 75.2595977783
-37.6881599426 4.9015722275 75.0629959106
-37.7012901306 4.9061465263 74.8667221069
-37.7155914307 4.9109277725 74.6705474854
-37.7288208008 4.9155197144 74.4742889404
-37.7413253784 4.9199824333 74.2779693604
-37.7553329468 4.9247121811 74.0817871094
-37.7726440430 4.9300279617 73.8858718872
-37.7927742004 4.9358439445 73.6902084351
-37.8128585815 4.9416513443 73.4945449829
-37.8293418884 4.9468197823 73.2985992432
-37.8402595520 4.9510006905 73.1021804810
-37.8460769653 4.9542765617 72.9053344727
-37.8486213684 4.9569721222 72.7081909180
-37.8495559692 4.9593820572 72.5109024048
-37.8497657776 4.9616632462 72.3135452271
-37.8495178223 4.9638633728 72.1161270142
-37.8488121033 4.9659824371 71.9186553955
-37.8475494385 4.9680027962 71.7211227417
-37.8454895020 4.9698824883 71.5234985352
-37.8419036865 4.9714908600 71.3257217407
-37.8349494934 4.9725031853 71.1276245117
-37.8219604492 4.9724445343 70.9289474487
-37.8019180298 4.9711356163 70.7295837402
-37.7787895203 4.9692792892 70.5298995972
-37.7615242004 4.9684634209 70.3307189941
-37.7593116760 4.9703178406 70.1329345703
-37.7760543823 4.9755334854 69.9369277954
-37.8084220886 4.9835190773 69.7424316406
-37.8477821350 4.9927444458 69.5486373901
-37.8839263916 5.0013990402 69.3545684814
-37.9086227417 5.0080237389 69.1594161987
-37.9177627563 5.0118904114 68.9627456665
-37.9118385315 5.0130867958 68.7645874023
-37.8953552246 5.0124111176 68.5653533936
-37.8752784729 5.0110983849 68.3657302856
-37.8582725525 5.0103311539 68.1663742065
-37.8478889465 5.0107378960 67.9676589966
-37.8438758850 5.0122742653 67.7695617676
-37.8439788818 5.0145401955 67.5718765259
-37.8462753296 5.0171947479 67.3744049072
-37.8502311707 5.0201444626 67.1770935059
-37.8565368652 5.0235095024 66.9800186157
-37.8666877747 5.0275568962 66.7833480835
-37.8828506470 5.0326690674 66.5873107910
-37.9072227478 5.0392360687 66.3921585083
-37.9402427673 5.0473351479 66.1979522705
-37.9787292480 5.0564022064 66.0043640137
-38.0165328979 5.0653476715 65.8107376099
-38.0479049683 5.0731539726 65.6164398193
