-33.7454872131 -18.1499614716 57.4888610840
-33.7876358032 -18.1680202484 57.2966461182
-33.8172645569 -18.1799831390 57.1025962830
-33.8358688354 -18.1865787506 56.9069213867
-33.8475265503 -18.1897869110 56.7102050781
-33.8562698364 -18.1915760040 56.5130462646
-33.8652648926 -18.1934890747 56.3159255981
-33.8771514893 -18.1968097687 56.1192436218
-33.8942871094 -18.2026882172 55.9233741760
-33.9180335999 -18.2117862701 55.7285346985
-33.9473533630 -18.2236022949 55.5345764160
-33.9783363342 -18.2362251282 55.3409042358
-34.0057868958 -18.2471294403 55.1467094421
-34.0260391235 -18.2545280457 54.9514045715
-34.0386352539 -18.2581958771 54.7549018860
-34.0459136963 -18.2592716217 54.5575561523
-34.0515480042 -18.2595462799 54.3599472046
-34.0592651367 -18.2608375549 54.1626625061
-34.0717048645 -18.2644290924 53.9661331177
-34.0891609192 -18.2704639435 53.7704162598
-34.1091079712 -18.2777156830 53.5751152039
-34.1275558472 -18.2842330933 53.3795814514
-34.1411857605 -18.2884044647 53.1832695007
-34.1482772827 -18.2893905640 52.9858894348
-34.1479911804 -18.2867813110 52.7872848511
-34.1397743225 -18.2803058624 52.5873489380
-34.1241493225 -18.2702217102 52.3861541748
-34.1036987305 -18.2577838898 52.1841125488
-34.0825233459 -18.2449932098 51.9819107056
-34.0644302368 -18.2337055206 51.7801780701
-34.0519218445 -18.2251377106 51.5793571472
-34.0466041565 -18.2200717926 51.3797187805
-34.0498237610 -18.2191696167 51.1815223694
-34.0624961853 -18.2228736877 50.9849319458
-34.0841140747 -18.2309360504 50.7898864746
-34.1115531921 -18.2418365479 50.5958595276
-34.1390228271 -18.2527523041 50.4018630981
-34.1605491638 -18.2607707977 50.2068519592
-34.1740531921 -18.2648811340 50.0104560852
-34.1829109192 -18.2667255402 49.8132476807
-34.1925544739 -18.2689533234 49.6161766052
-34.2054367065 -18.2727603912 49.4196739197
-34.2197074890 -18.2772426605 49.2234230042
-34.2320709229 -18.2807960510 49.0268363953
-34.2407493591 -18.2825527191 48.8295936584
-34.2458953857 -18.2825889587 48.6317100525
-34.2485542297 -18.2814121246 48.4333724976
-34.2497940063 -18.2795429230 48.2347640991
-34.2504425049 -18.2773857117 48.0360336304
-34.2510223389 -18.2751941681 47.8372802734
-34.2518920898 -18.2731437683 47.6385650635
-34.2534217834 -18.2714157104 47.4399528503
-34.2561492920 -18.2702693939 47.2415542603
-34.2608909607 -18.2701072693 47.0435180664
-34.2688140869 -18.2714958191 46.8460617065
-34.2811889648 -18.2750530243 46.6494369507
-34.2982864380 -18.2809143066 46.4537010193
-34.3176116943 -18.2878627777 46.2583923340
-34.3336334229 -18.2931995392 46.0624694824
-34.3412628174 -18.2944450378 45.8649635315
-34.3408508301 -18.2917690277 45.6659240723
-34.3387451172 -18.2882671356 45.4665451050
-34.3421173096 -18.2874336243 45.2681961060
-34.3538131714 -18.2906627655 45.0714416504
-34.3726119995 -18.2973537445 44.8760566711
-34.3968849182 -18.3067150116 44.6817512512
-34.4267539978 -18.3188056946 44.4885482788
-34.4628677368 -18.3339405060 44.2965965271
-34.5039291382 -18.3514900208 44.1056480408
-34.5461349487 -18.3695964813 43.9149703979
-34.5858993530 -18.3865146637 43.7238540649
-34.6232566833 -18.4022598267 43.5322990417
-34.6614227295 -18.4183998108 43.3409461975
-34.7022476196 -18.4358367920 43.1501617432
-34.7428283691 -18.4531536102 42.9593696594
-34.7772941589 -18.4674892426 42.7673912048
-34.8012466431 -18.4766960144 42.5733261108
-34.8142127991 -18.4805469513 42.3770561218
-34.8187828064 -18.4803009033 42.1790847778
-34.8182258606 -18.4775543213 41.9800567627
-34.8146820068 -18.4733524323 41.7804069519
-34.8089370728 -18.4680747986 41.5802803040
-34.8013877869 -18.4619178772 41.3797645569
-34.7929573059 -18.4553279877 41.1790351868
-34.7851257324 -18.4490318298 40.9784049988
-34.7796173096 -18.4438705444 40.7782363892
-34.7781295776 -18.4406681061 40.5788803101
-34.7821083069 -18.4401321411 40.3806495667
-34.7928085327 -18.4428749084 40.1838264465
-34.8117179871 -18.4496231079 39.9887313843
-34.8401260376 -18.4610080719 39.7956581116
-34.8771247864 -18.4765815735 39.6044349670
-34.9182395935 -18.4941635132 39.4141235352
-34.9576187134 -18.5109004974 39.2234878540
-34.9919700623 -18.5251846313 39.0318107605
-35.0214881897 -18.5371112823 38.8391304016
-35.0472030640 -18.5471820831 38.6456527710
-35.0689277649 -18.5553073883 38.4513359070
-35.0860633850 -18.5611915588 38.2560348511
-35.0989837646 -18.5650196075 38.0598258972
-35.1089706421 -18.5674171448 37.8629798889
-35.1171302795 -18.5689239502 37.6657295227
-35.1237716675 -18.5696868896 37.4681434631
-35.1286201477 -18.5695781708 37.2701530457
-35.1318511963 -18.5686779022 37.0718002319
-35.1353225708 -18.5678939819 36.8734893799
-35.1426277161 -18.5689830780 36.6760215759
-35.1569786072 -18.5735092163 36.4801254272
-35.1786499023 -18.5816097260 36.2858734131
-35.2051506042 -18.5920658112 36.0927276611
-35.2339363098 -18.6036376953 35.9001159668
-35.2641639709 -18.6159133911 35.7078590393
-35.2955169678 -18.6287384033 35.5158843994
-35.3263740540 -18.6413211823 35.3238258362
-35.3541183472 -18.6523857117 35.1310844421
-35.3771400452 -18.6611461639 34.9372825623
-35.3959579468 -18.6678543091 34.7425346375
-35.4126663208 -18.6735324860 34.5473136902
-35.4295730591 -18.6793098450 34.3521423340
-35.4479064941 -18.6857814789 34.1573143005
-35.4666748047 -18.6924667358 33.9625968933
-35.4824142456 -18.6976718903 33.7671852112
-35.4906539917 -18.6992187500 33.5700225830
-35.4886627197 -18.6957683563 33.3704528809
-35.4774818420 -18.6878337860 33.1687011719
-35.4617118835 -18.6776580811 32.9658355713
-35.4470710754 -18.6680316925 32.7631988525
-35.4378471375 -18.6610507965 32.5618133545
-35.4361915588 -18.6577644348 32.3622055054
-35.4428672791 -18.6585445404 32.1645736694
-35.4577026367 -18.6633090973 31.9688892365
-35.4798660278 -18.6716518402 31.7749767303
-35.5090446472 -18.6834201813 31.5827713013
-35.5465888977 -18.6992702484 31.3926162720
-35.5941658020 -18.7200222015 31.2049350739
-35.6506271362 -18.7451133728 31.0194683075
-35.7106628418 -18.7719478607 30.8349380493
-35.7665977478 -18.7967834473 30.6494731903
-35.8113250732 -18.8161449432 30.4613227844
-35.8404502869 -18.8278903961 30.2693786621
-35.8538246155 -18.8319454193 30.0735702515
-35.8557929993 -18.8304290771 29.8749427795
-35.8534011841 -18.8267841339 29.6752204895
-35.8537445068 -18.8244743347 29.4761600494
-35.8624076843 -18.8262252808 29.2791614532
-35.8825263977 -18.8335723877 29.0850315094
-35.9133033752 -18.8461265564 28.8935909271
-35.9496307373 -18.8613891602 28.7035770416
-35.9849281311 -18.8761501312 28.5133380890
-36.0151863098 -18.8884506226 28.3218593597
-36.0403480530 -18.8982620239 28.1291141510
-36.0627098083 -18.9067077637 27.9356765747
-36.0850219727 -18.9151287079 27.7422409058
-36.1093978882 -18.9245548248 27.5493526459
-36.1361656189 -18.9351520538 27.3570957184
-36.1628570557 -18.9457130432 27.1648445129
-36.1848983765 -18.9540023804 26.9714126587
-36.1980285645 -18.9579372406 26.7756900787
-36.2004280090 -18.9566326141 26.5771846771
-36.1935310364 -18.9507865906 26.3762493134
-36.1814308167 -18.9423980713 26.1739273071
-36.1688117981 -18.9337558746 25.9714374542
-36.1590270996 -18.9264984131 25.7696609497
-36.1541023254 -18.9216117859 25.5691318512
-36.1551704407 -18.9196567535 25.3701648712
-36.1617355347 -18.9203834534 25.1726360321
-36.1716728210 -18.9227600098 24.9759979248
-36.1834526062 -18.9260349274 24.7798500061
-36.1978645325 -18.9305973053 24.5844039917
-36.2170181274 -18.9374752045 24.3902339935
-36.2419586182 -18.9471817017 24.1976261139
-36.2709312439 -18.9588565826 24.0061225891
-36.2993049622 -18.9702415466 23.8144855499
-36.3220977783 -18.9788990021 23.6213626862
-36.3375282288 -18.9839591980 23.4262619019
-36.3484230042 -18.9868049622 23.2299385071
-36.3600654602 -18.9900131226 23.0338153839
-36.3766975403 -18.9956607819 22.8390579224
-36.3998298645 -19.0044860840 22.6460895538
-36.4288253784 -19.0161743164 22.4547500610
-36.4619331360 -19.0298748016 22.2645664215
-36.4968719482 -19.0444679260 22.0749206543
-36.5317497253 -19.0590324402 21.8852920532
-36.5660133362 -19.0732975006 21.6955299377
-36.5998458862 -19.0873527527 21.5056781769
-36.6325073242 -19.1008358002 21.3155345917
-36.6621818542 -19.1128597260 21.1245880127
-36.6878547668 -19.1229286194 20.9325466156
-36.7108421326 -19.1316852570 20.7397708893
-36.7342948914 -19.1406669617 20.5471439362
-36.7611389160 -19.1513099670 20.3554935455
-36.7920608521 -19.1639442444 20.1650199890
-36.8249549866 -19.1775436401 19.9751358032
-36.8567504883 -19.1906070709 19.7849712372
-36.8861694336 -19.2025070190 19.5941581726
-36.9145431519 -19.2138996124 19.4030723572
-36.9436225891 -19.2256355286 19.2122154236
-36.9729995728 -19.2375164032 19.0214691162
-37.0001220703 -19.2482986450 18.8300991058
-37.0225334167 -19.2567729950 18.6373920441
-37.0396156311 -19.2626476288 18.4431610107
-37.0527381897 -19.2665824890 18.2477874756
-37.0646018982 -19.2699050903 18.0520534515
-37.0786361694 -19.2742900848 17.8569545746
-37.0978698730 -19.2812137604 17.6633796692
-37.1231613159 -19.2910995483 17.4715900421
-37.1521339417 -19.3027858734 17.2809047699
-37.1802444458 -19.3140525818 17.0899925232
-37.2034034729 -19.3228969574 16.8976421356
-37.2199249268 -19.3284950256 16.7033462524
-37.2307281494 -19.3312988281 16.5073623657
-37.2385025024 -19.3326225281 16.3104782104
-37.2468986511 -19.3342494965 16.1137752533
-37.2599411011 -19.3381500244 15.9184570313
-37.2811470032 -19.3460388184 15.7255859375
-37.3120803833 -19.3586864471 15.5356521606
-37.3511886597 -19.3753318787 15.3482055664
-37.3940811157 -19.3938274384 15.1619415283
-37.4356117249 -19.4116573334 14.9753112793
-37.4725608826 -19.4272480011 14.7873373032
-37.5051879883 -19.4407253265 14.5980882645
-37.5364265442 -19.4535255432 14.4084472656
-37.5693397522 -19.4671440125 14.2193470001
-37.6051979065 -19.4822006226 14.0311784744
-37.6438484192 -19.4986267090 13.8439035416
-37.6850891113 -19.5163192749 13.6574640274
-37.7286338806 -19.5351390839 13.4717769623
-37.7729263306 -19.5543251038 13.2863693237
-37.8148307800 -19.5723438263 13.1002702713
-37.8505554199 -19.5873413086 12.9122991562
-37.8771667480 -19.5978794098 12.7215290070
-37.8944168091 -19.6038398743 12.5278654099
-37.9058799744 -19.6069698334 12.3324041367
-37.9172096252 -19.6100368500 12.1369028091
-37.9322738647 -19.6149291992 11.9425735474
-37.9512062073 -19.6217136383 11.7494678497
-37.9718437195 -19.6293315887 11.5569105148
-37.9918212891 -19.6366271973 11.3641595840
-38.0090370178 -19.6425724030 11.1705465317
-38.0212593079 -19.6460762024 10.9753608704
-38.0264472961 -19.6461353302 10.7779369354
-38.0238265991 -19.6423778534 10.5780191422
-38.0152626038 -19.6357116699 10.3761825562
-38.0060653687 -19.6287345886 10.1741170883
-38.0040702820 -19.6252803802 9.9743328094
-38.0161437988 -19.6287097931 9.7790555954
-38.0440711975 -19.6398963928 9.5888910294
-38.0832710266 -19.6565971375 9.4023904800
-38.1255722046 -19.6748161316 9.2169370651
-38.1639251709 -19.6911048889 9.0302467346
-38.1956443787 -19.7041454315 8.8414382935
-38.2223739624 -19.7147483826 8.6510343552
-38.2474212646 -19.7245254517 8.4601039886
-38.2732276917 -19.7346763611 8.2694435120
-38.3012847900 -19.7459297180 8.0795431137
-38.3336372375 -19.7592830658 7.8910794258
-38.3730812073 -19.7761077881 7.7049827576
-38.4208602905 -19.7970123291 7.5216789246
-38.4740753174 -19.8205757141 7.3402266502
-38.5259895325 -19.8435039520 7.1584048271
-38.5696220398 -19.8623809814 6.9738903046
-38.6014671326 -19.8754901886 6.7854967117
-38.6223869324 -19.8832530975 6.5934872627
-38.6359596252 -19.8874206543 6.3990364075
-38.6464195251 -19.8900623322 6.2035450935
-38.6575126648 -19.8930168152 6.0082664490
-38.6723709106 -19.8978137970 5.8142571449
-38.6937522888 -19.9058017731 5.6224532127
-38.7238807678 -19.9180736542 5.4336214066
-38.7635803223 -19.9350280762 5.2480597496
-38.8113594055 -19.9559383392 5.0652818680
-38.8636131287 -19.9790401459 4.8840808868
-38.9162254333 -20.0023155212 4.7030601501
-38.9664001465 -20.0244026184 4.5212678909
-39.0131530762 -20.0448131561 4.3383612633
-39.0558853149 -20.0632553101 4.1541256905
-39.0928039551 -20.0788536072 3.9679381847
-39.1215324402 -20.0904426575 3.7789676189
-39.1414871216 -20.0977382660 3.5869948864
-39.1554260254 -20.1020889282 3.3929538727
-39.1684875488 -20.1060085297 3.1986131668
-39.1854286194 -20.1118278503 3.0056242943
-39.2079086304 -20.1203594208 2.8145716190
-39.2336997986 -20.1305122375 2.6246919632
-39.2586898804 -20.1402740479 2.4345536232
-39.2800788879 -20.1482696533 2.2431738377
-39.2982177734 -20.1546764374 2.0506694317
-39.3160285950 -20.1609230042 1.8580609560
-39.3369102478 -20.1686725616 1.6665443182
-39.3626632690 -20.1788101196 1.4767633677
-39.3929328918 -20.1911563873 1.2886006832
-39.4268875122 -20.2053070068 1.1017732620
-39.4656715393 -20.2218265533 0.9166957736
-39.5124778748 -20.2422714233 0.7345123887
-39.5693321228 -20.2676372528 0.5559645295
-39.6338310242 -20.2967491150 0.3802164495
-39.6995735168 -20.3264694214 0.2049895674
-39.7602500916 -20.3537120819 0.0280255470
-37.0814323425 -7.0084676743 80.5669860840
-37.0949668884 -7.0081238747 80.3706588745
-37.1162910461 -7.0088639259 80.1748123169
-37.1372261047 -7.0095496178 79.9789581299
-37.1524238586 -7.0094375610 79.7827529907
-37.1614418030 -7.0084652901 79.5861587524
-37.1678276062 -7.0071258545 79.3893890381
-37.1769256592 -7.0061645508 79.1927947998
-37.1933326721 -7.0062208176 78.9966812134
-37.2182693481 -7.0074648857 78.8011322021
-37.2482757568 -7.0094146729 78.6059417725
-37.2769126892 -7.0111742020 78.4106826782
-37.2986488342 -7.0119729042 78.2149734497
-37.3117141724 -7.0115642548 78.0186843872
-37.3179893494 -7.0102100372 77.8219299316
-37.3207931519 -7.0083723068 77.6249237061
-37.3225746155 -7.0063920021 77.4278411865
-37.3234519958 -7.0042853355 77.2306747437
-37.3211288452 -7.0017333031 77.0332717896
-37.3125076294 -6.9983034134 76.8353881836
-37.2963066101 -6.9938173294 76.6369323730
-37.2745399475 -6.9885554314 76.4380264282
-37.2513961792 -6.9831013680 76.2389755249
-37.2305755615 -6.9779701233 76.0400619507
-37.2136955261 -6.9733877182 75.8414077759
-37.2006340027 -6.9693374634 75.6430053711
-37.1906852722 -6.9657201767 75.4448089600
-37.1831970215 -6.9624457359 75.2467803955
-37.1775588989 -6.9594283104 75.0488739014
-37.1730918884 -6.9565744400 74.8510360718
-37.1692733765 -6.9538102150 74.6532287598
-37.1661605835 -6.9511451721 74.4554672241
-37.1646766663 -6.9487061501 74.2578125000
-37.1664314270 -6.9467182159 74.0604095459
-37.1732482910 -6.9454364777 73.8634033203
-37.1867294312 -6.9450831413 73.6669464111
-37.2080192566 -6.9458193779 73.4711456299
-37.2374954224 -6.9476966858 73.2760391235
-37.2741661072 -6.9505782127 73.0815658569
-37.3157768250 -6.9541478157 72.8875427246
-37.3599700928 -6.9580783844 72.6937866211
-37.4052009583 -6.9621543884 72.5001602173
-37.4497184753 -6.9661316872 72.3065109253
-37.4897689819 -6.9694857597 72.1125183105
-37.5196037292 -6.9714159966 71.9176559448
-37.5343360901 -6.9712395668 71.7214736938
-37.5335655212 -6.9689006805 71.5239105225
-37.5224380493 -6.9651160240 71.3253936768
-37.5086822510 -6.9609656334 71.1266174316
-37.4982872009 -6.9572825432 70.9281158447
-37.4934234619 -6.9543714523 70.7300949097
-37.4933700562 -6.9521317482 70.5325012207
-37.4963417053 -6.9503135681 70.3351745605
-37.5006599426 -6.9486827850 70.1379623413
-37.5051841736 -6.9470810890 69.9407577515
-37.5094642639 -6.9454450607 69.7435302734
-37.5138816833 -6.9438285828 69.5463027954
-37.5197792053 -6.9424185753 69.3492126465
-37.5292663574 -6.9415087700 69.1524658203
-37.5441398621 -6.9413514137 68.9562377930
-37.5642127991 -6.9419198036 68.7605285645
-37.5864830017 -6.9427952766 68.5650482178
-37.6066017151 -6.9433708191 68.3693695068
-37.6216812134 -6.9432420731 68.1732025146
-37.6317062378 -6.9424080849 67.9765243530
-37.6386985779 -6.9411506653 67.7795333862
-37.6451988220 -6.9398241043 67.5824890137
-37.6536445618 -6.9387693405 67.3856430054
-37.6664695740 -6.9383268356 67.1892471313
-37.6856918335 -6.9387769699 66.9935150146
-37.7115058899 -6.9401478767 66.7984848022
-37.7412719727 -6.9420714378 66.6038970947
-37.7704048157 -6.9439067841 66.4092559814
-37.7947387695 -6.9450716972 66.2141342163
-37.8120727539 -6.9452590942 66.0182723999
-37.8218994141 -6.9443974495 65.8216094971
-37.8243942261 -6.9425120354 65.6241531372
-37.8202018738 -6.9396920204 65.4259490967
-37.8110275269 -6.9361753464 65.2271804810
-37.8001289368 -6.9324178696 65.0281982422
-37.7920303345 -6.9290513992 64.8294982910
-37.7916069031 -6.9267568588 64.6316375732
-37.8027153015 -6.9260740280 64.4350509644
-37.8266487122 -6.9271836281 64.2399139404
-37.8614158630 -6.9298076630 64.0460281372
-37.9023246765 -6.9332900047 63.8528709412
-37.9425773621 -6.9366812706 63.6596794128
-37.9735183716 -6.9387717247 63.4654464722
-37.9865341187 -6.9383559227 63.2691574097
-37.9773330688 -6.9348349571 63.0702743530
-37.9490737915 -6.9286484718 62.8691291809
-37.9109840393 -6.9210872650 62.6667747498
-37.8738250732 -6.9136548042 62.4644660950
-37.8458900452 -6.9075121880 62.2631988525
-37.8316345215 -6.9032816887 62.0635223389
-37.8322639465 -6.9011330605 61.8656082153
-37.8468780518 -6.9009394646 61.6693763733
-37.8731040955 -6.9023699760 61.4745674133
-37.9076995850 -6.9049715996 61.2807998657
-37.9473037720 -6.9082741737 61.0876808167
-37.9886207581 -6.9118161201 60.8948097229
-38.0280876160 -6.9151005745 60.7017478943
-38.0618743896 -6.9175901413 60.5080108643
-38.0860671997 -6.9187383652 60.3130989075
-38.0969886780 -6.9180293083 60.1165275574
-38.0928802490 -6.9152178764 59.9180450439
-38.0759010315 -6.9106049538 59.7178993225
-38.0509147644 -6.9048714638 59.5166969299
-38.0223464966 -6.8986358643 59.3149833679
-37.9940032959 -6.8924312592 59.1132469177
-37.9706611633 -6.8869256973 58.9121170044
-37.9563903809 -6.8826899529 58.7121238708
-37.9509277344 -6.8796858788 58.5132598877
-37.9496612549 -6.8772702217 58.3149299622
-37.9476661682 -6.8747510910 58.1164855957
-37.9427566528 -6.8718247414 57.9176368713
-37.9351959229 -6.8685264587 57.7184104919
-37.9259796143 -6.8649959564 57.5189399719
-37.9163360596 -6.8614058495 57.3193855286
-37.9083404541 -6.8580455780 57.1200294495
-37.9050483704 -6.8553442955 56.9212875366
-37.9099006653 -6.8537831306 56.7236480713
-37.9258918762 -6.8537817001 56.5275344849
-37.9546127319 -6.8555631638 56.3331909180
-37.9956893921 -6.8590755463 56.1405868530
-38.0471115112 -6.8640370369 55.9494667053
-38.1055145264 -6.8699774742 55.7593765259
-38.1655731201 -6.8761496544 55.5695800781
-38.2201042175 -6.8815488815 55.3790626526
-38.2628173828 -6.8852930069 55.1869201660
-38.2913360596 -6.8870487213 54.9927902222
-38.3071823120 -6.8870296478 54.7968673706
-38.3132934570 -6.8856458664 54.5995407104
-38.3129196167 -6.8833541870 54.4012756348
-38.3114662170 -6.8809108734 54.2028350830
-38.3173675537 -6.8794980049 54.0054550171
-38.3378334045 -6.8801255226 53.8102035522
-38.3724021912 -6.8827304840 53.6170425415
-38.4125671387 -6.8861198425 53.4247398376
-38.4488372803 -6.8889632225 53.2318954468
-38.4771461487 -6.8906917572 53.0378952026
-38.4987983704 -6.8914871216 52.8429183960
-38.5167694092 -6.8917670250 52.6473999023
-38.5331268311 -6.8918199539 52.4516487122
-38.5485534668 -6.8917427063 52.2557640076
-38.5627937317 -6.8914999962 52.0597000122
-38.5749969482 -6.8909707069 51.8633308411
-38.5838012695 -6.8899655342 51.6664428711
-38.5875625610 -6.8882527351 51.4687728882
-38.5850448608 -6.8856592178 51.2701187134
-38.5762214661 -6.8821811676 51.0704650879
-38.5625343323 -6.8780212402 50.8700294495
-38.5464744568 -6.8735275269 50.6691894531
-38.5308799744 -6.8690991402 50.4683876038
-38.5183448792 -6.8650994301 50.2680358887
-38.5107841492 -6.8617968559 50.0684432983
-38.5092201233 -6.8593358994 49.8697853088
-38.5138435364 -6.8577423096 49.6721000671
-38.5242500305 -6.8569602966 49.4753379822
-38.5399246216 -6.8569173813 49.2794227600
-38.5606918335 -6.8575887680 49.0843391418
-38.5868072510 -6.8590111732 48.8901367188
-38.6183853149 -6.8612003326 48.6968460083
-38.6546936035 -6.8640532494 48.5043601990
-38.6942596436 -6.8673644066 48.3124389648
-38.7360534668 -6.8709878922 48.1209220886
-38.7800788879 -6.8749256134 47.9298171997
-38.8261337280 -6.8791484833 47.7390899658
-38.8718147278 -6.8833189011 47.5483436584
-38.9124603271 -6.8867835999 47.3568000793
-38.9436645508 -6.8889231682 47.1637039185
-38.9640731812 -6.8895473480 46.9688110352
-38.9758338928 -6.8889575005 46.7724609375
-38.9827232361 -6.8876833916 46.5752792358
-38.9880752563 -6.8861937523 46.3778343201
-38.9939727783 -6.8847799301 46.1804733276
-39.0014495850 -6.8835883141 45.9833793640
-39.0110855103 -6.8827004433 45.7866554260
-39.0234069824 -6.8821887970 45.5903930664
-39.0385551453 -6.8820748329 45.3946228027
-39.0553207397 -6.8821873665 45.1991424561
-39.0707740784 -6.8821163177 45.0034408569
-39.0816497803 -6.8814020157 44.8069381714
-39.0864639282 -6.8798365593 44.6093635559
-39.0861740112 -6.8775534630 44.4108772278
-39.0827369690 -6.8748283386 44.2118186951
-39.0769309998 -6.8717694283 44.0123138428
-39.0668220520 -6.8681063652 43.8120193481
-39.0475120544 -6.8631505966 43.6100425720
-39.0128936768 -6.8560423851 43.4052619934
-38.9598159790 -6.8463392258 43.1970825195
-38.8929939270 -6.8347034454 42.9863204956
-38.8261604309 -6.8230657578 42.7754592896
-38.7764091492 -6.8138275146 42.5676231384
-38.7551460266 -6.8085923195 42.3649406433
-38.7627372742 -6.8074135780 42.1675415039
-38.7899894714 -6.8089981079 41.9737701416
-38.8244857788 -6.8116011620 41.7813644409
-38.8580703735 -6.8140764236 41.5888214111
-38.8907203674 -6.8164210320 41.3961334229
-38.9282035828 -6.8194451332 41.2043762207
-38.9759025574 -6.8239059448 41.0145759583
-39.0337333679 -6.8297924995 40.8267364502
-39.0954437256 -6.8362250328 40.6396942139
-39.1518402100 -6.8419108391 40.4517021179
-39.1943740845 -6.8456478119 40.2611274719
-39.2166595459 -6.8465375900 40.0667190552
-39.2155952454 -6.8441424370 39.8678398132
-39.1932029724 -6.8387479782 39.6648330688
-39.1573143005 -6.8314538002 39.4591789246
-39.1193542480 -6.8238677979 39.2530632019
-39.0904655457 -6.8175573349 39.0486450195
-39.0778770447 -6.8135395050 38.8473625183
-39.0829391479 -6.8120050430 38.6495056152
-39.1019668579 -6.8124356270 38.4543876648
-39.1294746399 -6.8140592575 38.2609481812
-39.1612396240 -6.8162822723 38.0683746338
-39.1950378418 -6.8187913895 37.8762283325
-39.2299804688 -6.8214626312 37.6843414307
-39.2670707703 -6.8244361877 37.4929122925
-39.3105812073 -6.8283138275 37.3028030396
-39.3660507202 -6.8338747025 37.1151390076
-39.4336395264 -6.8411426544 36.9299774170
-39.5040664673 -6.8488111496 36.7454605103
-39.5638122559 -6.8549761772 36.5588531494
-39.6046524048 -6.8584809303 36.3684577942
-39.6274185181 -6.8594412804 36.1744117737
-39.6381111145 -6.8587017059 35.9779090881
-39.6425781250 -6.8570852280 35.7801284790
-39.6441230774 -6.8550572395 35.5817337036
-39.6435050964 -6.8527250290 35.3828811646
-39.6394195557 -6.8499040604 35.1832962036
-39.6289443970 -6.8461823463 34.9823570251
-39.6087799072 -6.8410968781 34.7793731689
-39.5777664185 -6.8344821930 34.5740814209
-39.5391998291 -6.8268027306 34.3671455383
-39.5005493164 -6.8191108704 34.1601295471
-39.4700965881 -6.8125734329 33.9547805786
-39.4529151917 -6.8079047203 33.7521896362
-39.4491043091 -6.8051195145 33.5524063110
-39.4551773071 -6.8037266731 33.3547096252
-39.4669036865 -6.8031306267 33.1582145691
-39.4816169739 -6.8029551506 32.9623641968
-39.4993782043 -6.8032093048 32.7671699524
-39.5232505798 -6.8043246269 32.5733070374
-39.5583229065 -6.8070187569 32.3818817139
-39.6090126038 -6.8119139671 32.1938743591
-39.6754951477 -6.8190360069 32.0093574524
-39.7517318726 -6.8275337219 31.8270435333
-39.8269424438 -6.8358879089 31.6445865631
-39.8898963928 -6.8425145149 31.4595203400
-39.9330863953 -6.8463563919 31.2701683044
-39.9542274475 -6.8470902443 31.0759887695
-39.9551506042 -6.8449730873 30.8773422241
-39.9403800964 -6.8406434059 30.6751976013
-39.9167366028 -6.8350625038 30.4710426331
-39.8928756714 -6.8294506073 30.2667961121
-39.8775520325 -6.8250412941 30.0644168854
-39.8768806458 -6.8226981163 29.8652954102
-39.8922920227 -6.8226237297 29.6697845459
-39.9209060669 -6.8244109154 29.4772644043
-39.9584350586 -6.8274559975 29.2867851257
-40.0020637512 -6.8313617706 29.0977268219
-40.0502624512 -6.8359127045 28.9097537994
-40.1002082825 -6.8407106400 28.7222251892
-40.1467056274 -6.8450222015 28.5339584351
-40.1845207214 -6.8481097221 28.3437404633
-40.2114601135 -6.8496632576 28.1510505676
-40.2287330627 -6.8498530388 27.9561462402
-40.2386856079 -6.8490095139 27.7595539093
-40.2426490784 -6.8473215103 27.5615673065
-40.2409515381 -6.8448343277 27.3622550964
-40.2348289490 -6.8417220116 27.1618900299
-40.2281455994 -6.8385310173 26.9613723755
-40.2270736694 -6.8361320496 26.7621498108
-40.2378273010 -6.8354010582 26.5656986237
-40.2638206482 -6.8368220329 26.3728485107
-40.3033409119 -6.8401522636 26.1832218170
-40.3492050171 -6.8443779945 25.9951400757
-40.3921356201 -6.8481907845 25.8064041138
-40.4259910583 -6.8507227898 25.6155414581
-40.4501419067 -6.8518848419 25.4223842621
-40.4675064087 -6.8520889282 25.2276134491
-40.4813575745 -6.8517971039 25.0320053101
-40.4939041138 -6.8513207436 24.8360862732
-40.5066452026 -6.8508715630 24.6402149200
-40.5209960938 -6.8506503105 24.4447383881
-40.5380134583 -6.8508052826 24.2499141693
-40.5570869446 -6.8512516022 24.0556011200
-40.5751457214 -6.8515539169 23.8610477448
-40.5880203247 -6.8511242867 23.6652336121
-40.5937156677 -6.8496809006 23.4676570892
-40.5949745178 -6.8476099968 23.2689781189
-40.5984153748 -6.8458471298 23.0708255768
-40.6104507446 -6.8452992439 22.8747940063
-40.6333694458 -6.8462886810 22.6814689636
-40.6647949219 -6.8484802246 22.4902801514
-40.6998786926 -6.8511891365 22.3000297546
-40.7335166931 -6.8536939621 22.1094474792
-40.7617721558 -6.8554387093 21.9175453186
-40.7831916809 -6.8562173843 21.7239418030
-40.7994613647 -6.8562684059 21.5290546417
-40.8145942688 -6.8561587334 21.3338871002
-40.8327789307 -6.8564805984 21.1394958496
-40.8560104370 -6.8575162888 20.9463996887
-40.8831253052 -6.8591003418 20.7543087006
-40.9110870361 -6.8608050346 20.5624561310
-40.9373092651 -6.8622636795 20.3701782227
-40.9607772827 -6.8633337021 20.1772136688
-40.9815711975 -6.8640251160 19.9835758209
-41.0000038147 -6.8643827438 19.7893409729
-41.0164337158 -6.8644580841 19.5945987701
-41.0315475464 -6.8643465042 19.3995208740
-41.0466232300 -6.8642301559 19.2044372559
-41.0631599426 -6.8643202782 19.0097427368
-41.0817718506 -6.8647041321 18.8155956268
-41.1013908386 -6.8652305603 18.6217231750
-41.1201057434 -6.8656287193 18.4276237488
-41.1369094849 -6.8657574654 18.2330322266
-41.1525154114 -6.8657159805 18.0381298065
-41.1684646606 -6.8657236099 17.8433265686
-41.1859016418 -6.8659420013 17.6489238739
-41.2053108215 -6.8664388657 17.4550533295
-41.2273864746 -6.8673138618 17.2619056702
-41.2540130615 -6.8688330650 17.0699863434
-41.2879219055 -6.8713822365 16.8800392151
-41.3304557800 -6.8751530647 16.6924381256
-41.3791275024 -6.8797922134 16.5065288544
-41.4278106689 -6.8844342232 16.3206710815
-41.4702644348 -6.8881950378 16.1331768036
-41.5039062500 -6.8907089233 15.9433364868
-41.5306243896 -6.8922429085 15.7516422272
-41.5548133850 -6.8934187889 15.5592803955
-41.5808448792 -6.8948564529 15.3674383163
-41.6113586426 -6.8969283104 15.1768426895
-41.6467781067 -6.8996958733 14.9876184464
-41.6860809326 -6.9030127525 14.7994928360
-41.7279090881 -6.9066877365 14.6121006012
-41.7710380554 -6.9105477333 14.4251060486
-41.8142433167 -6.9144191742 14.2381763458
-41.8559951782 -6.9180846214 14.0508832932
-41.8939628601 -6.9212150574 13.8625774384
-41.9250564575 -6.9233717918 13.6723909378
-41.9463844299 -6.9241456985 13.4794998169
-41.9562339783 -6.9232940674 13.2834072113
-41.9546508789 -6.9208230972 13.0841035843
-41.9441757202 -6.9170918465 12.8822813034
-41.9303894043 -6.9128913879 12.6794977188
-41.9207649231 -6.9092803001 12.4778585434
-41.9218063354 -6.9071798325 12.2792148590
-41.9362792969 -6.9069824219 12.0843725204
-41.9621009827 -6.9083933830 11.8927650452
-41.9933357239 -6.9105715752 11.7027225494
-42.0230827332 -6.9125394821 11.5122804642
-42.0467414856 -6.9136443138 11.3201169968
-42.0635681152 -6.9137816429 11.1260080338
-42.0759773254 -6.9132919312 10.9306344986
-42.0879020691 -6.9127345085 10.7351236343
-42.1036376953 -6.9127168655 10.5407161713
-42.1268501282 -6.9137592316 10.3484811783
-42.1593551636 -6.9161195755 10.1589622498
-42.2002830505 -6.9196739197 9.9719228745
-42.2465476990 -6.9239854813 9.7864789963
-42.2942123413 -6.9284963608 9.6014900208
-42.3397369385 -6.9327039719 9.4159221649
-42.3810882568 -6.9363198280 9.2291717529
-42.4182739258 -6.9393463135 9.0412368774
-42.4522285461 -6.9419145584 8.8523817062
-42.4828376770 -6.9440088272 8.6625671387
-42.5087051392 -6.9454307556 8.4713735580
-42.5289001465 -6.9460482597 8.2785139084
-42.5441703796 -6.9459671974 8.0842018127
-42.5563430786 -6.9454469681 7.8889713287
-42.5669937134 -6.9447112083 7.6932878494
-42.5769195557 -6.9438719749 7.4973864555
-42.5864143372 -6.9429721832 7.3013544083
-42.5958671570 -6.9420652390 7.1053071022
-42.6061973572 -6.9412841797 6.9095239639
-42.6189422607 -6.9408450127 6.7144680023
-42.6354713440 -6.9409432411 6.5205612183
-42.6556396484 -6.9415574074 6.3277649879
-42.6771469116 -6.9423623085 6.1353883743
-42.6970710754 -6.9429426193 5.9425435066
-42.7145309448 -6.9431729317 5.7489576340
-42.7319984436 -6.9434046745 5.5553822517
-42.7542076111 -6.9443097115 5.3632693291
-42.7857704163 -6.9465422630 5.1740455627
-42.8287925720 -6.9504022598 4.9883770943
-42.8814048767 -6.9556241035 4.8057103157
-42.9380683899 -6.9614224434 4.6243510246
-42.9916992188 -6.9667901993 4.4421100616
-43.0363998413 -6.9708909988 4.2571520805
-43.0692329407 -6.9733061790 4.0685439110
-43.0901718140 -6.9740338326 3.8762562275
-43.1009712219 -6.9733209610 3.6808123589
-43.1041908264 -6.9715318680 3.4829947948
-43.1029739380 -6.9691119194 3.2837743759
-43.1009864807 -6.9665827751 3.0842969418
-43.1021118164 -6.9644951820 2.8857824802
-43.1100387573 -6.9633741379 2.6894037724
-43.1279945374 -6.9636774063 2.4961936474
-43.1579704285 -6.9656887054 2.3068039417
-43.1990737915 -6.9692811966 2.1209740639
-43.2460594177 -6.9737100601 1.9370557070
-43.2903366089 -6.9777541161 1.7523192167
-43.3236312866 -6.9802384377 1.5641170740
-43.3415336609 -6.9805355072 1.3710131645
-43.3445053101 -6.9787116051 1.1731276512
-43.3371543884 -6.9754199982 0.9719118476
-43.3268508911 -6.9717082977 0.7697206736
-43.3215980530 -6.9687142372 0.5691327453
-43.3276367188 -6.9673252106 0.3721766174
-43.3483734131 -6.9680252075 0.1799799651
-37.9217758179 4.8780980110 80.7935638428
-37.8972015381 4.8759679794 80.5952835083
-37.8573608398 4.8711256981 80.3960113525
-37.8113822937 4.8651933670 80.1962966919
-37.7637138367 4.8589615822 79.9964065552
-37.7153320313 4.8526043892 79.7963943481
-37.6679077148 4.8464179039 79.5963745117
-37.6258125305 4.8411788940 79.3966217041
-37.5949058533 4.8379282951 79.1975326538
-37.5795822144 4.8374466896 78.9994201660
-37.5804138184 4.8398351669 78.8023529053
-37.5940322876 4.8444962502 78.6061248779
-37.6153259277 4.8505196571 78.4104309082
-37.6398773193 4.8571224213 78.2149734497
-37.6645545959 4.8637466431 78.0195388794
-37.6863784790 4.8698644638 77.8239288330
-37.7023582458 4.8749437332 77.6279144287
-37.7110519409 4.8787293434 77.4313964844
-37.7137260437 4.8814449310 77.2344436646
-37.7130737305 4.8835716248 77.0372390747
-37.7111358643 4.8854684830 76.8399276733
-37.7083320618 4.8872122765 76.6425399780
-37.7037734985 4.8886456490 76.4449996948
-37.6957015991 4.8894543648 76.2471847534
-37.6819000244 4.8892464638 76.0489044189
-37.6607208252 4.8877291679 75.8500442505
-37.6327323914 4.8850026131 75.6506118774
-37.6015968323 4.8817186356 75.4508895874
-37.5728683472 4.8788628578 75.2513046265
-37.5513992310 4.8772959709 75.0522384644
-37.5397911072 4.8774790764 74.8539199829
-37.5388183594 4.8795514107 74.6564178467
-37.5483894348 4.8834948540 74.4597549438
-37.5675811768 4.8891453743 74.2638702393
-37.5944099426 4.8961520195 74.0686187744
-37.6262855530 4.9040532112 73.8738098145
-37.6605834961 4.9123845100 73.6792221069
-37.6946067810 4.9206666946 73.4846496582
-37.7256660461 4.9284224510 73.2898559570
-37.7519721985 4.9353351593 73.0946807861
-37.7732963562 4.9413633347 72.8991012573
-37.7904739380 4.9466552734 72.7031784058
-37.8044319153 4.9513759613 72.5069808960
-37.8157196045 4.9556231499 72.3105621338
-37.8246116638 4.9594445229 72.1139297485
-37.8312721252 4.9628710747 71.9170989990
-37.8358840942 4.9659333229 71.7200775146
-37.8386878967 4.9686756134 71.5228881836
-37.8400764465 4.9711670876 71.3255615234
-37.8406448364 4.9735131264 71.1281433105
-37.8411750793 4.9758520126 70.9307174683
-37.8425712585 4.9783453941 70.7333526611
-37.8458404541 4.9811701775 70.5361557007
-37.8521080017 4.9845275879 70.3392257690
-37.8625640869 4.9886269569 70.1426925659
-37.8778533936 4.9935841560 69.9466171265
-37.8970298767 4.9992303848 69.7509231567
-37.9170379639 5.0050244331 69.5553207397
-37.9339065552 5.0102605820 69.3594207764
-37.9446182251 5.0144057274 69.1629333496
-37.9475288391 5.0171675682 68.9656753540
-37.9410514832 5.0182652473 68.7674789429
-37.9231452942 5.0173373222 68.5681228638
-37.8935050964 5.0143294334 68.3675537109
-37.8568954468 5.0100874901 68.1662368774
-37.8237342834 5.0064568520 67.9652023315
-37.8060722351 5.0055742264 67.7657012939
-37.8115081787 5.0087852478 67.5685348511
-37.8390617371 5.0159163475 67.3736572266
-37.8796768188 5.0253629684 67.1801528931
-37.9213600159 5.0349969864 66.9868087769
-37.9553108215 5.0432615280 66.7926864624
-37.9784507751 5.0496096611 66.5974426270
-37.9914855957 5.0541663170 66.4011459351
-37.9960899353 5.0572299957 66.2039413452
-37.9938316345 5.0590782166 66.0059890747
-37.9863319397 5.0599970818 65.8074569702
-37.9753532410 5.0603003502 65.6085205078
-37.9626731873 5.0603022575 65.4093704224
-37.9498825073 5.0602850914 65.2101821899
-37.9382858276 5.0604796410 65.0110931396
-37.9288597107 5.0610589981 64.8122177124
-37.9223785400 5.0621604919 64.6136474609
-37.9195671082 5.0639119148 64.4154739380
-37.9211578369 5.0664429665 64.2177810669
-37.9278831482 5.0698838234 64.0206680298
-37.9404754639 5.0743641853 63.8242225647
-37.9591903687 5.0799288750 63.6284866333
-37.9827194214 5.0863447189 63.4333229065
-38.0076599121 5.0930113792 63.2383384705
-38.0299530029 5.0992088318 63.0430641174
-38.0471992493 5.1045122147 62.8472061157
-38.0594139099 5.1089248657 62.6507644653
-38.0676231384 5.1126284599 62.4538421631
-38.0721740723 5.1156840324 62.2564811707
-38.0727233887 5.1180315018 62.0586280823
-38.0698661804 5.1197757721 61.8603515625
-38.0665168762 5.1214337349 61.6619987488
-38.0672645569 5.1238164902 61.4641265869
-38.0759773254 5.1276097298 61.2672271729
-38.0938072205 5.1330165863 61.0714569092
-38.1191596985 5.1397547722 60.8766288757
-38.1491661072 5.1473159790 60.6824035645
-38.1807823181 5.1551623344 60.4884071350
-38.2107048035 5.1627082825 60.2942237854
-38.2352905273 5.1693096161 60.0993881226
-38.2515449524 5.1744365692 59.9035034180
-38.2584457397 5.1779084206 59.7064285278
-38.2576980591 5.1800270081 59.5083656311
-38.2536926270 5.1815695763 59.3098640442
-38.2523193359 5.1835775375 59.1116867065
-38.2583694458 5.1868991852 58.9144630432
-38.2729949951 5.1917376518 58.7183685303
-38.2932014465 5.1975641251 58.5230140686
-38.3138198853 5.2034626007 58.3277244568
-38.3306007385 5.2086820602 58.1319389343
-38.3424224854 5.2130246162 57.9354972839
-38.3512229919 5.2168331146 57.7386474609
-38.3598060608 5.2206020355 57.5417709351
-38.3689689636 5.2244749069 57.3449668884
-38.3763008118 5.2280230522 57.1479148865
-38.3781585693 5.2306032181 56.9501037598
-38.3736763000 5.2320628166 56.7514114380
-38.3669548035 5.2331266403 56.5523872375
-38.3651199341 5.2350540161 56.3540229797
-38.3740806580 5.2388911247 56.1571540833
-38.3955955505 5.2449479103 55.9620437622
-38.4272689819 5.2528009415 55.7683830261
-38.4645385742 5.2616419792 55.5755424500
-38.5025215149 5.2706093788 55.3828392029
-38.5368690491 5.2789340019 55.1896514893
-38.5646209717 5.2860913277 54.9955482483
-38.5855598450 5.2920451164 54.8004798889
-38.6022529602 5.2972474098 54.6048126221
-38.6175231934 5.3021988869 54.4089469910
-38.6317749023 5.3069701195 54.2129402161
-38.6431236267 5.3112282753 54.0165100098
-38.6498641968 5.3146715164 53.8194007874
-38.6521072388 5.3173203468 53.6216201782
-38.6511611938 5.3194055557 53.4233551025
-38.6479530334 5.3210916519 53.2247390747
-38.6423263550 5.3223495483 53.0257453918
-38.6338577271 5.3231067657 52.8262977600
-38.6238174438 5.3235859871 52.6265907288
-38.6164093018 5.3245310783 52.4272575378
-38.6175804138 5.3269910812 52.2292137146
-38.6316528320 5.3317313194 52.0331344604
-38.6584739685 5.3387231827 51.8390197754
-38.6932220459 5.3471155167 51.6461524963
-38.7289543152 5.3556804657 51.4534721375
-38.7596893311 5.3633627892 51.2600440979
-38.7818222046 5.3695259094 51.0652923584
-38.7936592102 5.3738698959 50.8689422607
-38.7946548462 5.3762993813 50.6708831787
-38.7855796814 5.3769507408 50.4712181091
-38.7696647644 5.3763937950 50.2704391479
-38.7537994385 5.3758463860 50.0696334839
-38.7477569580 5.3770341873 49.8703727722
-38.7599067688 5.3814339638 49.6740150452
-38.7919197083 5.3893408775 49.4808731079
-38.8376007080 5.3996610641 49.2899780273
-38.8868179321 5.4106054306 49.0997009277
-38.9301643372 5.4205117226 48.9085159302
-38.9612808228 5.4282598495 48.7153625488
-38.9782180786 5.4335036278 48.5199012756
-38.9843101501 5.4368329048 48.3226547241
-38.9866981506 5.4395084381 48.1247863770
-38.9925727844 5.4427995682 47.9274902344
-39.0061073303 5.4474430084 47.7314720154
-39.0278205872 5.4535298347 47.5368309021
-39.0556488037 5.4606952667 47.3432350159
-39.0863494873 5.4683680534 47.1501464844
-39.1162910461 5.4759058952 46.9569587708
-39.1413459778 5.4825820923 46.7629623413
-39.1571044922 5.4876165390 46.5673904419
-39.1596565247 5.4903211594 46.3695564270
-39.1461982727 5.4902009964 46.1689529419
-39.1158523560 5.4871010780 45.9653930664
-39.0718536377 5.4815936089 45.7594070435
-39.0228958130 5.4752116203 45.5524902344
-38.9799270630 5.4698872566 45.3465423584
-38.9501380920 5.4668884277 45.1428413391
-38.9341049194 5.4663171768 44.9415168762
-38.9281921387 5.4675312042 44.7419509888
-38.9284782410 5.4698390961 44.5434684753
-38.9328193665 5.4728622437 44.3456916809
-38.9410896301 5.4765782356 44.1486091614
-38.9547424316 5.4812440872 43.9524955750
-38.9755058289 5.4871630669 43.7576637268
-39.0028572083 5.4942440987 43.5640373230
-39.0323753357 5.5017070770 43.3708267212
-39.0580291748 5.5084881783 43.1769371033
-39.0774421692 5.5141692162 42.9819297791
-39.0944252014 5.5194206238 42.7864837646
-39.1155204773 5.5253973007 42.5918045044
-39.1446914673 5.5327982903 42.3986320496
-39.1816062927 5.5415639877 42.2069206238
-39.2233238220 5.5511751175 42.0161323547
-39.2657356262 5.5609087944 41.8255157471
-39.3037681580 5.5698699951 41.6341247559
-39.3322601318 5.5771493912 41.4409713745
-39.3481369019 5.5822048187 41.2454643250
-39.3517303467 5.5850954056 41.0476417542
-39.3458595276 5.5863170624 40.8480110168
-39.3336448669 5.5864214897 40.6471519470
-39.3169059753 5.5857291222 40.4454002380
-39.2960166931 5.5843057632 40.2428169250
-39.2710990906 5.5821723938 40.0394210815
-39.2436599731 5.5795955658 39.8354911804
-39.2180366516 5.5773396492 39.6318626404
-39.2017898560 5.5767359734 39.4300117493
-39.2034606934 5.5792894363 39.2316207886
-39.2275161743 5.5857872963 39.0376014709
-39.2706794739 5.5956506729 38.8473472595
-39.3237953186 5.6072673798 38.6590957642
-39.3772735596 5.6189465523 38.4709701538
-39.4246673584 5.6295542717 38.2816963196
-39.4627876282 5.6385278702 38.0906219482
-39.4904632568 5.6456604004 37.8975028992
-39.5080413818 5.6510148048 37.7023849487
-39.5177650452 5.6549859047 37.5056991577
-39.5238380432 5.6583142281 37.3082809448
-39.5312652588 5.6618804932 37.1111259460
-39.5434989929 5.6662936211 36.9149436951
-39.5608558655 5.6716084480 36.7198066711
-39.5811653137 5.6774435043 36.5252799988
-39.6017761230 5.6833319664 36.3308296204
-39.6208839417 5.6889543533 36.1360816956
-39.6379661560 5.6942214966 35.9409294128
-39.6541633606 5.6993312836 35.7456016541
-39.6714668274 5.7046365738 35.5505104065
-39.6906738281 5.7102766037 35.3558273315
-39.7107162476 5.7160639763 35.1613273621
-39.7306175232 5.7218255997 34.9668121338
-39.7504615784 5.7275776863 34.7722969055
-39.7698822021 5.7332544327 34.5777015686
-39.7886199951 5.7388110161 34.3829765320
-39.8101158142 5.7448539734 34.1888504028
-39.8406944275 5.7524938583 33.9966621399
-39.8820838928 5.7620363235 33.8068046570
-39.9267959595 5.7721633911 33.6176986694
-39.9627342224 5.7807459831 33.4267539978
-39.9810829163 5.7862334251 33.2320671082
-39.9792480469 5.7881684303 33.0330352783
-39.9594955444 5.7869515419 32.8301124573
-39.9281425476 5.7836937904 32.6246337891
-39.8954811096 5.7802071571 32.4188194275
-39.8732681274 5.7785592079 32.2152290344
-39.8698196411 5.7802119255 32.0157012939
-39.8867721558 5.7854542732 31.8206348419
-39.9200325012 5.7935652733 31.6291675568
-39.9632987976 5.8034353256 31.4399375916
-40.0109367371 5.8140745163 31.2517185211
-40.0588836670 5.8247671127 31.0636177063
-40.1043968201 5.8350310326 30.8750209808
-40.1455535889 5.8445281982 30.6854991913
-40.1805763245 5.8529467583 30.4946422577
-40.2076339722 5.8599638939 30.3020286560
-40.2252845764 5.8653264046 30.1073150635
-40.2327194214 5.8688926697 29.9103069305
-40.2295303345 5.8705911636 29.7108860016
-40.2160034180 5.8704719543 29.5090980530
-40.1941795349 5.8688941002 29.3053894043
-40.1681938171 5.8665862083 29.1006889343
-40.1433181763 5.8644723892 28.8961963654
-40.1248550415 5.8634872437 28.6931304932
-40.1177482605 5.8644990921 28.4926471710
-40.1257019043 5.8681578636 28.2956199646
-40.1493110657 5.8745689392 28.1022186279
-40.1851196289 5.8831238747 27.9116687775
-40.2272796631 5.8927950859 27.7226333618
-40.2702331543 5.9026045799 27.5338230133
-40.3092918396 5.9117293358 27.3441429138
-40.3396644592 5.9193272591 27.1524581909
-40.3571166992 5.9246544838 26.9577560425
-40.3608703613 5.9275741577 26.7598266602
-40.3551254272 5.9288258553 26.5596389771
-40.3467750549 5.9296188354 26.3588123322
-40.3414230347 5.9309396744 26.1586761475
-40.3418121338 5.9332690239 25.9598903656
-40.3494300842 5.9368686676 25.7628231049
-40.3665237427 5.9421329498 25.5680255890
-40.3953971863 5.9494667053 25.3760776520
-40.4352684021 5.9587316513 25.1868057251
-40.4802894592 5.9689006805 24.9988193512
-40.5218811035 5.9784674644 24.8100471497
-40.5533142090 5.9862489700 24.6188411713
-40.5717964172 5.9917559624 24.4245033264
-40.5772399902 5.9949727058 24.2269859314
-40.5713081360 5.9961919785 24.0266723633
-40.5585098267 5.9962053299 23.8246498108
-40.5464401245 5.9963474274 23.6227760315
-40.5422019958 5.9978647232 23.4228096008
-40.5477256775 6.0010962486 23.2252445221
-40.5595970154 6.0054426193 23.0292530060
-40.5738563538 6.0102076530 22.8338546753
-40.5903472900 6.0153656006 22.6390228271
-40.6128807068 6.0215830803 22.4457111359
-40.6458129883 6.0296263695 22.2550258636
-40.6899490356 6.0396361351 22.0671920776
-40.7407455444 6.0508141518 21.8810825348
-40.7906799316 6.0618410110 21.6948089600
-40.8337364197 6.0716595650 21.5068397522
-40.8676872253 6.0798792839 21.3165969849
-40.8930282593 6.0865874290 21.1241912842
-40.9110870361 6.0920186043 20.9299430847
-40.9233131409 6.0964245796 20.7342071533
-40.9315681458 6.1001343727 20.5374565125
-40.9386558533 6.1036391258 20.3404006958
-40.9482421875 6.1075825691 20.1439876556
-40.9636077881 6.1125397682 19.9490699768
-40.9856300354 6.1186652184 19.7558860779
-41.0117835999 6.1255154610 19.5637931824
-41.0376663208 6.1323175430 19.3716487885
-41.0598945618 6.1384782791 19.1785697937
-41.0776824951 6.1438598633 18.9843425751
-41.0920524597 6.1486420631 18.7892265320
-41.1042976379 6.1530513763 18.5935573578
-41.1153335571 6.1572484970 18.3975696564
-41.1259536743 6.1613726616 18.2014751434
-41.1371841431 6.1656041145 18.0055408478
-41.1504211426 6.1701869965 17.8101425171
-41.1674423218 6.1754331589 17.6157569885
-41.1901054382 6.1816697121 17.4228897095
-41.2193717957 6.1890635490 17.2318077087
-41.2540779114 6.1974101067 17.0422096252
-41.2906990051 6.2060933113 16.8531608582
-41.3246994019 6.2143163681 16.6634387970
-41.3525924683 6.2214679718 16.4720954895
-41.3733825684 6.2273745537 16.2788486481
-41.3885154724 6.2322888374 16.0840759277
-41.4009284973 6.2367258072 15.8885698318
-41.4143981934 6.2413482666 15.6933546066
-41.4332504272 6.2469143867 15.4996185303
-41.4613609314 6.2541031837 15.3084335327
-41.5002632141 6.2631831169 15.1202402115
-41.5481300354 6.2738342285 14.9345569611
-41.6009025574 6.2853441238 14.7502784729
-41.6542320251 6.2969512939 14.5662088394
-41.7046623230 6.3080496788 14.3813905716
-41.7502593994 6.3183002472 14.1952781677
-41.7906951904 6.3276462555 14.0077724457
-41.8257522583 6.3360486031 13.8188018799
-41.8530120850 6.3430848122 13.6276779175
-41.8679962158 6.3479700089 13.4331283569
-41.8677139282 6.3501806259 13.2342863083
-41.8544197083 6.3501110077 13.0317564011
-41.8353843689 6.3490371704 12.8275747299
-41.8190307617 6.3484320641 12.6241130829
-41.8116416931 6.3493990898 12.4231662750
-41.8172416687 6.3526406288 12.2258949280
-41.8380393982 6.3585448265 12.0329570770
-41.8738899231 6.3670854568 11.8443393707
-41.9225158691 6.3778629303 11.6594190598
-41.9808921814 6.3903474808 11.4773502350
-42.0451545715 6.4038624763 11.2970409393
-42.1085395813 6.4172220230 11.1165466309
-42.1607093811 6.4286184311 10.9328784943
-42.1910362244 6.4361882210 10.7429285049
-42.1937980652 6.4389314651 10.5449924469
-42.1718826294 6.4373540878 10.3398580551
-42.1370468140 6.4335145950 10.1309089661
-42.1063003540 6.4303922653 9.9230995178
-42.0951614380 6.4307022095 9.7209844589
-42.1105880737 6.4356637001 9.5266523361
-42.1480216980 6.4444780350 9.3388080597
-42.1947402954 6.4549169540 9.1537418365
-42.2373619080 6.4646382332 8.9675092697
-42.2680778503 6.4722752571 8.7777900696
-42.2859992981 6.4776725769 8.5842943192
-42.2945861816 6.4814357758 8.3880290985
-42.2985000610 6.4843811989 8.1903667450
-42.3018608093 6.4872303009 7.9925312996
-42.3079376221 6.4905548096 7.7955012321
-42.3193626404 6.4948148727 7.6000714302
-42.3379325867 6.5003252029 7.4067950249
-42.3637008667 6.5070948601 7.2157015800
-42.3945159912 6.5147471428 7.0261540413
-42.4273605347 6.5227546692 6.8372483253
-42.4606208801 6.5308341980 6.6484980583
-42.4946556091 6.5390496254 6.4600148201
-42.5299835205 6.5474901199 6.2719554901
-42.5654029846 6.5559468269 6.0839576721
-42.5985870361 6.5640120506 5.8953084946
-42.6282463074 6.5714597702 5.7056055069
-42.6548271179 6.5783696175 5.5149827003
-42.6788291931 6.5848278999 5.3235859871
-42.6990852356 6.5906305313 5.1310505867
-42.7134246826 6.5953984261 4.9366965294
-42.7207260132 6.5989351273 4.7401638031
-42.7216300964 6.6013536453 4.5416402817
-42.7174606323 6.6028847694 4.3415236473
-42.7094535828 6.6037454605 4.1401906013
-42.6997032166 6.6043014526 3.9382896423
-42.6923789978 6.6052823067 3.7371222973
-42.6928329468 6.6076226234 3.5383749008
-42.7047882080 6.6119737625 3.3432345390
-42.7282676697 6.6183400154 3.1517314911
-42.7604751587 6.6262316704 2.9630043507
-42.7988510132 6.6352019310 2.7762598991
-42.8428916931 6.6451606750 2.5913481712
-42.8922767639 6.6560540199 2.4081814289
-42.9438667297 6.6673316956 2.2257673740
-42.9920616150 6.6780157089 2.0423233509
-43.0325088501 6.6873450279 1.8564506769
-43.0645141602 6.6951985359 1.6679103374
-43.0899314880 6.7019004822 1.4772827625
-43.1108627319 6.7078185081 1.2852308750
-43.1285972595 6.7131776810 1.0921617746
-43.1439628601 6.7181224823 0.8983365893
-43.1582145691 6.7228727341 0.7041577101
