26.8552474976 -46.7368850708 15.8026638031
26.8518142700 -46.7388763428 15.6104249954
26.8454265594 -46.7362670898 15.4166574478
26.8347988129 -46.7270545959 15.2206888199
26.8199462891 -46.7112693787 15.0225124359
26.8026905060 -46.6917419434 14.8230552673
26.7861652374 -46.6733512878 14.6239337921
26.7734375000 -46.6608772278 14.4267454147
26.7661838531 -46.6569252014 14.2323741913
26.7641277313 -46.6610679626 14.0406980515
26.7653751373 -46.6703491211 13.8507423401
26.7673797607 -46.6808128357 13.6611843109
26.7680358887 -46.6891784668 13.4709196091
26.7661457062 -46.6935768127 13.2793140411
26.7611331940 -46.6931190491 13.0860528946
26.7525920868 -46.6871643066 12.8909091949
26.7402973175 -46.6753730774 12.6937541962
26.7246742249 -46.6584014893 12.4947986603
26.7070751190 -46.6383552551 12.2947521210
26.6893692017 -46.6181411743 12.0946044922
26.6730651855 -46.6001167297 11.8951625824
26.6587867737 -46.5852432251 11.6967658997
26.6463718414 -46.5732727051 11.4993352890
26.6352062225 -46.5632438660 11.3025445938
26.6244640350 -46.5538787842 11.1059551239
26.6135292053 -46.5442123413 10.9092321396
26.6026153564 -46.5345802307 10.7124938965
26.5930328369 -46.5270195007 10.5164489746
26.5864448547 -46.5241241455 10.3220109940
26.5837497711 -46.5272789001 10.1296768188
26.5848464966 -46.5363388062 9.9394063950
26.5895004272 -46.5509338379 9.7510862350
26.5981178284 -46.5716934204 9.5649490356
26.6115875244 -46.5999984741 9.3814992905
26.6305007935 -46.6367721558 9.2010803223
26.6543941498 -46.6812934875 9.0234546661
26.6814346313 -46.7307090759 8.8476247787
26.7086677551 -46.7804183960 8.6719617844
26.7328548431 -46.8253898621 8.4946670532
26.7515544891 -46.8618240356 8.3143701553
26.7637271881 -46.8881034851 8.1304683685
26.7693824768 -46.9042434692 7.9429473877
26.7687988281 -46.9106826782 7.7519388199
26.7622222900 -46.9077987671 7.5575594902
26.7503013611 -46.8966064453 7.3601527214
26.7345447540 -46.8794479370 7.1605510712
26.7170505524 -46.8595886230 6.9599280357
26.6996631622 -46.8398971558 6.7593221664
26.6833305359 -46.8218460083 6.5592713356
26.6680812836 -46.8054847717 6.3597965240
26.6534233093 -46.7900428772 6.1606197357
26.6387538910 -46.7745857239 5.9614009857
26.6235313416 -46.7582664490 5.7618279457
26.6072463989 -46.7402992249 5.5616073608
26.5896930695 -46.7203636169 5.3606166840
26.5715942383 -46.6995773315 5.1592683792
26.5549068451 -46.6809883118 4.9586896896
26.5423145294 -46.6687698364 4.7604374886
26.5363903046 -46.6669158936 4.5660176277
26.5389633179 -46.6782722473 4.3765149117
26.5506687164 -46.7038269043 4.1923279762
26.5707817078 -46.7424468994 4.0130681992
26.5975837708 -46.7914657593 3.8377606869
26.6290016174 -46.8476562500 3.6652152538
26.6629829407 -46.9078292847 3.4942443371
26.6975784302 -46.9689521790 3.3237106800
26.7310104370 -47.0282630920 3.1525721550
26.7616481781 -47.0832290649 2.9798593521
26.7876052856 -47.1309204102 2.8044497967
26.8064498901 -47.1675529480 2.6248855591
26.8158283234 -47.1894760132 2.4397442341
26.8150157928 -47.1955566406 2.2485616207
26.8061981201 -47.1892013550 2.0526053905
26.7943305969 -47.1781082153 1.8548052311
26.7854557037 -47.1716651917 1.6587644815
26.7844352722 -47.1774253845 1.4674079418
26.7933635712 -47.1986465454 1.2820211649
26.8115291595 -47.2342147827 1.1022117138
26.8367366791 -47.2807312012 0.9266885519
26.8668899536 -47.3349227905 0.7542089820
26.9007015228 -47.3947982788 0.5840119720
26.9372730255 -47.4589576721 0.4155661464
26.9752616882 -47.5253143311 0.2480635047
27.0128135681 -47.5909881592 0.0803825334
54.2732086182 0.6035462022 62.6411399841
54.3018875122 0.6099189520 62.4540977478
54.3531913757 0.6172532439 62.2694778442
54.4081878662 0.6247432232 62.0853080750
54.4545745850 0.6318657994 61.9002647400
54.4887580872 0.6384687424 61.7139472961
54.5118103027 0.6445984244 61.5264549255
54.5252609253 0.6503199339 61.3379249573
54.5299186707 0.6556683183 61.1484375000
54.5272254944 0.6607052088 60.9581336975
54.5206031799 0.6655758619 60.7673759460
54.5151405334 0.6704961061 60.5767288208
54.5161170959 0.6756896377 60.3867874146
54.5275650024 0.6813269258 60.1980171204
54.5512695313 0.6874828339 60.0106391907
54.5866851807 0.6941339970 59.8246116638
54.6322174072 0.7012121081 59.6397781372
54.6867980957 0.7086716890 59.4560317993
54.7498550415 0.7164878249 59.2733192444
54.8196678162 0.7245878577 59.0914573669
54.8922424316 0.7328026295 58.9099922180
54.9617652893 0.7408862710 58.7282447815
55.0219497681 0.7485739589 58.5454635620
55.0675849915 0.7556463480 58.3610191345
55.0960807800 0.7619948387 58.1745681763
55.1087493896 0.7676755190 57.9862365723
55.1108512878 0.7729108930 57.7966384888
55.1099815369 0.7780212760 57.6066703796
55.1137351990 0.7833266258 57.4172515869
55.1281967163 0.7890830040 57.2291412354
55.1575202942 0.7954642773 57.0428619385
55.2035827637 0.8025488257 56.8586769104
55.2652435303 0.8102879524 56.6764755249
55.3377456665 0.8184809089 56.4956893921
55.4130973816 0.8267914653 56.3153381348
55.4817848206 0.8348199725 56.1342239380
55.5351791382 0.8422048688 55.9512481689
55.5674896240 0.8487036824 55.7656402588
55.5766601563 0.8542311192 55.5770988464
55.5647964478 0.8588769436 55.3858566284
55.5381698608 0.8629048467 55.1926841736
55.5056838989 0.8666884303 54.9987068176
55.4757347107 0.8705796599 54.8050117493
55.4535751343 0.8747981191 54.6122856140
55.4411125183 0.8794233203 54.4207992554
55.4385337830 0.8844627142 54.2305908203
55.4454002380 0.8898972869 54.0416183472
55.4603462219 0.8956697583 53.8537254333
55.4806213379 0.9016644359 53.6665496826
55.5028038025 0.9077385664 53.4796409607
55.5244522095 0.9137899876 53.2926788330
55.5451469421 0.9198012352 53.1056022644
55.5661926270 0.9258266687 52.9185867310
55.5893325806 0.9319390655 52.7318725586
55.6153869629 0.9381725192 52.5455741882
55.6437530518 0.9445015788 52.3596153259
55.6734580994 0.9508859515 52.1738662720
55.7052879333 0.9573581219 51.9884376526
55.7428779602 0.9640691876 51.8038406372
55.7912025452 0.9712258577 51.6207847595
55.8531074524 0.9789457917 51.4396972656
55.9263420105 0.9871351123 51.2602729797
56.0031433105 0.9954703450 51.0814361572
56.0726547241 1.0035007000 50.9016380310
56.1249427795 1.0108140707 50.7194442749
56.1543235779 1.0171755552 50.5339965820
56.1602439880 1.0225630999 50.3451766968
56.1462020874 1.0271229744 50.1534538269
56.1184005737 1.0311133862 49.9596900940
56.0845680237 1.0348552465 49.7650032043
56.0522308350 1.0386602879 49.5704803467
56.0267181396 1.0427494049 49.3769187927
56.0104064941 1.0472202301 49.1846771240
56.0034141541 1.0520774126 48.9937934875
56.0046424866 1.0572751760 48.8041191101
56.0120658875 1.0627291203 48.6153678894
56.0222854614 1.0682989359 48.4270324707
56.0304985046 1.0737855434 48.2383956909
56.0317955017 1.0789868832 48.0487060547
56.0235252380 1.0837936401 47.8575477600
56.0068016052 1.0882520676 47.6650733948
55.9859123230 1.0925397873 47.4719276428
55.9665107727 1.0968897343 47.2789726257
55.9542274475 1.1015337706 47.0870857239
55.9540977478 1.1066793203 46.8970680237
55.9700050354 1.1124852896 46.7095413208
56.0037269592 1.1190242767 46.5248146057
56.0541877747 1.1262509823 46.3427543640
56.1173286438 1.1339977980 46.1627464294
56.1865653992 1.1419934034 45.9837684631
56.2537918091 1.1499044895 45.8045463562
56.3114051819 1.1574188471 45.6238555908
56.3545379639 1.1643370390 45.4408988953
56.3817291260 1.1705999374 45.2554168701
56.3940048218 1.1762504578 45.0675468445
56.3943214417 1.1814104319 44.8777389526
56.3880310059 1.1862998009 44.6868438721
56.3825378418 1.1912224293 44.4960594177
56.3847656250 1.1964617968 44.3065261841
56.3980979919 1.2021560669 44.1188087463
56.4213523865 1.2082561255 43.9327392578
56.4501876831 1.2145839930 43.7476119995
56.4792556763 1.2209209204 43.5625457764
56.5039939880 1.2270801067 43.3767776489
56.5217056274 1.2329517603 43.1898536682
56.5317611694 1.2385103703 43.0016517639
56.5349464417 1.2437886000 42.8122863770
56.5326538086 1.2488434315 42.6219902039
56.5264892578 1.2537406683 42.4310188293
56.5182113647 1.2585521936 42.2396659851
56.5097007751 1.2633548975 42.0482521057
56.5027694702 1.2682224512 41.8570899963
56.4989700317 1.2732180357 41.6664505005
56.4995193481 1.2783913612 41.4765434265
56.5054130554 1.2837821245 41.2875556946
56.5175628662 1.2894277573 41.0996551514
56.5368537903 1.2953636646 40.9130058289
56.5636711121 1.3016049862 40.7276916504
56.5969848633 1.3081097603 40.5435409546
56.6337699890 1.3147548437 40.3600349426
56.6695594788 1.3213583231 40.1763839722
56.6997299194 1.3277332783 39.9917678833
56.7210235596 1.3337472677 39.8055877686
56.7330551147 1.3393853903 39.6177635193
56.7393531799 1.3447910547 39.4289131165
56.7465171814 1.3502317667 39.2402153015
56.7612113953 1.3559775352 39.0528755188
56.7870216370 1.3621733189 38.8675613403
56.8232498169 1.3687899113 38.6841659546
56.8658409119 1.3756630421 38.5019683838
56.9095535278 1.3825805187 38.3200149536
56.9503593445 1.3893793821 38.1375656128
56.9872093201 1.3960173130 37.9544258118
57.0222320557 1.4025804996 37.7709808350
57.0594139099 1.4092302322 37.5879707336
57.1028366089 1.4161306620 37.4061546326
57.1553840637 1.4233981371 37.2260856628
57.2183609009 1.4310845137 37.0480308533
57.2915840149 1.4391822815 36.8719635010
57.3731346130 1.4476133585 36.6975517273
57.4586715698 1.4562023878 36.5239791870
57.5416107178 1.4646846056 36.3500061035
57.6150321960 1.4727814198 36.1743087769
57.6741752625 1.4803017378 35.9959564209
57.7177238464 1.4871937037 35.8146743774
57.7474098206 1.4935271740 35.6307640076
57.7667198181 1.4994432926 35.4448738098
57.7798500061 1.5051109791 35.2577972412
57.7912025452 1.5107071400 35.0703811646
57.8052291870 1.5164107084 34.8834877014
57.8261680603 1.5223910809 34.6979522705
57.8571128845 1.5287723541 34.5143966675
57.8985977173 1.5355752707 34.3329353333
57.9477729797 1.5426850319 34.1530342102
57.9993019104 1.5498877764 33.9736480713
58.0471878052 1.5569432974 33.7935867310
58.0860481262 1.5636365414 33.6117744446
58.1121788025 1.5698198080 33.4274559021
58.1251792908 1.5754776001 33.2405281067
58.1292037964 1.5807768106 33.0517997742
58.1321487427 1.5860327482 32.8628463745
58.1431884766 1.5916122198 32.6755218506
58.1704978943 1.5978410244 32.4915008545
58.2197570801 1.6049447060 32.3119659424
58.2929229736 1.6130002737 32.1373558044
58.3872604370 1.6218976974 31.9671554565
58.4953117371 1.6313387156 31.7998733521
58.6066513062 1.6409074068 31.6333866119
58.7113456726 1.6502082348 31.4656543732
58.8033752441 1.6590019464 31.2954139709
58.8811874390 1.6672273874 31.1223201752
58.9453811646 1.6749092340 30.9464759827
58.9966201782 1.6820743084 30.7679901123
59.0359039307 1.6887631416 30.5870532990
59.0657539368 1.6950762272 30.4041690826
59.0898551941 1.7011606693 30.2200984955
59.1114349365 1.7071443796 30.0355129242
59.1322441101 1.7130973339 29.8507804871
59.1533203125 1.7190604210 29.6661186218
59.1765022278 1.7251064777 29.4819183350
59.2048683167 1.7313574553 29.2988433838
59.2409400940 1.7379130125 29.1174430847
59.2839546204 1.7447422743 28.9375686646
59.3289718628 1.7516498566 28.7581653595
59.3691749573 1.7583657503 28.5777645111
59.3992462158 1.7646801472 28.3952064514
59.4171371460 1.7705127001 28.2100257874
59.4236869812 1.7758969069 28.0223827362
59.4214439392 1.7809342146 27.8328151703
59.4139976501 1.7857664824 27.6420917511
59.4059333801 1.7905750275 27.4512138367
59.4029579163 1.7955845594 27.2614345551
59.4114112854 1.8010451794 27.0741672516
59.4369392395 1.8071783781 26.8906841278
59.4827041626 1.8141080141 26.7117156982
59.5484123230 1.8218214512 26.5372371674
59.6303672791 1.8301724195 26.3664569855
59.7218322754 1.8388950825 26.1978969574
59.8136329651 1.8476281166 26.0295104980
59.8962669373 1.8559980392 25.8591594696
59.9635086060 1.8637611866 25.6854228973
60.0148963928 1.8708997965 25.5081634521
60.0547332764 1.8775836229 25.3283348083
60.0886726379 1.8840352297 25.1471977234
60.1206550598 1.8904091120 24.9656448364
60.1518249512 1.8967504501 24.7839336395
60.1812667847 1.9030233622 24.6018524170
60.2074012756 1.9091659784 24.4190349579
60.2290840149 1.9151338339 24.2352085114
60.2459259033 1.9209119081 24.0502796173
60.2580947876 1.9265069962 23.8642768860
60.2659530640 1.9319332838 23.6772727966
60.2695007324 1.9371913671 23.4892635345
60.2681465149 1.9422578812 23.3000984192
60.2618141174 1.9471304417 23.1097564697
60.2530174255 1.9519073963 22.9188156128
60.2472038269 1.9568011761 22.7285556793
60.2501144409 1.9620358944 22.5403366089
60.2650108337 1.9677379131 22.3549499512
60.2932014465 1.9739578962 22.1727256775
60.3369598389 1.9807835817 21.9942321777
60.4002838135 1.9883700609 21.8204479218
60.4859428406 1.9968239069 21.6520729065
60.5919761658 2.0060677528 21.4886798859
60.7111740112 2.0158205032 21.3285694122
60.8336105347 2.0256953239 21.1693744659
60.9499626160 2.0353302956 21.0088462830
61.0534095764 2.0444602966 20.8453197479
61.1391181946 2.0528986454 20.6776008606
61.2029075623 2.0604839325 20.5046367645
61.2418365479 2.0671031475 20.3256702423
61.2566299438 2.0727856159 20.1408329010
61.2526702881 2.0777411461 19.9514007568
61.2381172180 2.0822868347 19.7593460083
61.2210998535 2.0867378712 19.5666561127
61.2077980042 2.0913336277 19.3748512268
61.2015953064 2.0962047577 19.1847801208
61.2032012939 2.1013784409 18.9966278076
61.2115364075 2.1068122387 18.8101425171
61.2246131897 2.1124296188 18.6248397827
61.2397956848 2.1181280613 18.4400691986
61.2537231445 2.1237776279 18.2549896240
61.2626419067 2.1292340755 18.0686569214
61.2637672424 2.1343898773 17.8803596497
61.2572097778 2.1392495632 17.6901111603
61.2467231750 2.1439585686 17.4988479614
61.2378044128 2.1487286091 17.3079586029
61.2343330383 2.1537086964 17.1184329987
61.2366943359 2.1589138508 16.9303798676
61.2428245544 2.1642644405 16.7432842255
61.2507400513 2.1696836948 16.5566387177
61.2602043152 2.1751623154 16.3703918457
61.2723579407 2.1807444096 16.1848373413
61.2879333496 2.1864578724 16.0001697540
61.3056449890 2.1922531128 15.8160629272
61.3221282959 2.1980009079 15.6316471100
61.3337020874 2.2035603523 15.4459648132
61.3386077881 2.2088637352 15.2585458755
61.3376960754 2.2139444351 15.0696029663
61.3335075378 2.2188999653 14.8797903061
61.3291091919 2.2238481045 14.6899061203
61.3274612427 2.2289016247 14.5007276535
61.3306808472 2.2341420650 14.3128204346
61.3394126892 2.2395932674 14.1263608932
61.3532104492 2.2452380657 13.9412431717
61.3718566895 2.2510681152 13.7574186325
61.3958168030 2.2571008205 13.5750188828
61.4249496460 2.2633304596 13.3940162659
61.4569129944 2.2696673870 13.2137947083
61.4872894287 2.2759430408 13.0331764221
61.5114593506 2.2819814682 12.8509168625
61.5262680054 2.2876625061 12.6661548615
61.5302085876 2.2929296494 12.4784698486
61.5232200623 2.2977807522 12.2878227234
61.5072822571 2.3022916317 12.0947303772
61.4870223999 2.3066389561 11.9004344940
61.4686660767 2.3110597134 11.7066211700
61.4577064514 2.3157625198 11.5147905350
61.4572639465 2.3208653927 11.3258104324
61.4680290222 2.3263945580 11.1398906708
61.4887199402 2.3323001862 10.9566974640
61.5163688660 2.3384695053 10.7754335403
61.5470314026 2.3447525501 10.5950241089
61.5770378113 2.3510100842 10.4144592285
61.6038703918 2.3571465015 10.2330398560
61.6261901855 2.3631114960 10.0503883362
61.6435394287 2.3688879013 9.8663702011
61.6564025879 2.3744943142 9.6811113358
61.6664428711 2.3799936771 9.4950666428
61.6762733459 2.3854849339 9.3089647293
61.6886672974 2.3910734653 9.1235837936
61.7059059143 2.3968446255 8.9395685196
61.7296257019 2.4028604031 8.7573900223
61.7606010437 2.4091494083 8.5772809982
61.7978248596 2.4156734943 8.3989667892
61.8380966187 2.4223117828 8.2215528488
61.8774108887 2.4289128780 8.0439033508
61.9130744934 2.4353752136 7.8652510643
61.9444694519 2.4416761398 7.6854109764
61.9717750549 2.4478223324 7.5044279099
61.9938964844 2.4537727833 7.3219790459
62.0073966980 2.4593985081 7.1370687485
62.0075492859 2.4645223618 6.9483170509
61.9907722473 2.4690103531 6.7546682358
61.9568557739 2.4728553295 6.5560288429
61.9097862244 2.4762079716 6.3535223007
61.8569183350 2.4793448448 6.1492629051
61.8063087463 2.4825685024 5.9455852509
61.7633934021 2.4860827923 5.7440795898
61.7295341492 2.4899380207 5.5451560020
61.7035140991 2.4940884113 5.3484773636
61.6843910217 2.4984982014 5.1537809372
61.6730575562 2.5032005310 4.9613399506
61.6713447571 2.5082635880 4.7717113495
61.6797332764 2.5137045383 4.5850524902
61.6958541870 2.5194346905 4.4006814957
61.7153472900 2.5252907276 4.2173199654
61.7342376709 2.5311236382 4.0337905884
61.7506790161 2.5368652344 3.8495447636
61.7651519775 2.5425326824 3.6647195816
61.7798461914 2.5482084751 3.4799671173
61.7982978821 2.5540239811 3.2963471413
61.8246116638 2.5601325035 3.1151003838
61.8613166809 2.5666270256 2.9370000362
61.9068717957 2.5734505653 2.7616028786
61.9556350708 2.5803921223 2.5872192383
62.0009841919 2.5872051716 2.4118509293
62.0388984680 2.5937409401 2.2342705727
62.0687141418 2.5999743938 2.0542633533
62.0911369324 2.6059329510 1.8720294237
62.1060485840 2.6116118431 1.6875196695
62.1123733521 2.6169719696 1.5003895760
62.1102943420 2.6220204830 1.3106815815
62.1039352417 2.6269106865 1.1196442842
62.1013145447 2.6319398880 0.9297393560
62.1107254028 2.6374154091 0.7435287237
62.1363983154 2.6434926987 0.5623402596
62.1775360107 2.6501421928 0.3859596848
62.2309341431 2.6572442055 0.2134197503
62.2932472229 2.6646742821 0.0437041260
15.4094600677 -53.9261894226 61.7166175842
15.4106922150 -53.9429893494 61.5303421021
15.4195241928 -53.9838485718 61.3472518921
15.4390449524 -54.0585441589 61.1686973572
15.4715547562 -54.1743507385 60.9957122803
15.5174455643 -54.3325080872 60.8285484314
15.5753278732 -54.5286064148 60.6666908264
15.6428842545 -54.7553100586 60.5092277527
15.7174177170 -55.0040740967 60.3550491333
15.7960071564 -55.2656555176 60.2029457092
15.8762044907 -55.5323028564 60.0518722534
15.9573011398 -55.8017692566 59.9015274048
16.0408172607 -56.0788688660 59.7525863647
16.1292686462 -56.3715629578 59.6061744690
16.2242412567 -56.6848678589 59.4630241394
16.3255386353 -57.0181541443 59.3230895996
16.4316997528 -57.3668022156 59.1857566833
16.5402202606 -57.7228813171 59.0499267578
16.6464328766 -58.0716247559 58.9135131836
16.7428340912 -58.3893051147 58.7730979919
16.8212165833 -58.6499519348 58.6248779297
16.8766155243 -58.8378791809 58.4664764404
16.9095096588 -58.9546089172 58.2979621887
16.9245166779 -59.0147476196 58.1213340759
16.9274139404 -59.0365905762 57.9391555786
16.9231300354 -59.0357131958 57.7536506653
16.9152507782 -59.0234680176 57.5664482117
16.9060974121 -59.0071945190 57.3786201477
16.8967227936 -58.9902305603 57.1906547546
16.8870944977 -58.9724578857 57.0025367737
16.8766078949 -58.9519805908 56.8139762878
16.8647041321 -58.9270172119 56.6246948242
16.8511657715 -58.8969001770 56.4345893860
16.8360996246 -58.8619461060 56.2436904907
16.8197441101 -58.8229293823 56.0521163940
16.8024368286 -58.7808990479 55.8600120544
16.7846946716 -58.7375030518 55.6676292419
16.7671985626 -58.6948852539 55.4752960205
16.7503910065 -58.6544570923 55.2832412720
16.7340679169 -58.6155586243 55.0913581848
16.7175025940 -58.5759010315 54.8992919922
16.7000598907 -58.5334739685 54.7067222595
16.6815662384 -58.4877319336 54.5135612488
16.6622066498 -58.4392547607 54.3198928833
16.6423206329 -58.3891220093 54.1258850098
16.6223182678 -58.3386268616 53.9317398071
16.6025886536 -58.2890014648 53.7376556396
16.5834178925 -58.2411422729 53.5437812805
16.5650024414 -58.1956748962 53.3502197266
16.5473861694 -58.1527404785 53.1569976807
16.5301666260 -58.1110610962 52.9639167786
16.5123119354 -58.0673789978 52.7704353333
16.4925041199 -58.0175323486 52.5758705139
16.4699325562 -57.9589691162 52.3797760010
16.4449100494 -57.8926582336 52.1823081970
16.4188022614 -57.8229408264 51.9841651917
16.3934478760 -57.7555999756 51.7863197327
16.3705730438 -57.6960945129 51.5896949768
16.3514118195 -57.6483268738 51.3949623108
16.3363342285 -57.6134643555 51.2023506165
16.3246402740 -57.5892791748 51.0115013123
16.3148326874 -57.5710601807 50.8216285706
16.3051891327 -57.5533638000 50.6318092346
16.2941398621 -57.5312271118 50.4411888123
16.2804622650 -57.5007934570 50.2490882874
16.2635650635 -57.4602050781 50.0551757813
16.2438488007 -57.4107208252 49.8596420288
16.2227668762 -57.3569297791 49.6632766724
16.2023830414 -57.3053512573 49.4672164917
16.1845970154 -57.2619705200 49.2725219727
16.1704769135 -57.2301712036 49.0798110962
16.1600112915 -57.2098999023 48.8890991211
16.1521968842 -57.1980056763 48.6998405457
16.1453742981 -57.1892433167 48.5111198425
16.1377010345 -57.1777954102 48.3218879700
16.1277141571 -57.1590499878 48.1313171387
16.1146926880 -57.1307373047 47.9389724731
16.0985393524 -57.0925407410 47.7447814941
16.0793800354 -57.0448646545 47.5487976074
16.0573787689 -56.9882316589 47.3511009216
16.0329418182 -56.9239120483 47.1519050598
16.0068893433 -56.8545074463 46.9516716003
15.9802837372 -56.7833671570 46.7510108948
15.9539413452 -56.7130661011 46.5504035950
15.9281225204 -56.6444206238 46.3499984741
15.9027605057 -56.5772209167 46.1497573853
15.8779401779 -56.5117416382 45.9497413635
15.8541002274 -56.4493560791 45.7502098083
15.8317918777 -56.3918075562 45.5514984131
15.8114109039 -56.3403472900 45.3538551331
15.7930841446 -56.2953643799 45.1573638916
15.7766199112 -56.2562637329 44.9619255066
15.7614974976 -56.2213973999 44.7672386169
15.7470760345 -56.1887435913 44.5729141235
15.7328739166 -56.1567840576 44.3786735535
15.7185707092 -56.1245117188 44.1843147278
15.7037515640 -56.0906143188 43.9895858765
15.6877899170 -56.0531234741 43.7941017151
15.6701011658 -56.0101890564 43.5974884033
15.6504764557 -55.9611549377 43.3996047974
15.6291856766 -55.9068794250 43.2006149292
15.6068458557 -55.8493003845 43.0008850098
15.5842590332 -55.7909507751 42.8009147644
15.5623502731 -55.7347450256 42.6012840271
15.5420904160 -55.6837387085 42.4026031494
15.5242786407 -55.6404533386 42.2053909302
15.5092105865 -55.6058197021 42.0098495483
15.4964389801 -55.5784225464 41.8157081604
15.4848127365 -55.5546417236 41.6222534180
15.4728641510 -55.5298461914 41.4285469055
15.4593248367 -55.5000419617 41.2337799072
15.4434862137 -55.4629974365 41.0374755859
15.4252223969 -55.4183197021 40.8395462036
15.4047908783 -55.3668136597 40.6401405334
15.3826370239 -55.3098907471 40.4395370483
15.3593053818 -55.2492637634 40.2380790710
15.3354978561 -55.1871452332 40.0362167358
15.3121891022 -55.1266021729 39.8345870972
15.2905073166 -55.0711936951 39.6339416504
15.2713241577 -55.0236549377 39.4348602295
15.2548818588 -54.9847526550 39.2375183105
15.2407388687 -54.9530982971 39.0416488647
15.2278919220 -54.9255256653 38.8465843201
15.2149057388 -54.8975181580 38.6513824463
15.2002010345 -54.8641014099 38.4549789429
15.1826314926 -54.8216705322 38.2565917969
15.1620368958 -54.7697219849 38.0560913086
15.1392602921 -54.7109107971 37.8540344238
15.1156396866 -54.6494483948 37.6513175964
15.0925455093 -54.5896492004 37.4488677979
15.0712070465 -54.5353813171 37.2475242615
15.0524835587 -54.4893531799 37.0478935242
15.0364418030 -54.4517631531 36.8500328064
15.0221462250 -54.4196815491 36.6533126831
15.0079498291 -54.3879089355 36.4566116333
14.9920854568 -54.3508949280 36.2586975098
14.9732608795 -54.3045692444 36.0586662292
14.9509840012 -54.2473869324 35.8561477661
14.9254484177 -54.1799545288 35.6512641907
14.8972120285 -54.1040306091 35.4443855286
14.8670463562 -54.0220489502 35.2360343933
14.8358774185 -53.9369163513 35.0268592834
14.8045349121 -53.8512458801 34.8174324036
14.7734308243 -53.7663345337 34.6080551147
14.7426176071 -53.6823463440 34.3987579346
14.7122745514 -53.5998458862 34.1896743774
14.6831932068 -53.5213241577 33.9813766479
14.6567335129 -53.4510536194 33.7748489380
14.6342592239 -53.3933258057 33.5710868835
14.6165285110 -53.3505210876 33.3706703186
14.6034851074 -53.3224601746 33.1735763550
14.5945339203 -53.3072700500 32.9794120789
14.5889863968 -53.3027877808 32.7877006531
14.5862503052 -53.3071479797 32.5980224609
14.5856580734 -53.3182449341 32.4099121094
14.5862579346 -53.3330917358 32.2226791382
14.5868949890 -53.3480529785 32.0354804993
14.5865087509 -53.3598022461 31.8475360870
14.5842866898 -53.3657722473 31.6582317352
14.5795726776 -53.3639144897 31.4670734406
14.5718326569 -53.3525466919 31.2736434937
14.5608568192 -53.3310089111 31.0777702332
14.5470190048 -53.3004798889 30.8797092438
14.5312900543 -53.2640075684 30.6801757813
14.5150051117 -53.2257919312 30.4801635742
14.4995164871 -53.1900863647 30.2806911469
14.4857463837 -53.1597862244 30.0824604034
14.4737186432 -53.1349601746 29.8855056763
14.4624300003 -53.1124610901 29.6890678406
14.4502391815 -53.0871315002 29.4918994904
14.4354858398 -53.0537528992 29.2927227020
14.4169731140 -53.0085678101 29.0906028748
14.3942298889 -52.9500961304 28.8851528168
14.3676061630 -52.8794403076 28.6766166687
14.3382120132 -52.8000907898 28.4658298492
14.3076667786 -52.7171287537 28.2540340424
14.2777109146 -52.6360282898 28.0425758362
14.2497196198 -52.5611114502 27.8325328827
14.2243404388 -52.4944038391 27.6244239807
14.2016077042 -52.4360084534 27.4182910919
14.1814537048 -52.3857269287 27.2141017914
14.1640396118 -52.3440475464 27.0119934082
14.1495008469 -52.3114051819 26.8120937347
14.1375055313 -52.2867507935 26.6141567230
14.1271686554 -52.2673110962 26.4174938202
14.1174068451 -52.2496757507 26.2212505341
14.1073598862 -52.2311477661 26.0247459412
14.0966806412 -52.2106399536 25.8276996613
14.0856370926 -52.1889877319 25.6303195953
14.0749673843 -52.1685142517 25.4332008362
14.0654554367 -52.1516761780 25.2369804382
14.0574779510 -52.1396560669 25.0419654846
14.0508480072 -52.1318702698 24.8480186462
14.0449838638 -52.1264877319 24.6546726227
14.0391025543 -52.1210556030 24.4612941742
14.0323123932 -52.1127700806 24.2671527863
14.0237092972 -52.0987968445 24.0715026855
14.0126934052 -52.0772514343 23.8738384247
13.9993152618 -52.0483016968 23.6741886139
13.9843063354 -52.0142326355 23.4731388092
13.9687099457 -51.9783287048 23.2715492249
13.9534645081 -51.9435272217 23.0701904297
13.9391212463 -51.9115638733 22.8695259094
13.9256896973 -51.8824615479 22.6695671082
13.9126453400 -51.8545761108 22.4698829651
13.8992652893 -51.8256454468 22.2698688507
13.8851528168 -51.7944183350 22.0691890717
13.8705062866 -51.7615165710 21.8680057526
13.8559293747 -51.7288398743 21.6668262482
13.8421068192 -51.6985359192 21.4662303925
13.8296709061 -51.6725807190 21.2667617798
13.8192005157 -51.6527938843 21.0689182281
13.8111171722 -51.6404953003 20.8730716705
13.8055086136 -51.6359558105 20.6793155670
13.8020048141 -51.6380195618 20.4873428345
13.7997703552 -51.6440620422 20.2964534760
13.7976245880 -51.6503868103 20.1056365967
13.7942962646 -51.6529998779 19.9137935638
13.7887029648 -51.6485176086 19.7199840546
13.7801485062 -51.6347503662 19.5235881805
13.7683658600 -51.6108665466 19.3243560791
13.7535057068 -51.5773391724 19.1223983765
13.7361755371 -51.5360755920 18.9182262421
13.7175168991 -51.4906463623 18.7128238678
13.6990823746 -51.4459304810 18.5075492859
13.6825218201 -51.4070892334 18.3038501740
13.6691780090 -51.3783340454 18.1029262543
13.6597118378 -51.3617362976 17.9053802490
13.6537885666 -51.3562431335 17.7109375000
13.6500415802 -51.3575668335 17.5184097290
13.6464843750 -51.3594856262 17.3260402679
13.6413059235 -51.3563270569 17.1322154999
13.6336641312 -51.3454513550 16.9361724854
13.6239480972 -51.3280830383 16.7382431030
13.6133470535 -51.3079414368 16.5394840240
13.6031026840 -51.2889175415 16.3410091400
13.5940380096 -51.2735939026 16.1435604095
13.5865182877 -51.2631111145 15.9474782944
13.5806236267 -51.2577209473 15.7528438568
13.5762872696 -51.2572135925 15.5596055984
13.5733280182 -51.2610168457 15.3676090240
13.5714273453 -51.2681388855 15.1765727997
13.5700626373 -51.2769355774 14.9860229492
13.5684146881 -51.2848510742 14.7952146530
13.5653514862 -51.2883300781 14.6031036377
13.5596485138 -51.2835464478 14.4085540771
13.5504102707 -51.2676963806 14.2107229233
13.5373325348 -51.2398223877 14.0093069077
13.5206413269 -51.2006416321 13.8044929504
13.5010213852 -51.1522979736 13.5968933105
13.4797420502 -51.0987663269 13.3876724243
13.4586572647 -51.0458488464 13.1785507202
13.4397153854 -50.9996376038 12.9713516235
13.4241771698 -50.9640922546 12.7672719955
13.4121313095 -50.9394798279 12.5664138794
13.4026288986 -50.9228286743 12.3679075241
13.3942499161 -50.9097023010 12.1704273224
13.3856086731 -50.8957519531 11.9726705551
13.3756389618 -50.8776473999 11.7736225128
13.3638486862 -50.8538475037 11.5728111267
13.3505563736 -50.8253479004 11.3705253601
13.3368730545 -50.7956352234 11.1678180695
13.3243513107 -50.7695579529 10.9661703110
13.3144826889 -50.7517814636 10.7670183182
13.3083305359 -50.7456359863 10.5713987350
13.3063812256 -50.7526397705 10.3798046112
13.3085002899 -50.7723693848 10.1921300888
13.3138523102 -50.8022117615 10.0075941086
13.3208332062 -50.8371505737 9.8246641159
13.3272132874 -50.8702049255 9.6411848068
13.3306074142 -50.8939170837 9.4548330307
13.3291969299 -50.9025993347 9.2638168335
13.3223638535 -50.8943290710 9.0675058365
13.3108615875 -50.8714561462 8.8666009903
13.2964086533 -50.8393592834 8.6627607346
13.2810211182 -50.8043441772 8.4579467773
13.2664690018 -50.7719459534 8.2538986206
13.2541036606 -50.7463836670 8.0519533157
13.2450275421 -50.7311134338 7.8532161713
13.2402524948 -50.7292938232 7.6587100029
13.2403764725 -50.7427864075 7.4690551758
13.2449369431 -50.7701454163 7.2838206291
13.2521533966 -50.8058128357 7.1012606621
13.2594203949 -50.8416290283 6.9187855721
13.2640771866 -50.8692855835 6.7337317467
13.2638874054 -50.8817939758 6.5438394547
13.2571802139 -50.8739318848 6.3473978043
13.2430295944 -50.8428115845 6.1434340477
13.2215518951 -50.7887916565 5.9320192337
13.1938972473 -50.7154808044 5.7142729759
13.1618337631 -50.6283988953 5.4919481277
13.1273946762 -50.5339012146 5.2670831680
13.0928430557 -50.4390640259 5.0419683456
13.0605344772 -50.3512420654 4.8190031052
13.0325613022 -50.2769737244 4.6003413200
13.0106678009 -50.2217102051 4.3877959251
12.9964456558 -50.1904144287 4.1830382347
12.9911746979 -50.1870803833 3.9874293804
12.9951477051 -50.2126274109 3.8013286591
13.0072183609 -50.2634658813 3.6236097813
13.0251016617 -50.3324508667 3.4519572258
13.0460176468 -50.4109039307 3.2835271358
13.0671052933 -50.4898872375 3.1153669357
13.0856971741 -50.5610694885 2.9447023869
13.0998048782 -50.6182441711 2.7694442272
13.1086187363 -50.6588859558 2.5887200832
13.1126880646 -50.6847076416 2.4030702114
13.1138000488 -50.7012939453 2.2143416405
13.1146287918 -50.7169952393 2.0253255367
13.1180257797 -50.7407150269 1.8390219212
13.1261491776 -50.7791862488 1.6577242613
13.1399316788 -50.8353195190 1.4824459553
13.1589994431 -50.9079551697 1.3128290176
13.1818113327 -50.9922676086 1.1472682953
13.2059497833 -51.0807151794 0.9832172394
13.2287225723 -51.1648902893 0.8178154230
13.2478971481 -51.2378273010 0.6486731172
13.2622385025 -51.2956771851 0.4744468927
13.2717285156 -51.3383865356 0.2950874567
13.2775421143 -51.3696136475 0.1118252426
50.3854370117 -12.9908113480 62.9798507690
50.4309806824 -12.9956483841 62.7931632996
50.5148162842 -13.0090188980 62.6106109619
50.6148948669 -13.0260124207 62.4298934937
50.7114448547 -13.0422220230 62.2489051819
50.7920875549 -13.0548896790 62.0662956238
50.8517189026 -13.0628757477 61.8814697266
50.8905982971 -13.0662384033 61.6944274902
50.9129333496 -13.0659122467 61.5055885315
50.9252166748 -13.0633468628 61.3156471252
50.9336357117 -13.0599193573 61.1252746582
50.9419898987 -13.0564765930 60.9348945618
50.9519233704 -13.0533866882 60.7446861267
50.9646873474 -13.0509281158 60.5548019409
50.9826278687 -13.0496244431 60.3655128479
51.0095291138 -13.0503177643 60.1772575378
51.0500335693 -13.0540485382 59.9905967712
51.1082572937 -13.0617322922 59.8060302734
51.1853485107 -13.0736274719 59.6237258911
51.2770576477 -13.0887861252 59.4432144165
51.3733406067 -13.1049680710 59.2633476257
51.4612617493 -13.1192874908 59.0825920105
51.5298957825 -13.1293048859 58.8996315002
51.5740318298 -13.1338567734 58.7138099670
51.5946083069 -13.1331501007 58.5251922607
51.5964775085 -13.1282682419 58.3343238831
51.5860137939 -13.1206340790 58.1419410706
51.5698280334 -13.1117210388 57.9488334656
51.5539398193 -13.1028728485 57.7557296753
51.5427780151 -13.0950794220 57.5631790161
51.5388488770 -13.0889005661 57.3714981079
51.5437889099 -13.0847024918 57.1809043884
51.5597801208 -13.0829706192 56.9916915894
51.5893592834 -13.0842761993 56.8041954041
51.6332626343 -13.0887804031 56.6185340881
51.6880340576 -13.0957145691 56.4342994690
51.7461051941 -13.1033868790 56.2505416870
51.7985687256 -13.1098089218 56.0661201477
51.8383216858 -13.1133918762 55.8801078796
51.8613548279 -13.1132392883 55.6919670105
51.8666419983 -13.1091213226 55.5015296936
51.8562583923 -13.1015005112 55.3090324402
51.8355064392 -13.0915613174 55.1151466370
51.8117446899 -13.0809488297 54.9208221436
51.7918357849 -13.0711965561 54.7269706726
51.7799987793 -13.0632476807 54.5341567993
51.7774162292 -13.0573663712 54.3425521851
51.7835350037 -13.0534305573 54.1521072388
51.7981224060 -13.0513887405 53.9627990723
51.8224983215 -13.0515365601 53.7748260498
51.8585586548 -13.0542974472 53.5884666443
51.9058036804 -13.0595617294 53.4036674500
51.9589462280 -13.0661449432 53.2197303772
52.0089912415 -13.0720376968 53.0354156494
52.0478134155 -13.0754213333 52.8495903015
52.0722923279 -13.0755958557 52.6617965698
52.0845756531 -13.0730428696 52.4723129272
52.0891342163 -13.0687608719 52.2817420959
52.0904235840 -13.0637464523 52.0907020569
52.0931892395 -13.0590639114 51.8998603821
52.1036071777 -13.0560922623 51.7101020813
52.1281204224 -13.0562763214 51.5223617554
52.1700553894 -13.0603609085 51.3371467590
52.2270622253 -13.0678205490 51.1541442871
52.2915229797 -13.0769500732 50.9722824097
52.3533058167 -13.0854825974 50.7901000977
52.4029045105 -13.0912895203 50.6061935425
52.4336395264 -13.0928716660 50.4195671082
52.4426383972 -13.0895872116 50.2297554016
52.4308166504 -13.0816392899 50.0368537903
52.4020843506 -13.0699024200 49.8414115906
52.3621673584 -13.0556583405 49.6442489624
52.3174781799 -13.0403451920 49.4463081360
52.2743873596 -13.0253868103 49.2485351563
52.2384414673 -13.0120267868 49.0517807007
52.2134666443 -13.0011253357 48.8566360474
52.2010726929 -12.9930410385 48.6633644104
52.2008132935 -12.9876756668 48.4719238281
52.2106399536 -12.9845695496 48.2820205688
52.2271804810 -12.9829702377 48.0931549072
52.2461929321 -12.9819240570 47.9046745300
52.2635307312 -12.9805030823 47.7159500122
52.2768440247 -12.9781799316 47.5265998840
52.2868385315 -12.9751129150 47.3367347717
52.2967262268 -12.9720211029 47.1468544006
52.3099746704 -12.9696846008 46.9575004578
52.3281784058 -12.9684581757 46.7689399719
52.3502845764 -12.9681072235 46.5810089111
52.3731117249 -12.9679193497 46.3932075500
52.3927993774 -12.9670267105 46.2049179077
52.4064559937 -12.9647817612 46.0156669617
52.4129753113 -12.9609355927 45.8252639771
52.4126510620 -12.9555540085 45.6337432861
52.4064826965 -12.9488601685 45.4412574768
52.3959732056 -12.9411916733 45.2480430603
52.3834228516 -12.9330654144 45.0544662476
52.3721427917 -12.9252223969 44.8610687256
52.3659667969 -12.9185247421 44.6684875488
52.3680152893 -12.9136724472 44.4772529602
52.3795471191 -12.9109487534 44.2875938416
52.3997154236 -12.9101638794 44.0993766785
52.4260635376 -12.9107675552 43.9122085571
52.4549674988 -12.9119453430 43.7254943848
52.4819602966 -12.9126939774 43.5384788513
52.5025596619 -12.9120082855 43.3503952026
52.5132217407 -12.9090909958 43.1606330872
52.5117263794 -12.9034423828 42.9687919617
52.4973182678 -12.8948936462 42.7747154236
52.4713554382 -12.8837471008 42.5786170959
52.4379234314 -12.8709230423 42.3811798096
52.4030532837 -12.8577718735 42.1834411621
52.3726234436 -12.8456192017 41.9864196777
52.3508033752 -12.8353986740 41.7908515930
52.3396453857 -12.8275728226 41.5971145630
52.3388061523 -12.8220663071 41.4051666260
52.3450965881 -12.8181610107 41.2144660950
52.3535346985 -12.8147392273 41.0241355896
52.3601226807 -12.8109006882 40.8334770203
52.3637123108 -12.8063888550 40.6422805786
52.3651084900 -12.8013830185 40.4506797791
52.3652229309 -12.7960891724 40.2588348389
52.3647460938 -12.7906608582 40.0668754578
52.3652915955 -12.7854633331 39.8750839233
52.3703155518 -12.7812709808 39.6840934753
52.3844261169 -12.7791233063 39.4947509766
52.4113311768 -12.7798538208 39.3077545166
52.4519538879 -12.7836713791 39.1232986450
52.5047264099 -12.7902221680 38.9411125183
52.5677719116 -12.7990865707 38.7608795166
52.6401863098 -12.8100605011 38.5824470520
52.7207031250 -12.8228607178 38.4055976868
52.8054733276 -12.8366193771 38.2296295166
52.8875045776 -12.8497648239 38.0532417297
52.9586601257 -12.8604640961 37.8748970032
53.0132675171 -12.8674411774 37.6935081482
53.0510253906 -12.8706264496 37.5089912415
53.0767517090 -12.8711042404 37.3222236633
53.0973739624 -12.8704338074 37.1345062256
53.1193733215 -12.8700733185 36.9470596313
53.1484451294 -12.8713054657 36.7609863281
53.1898841858 -12.8753232956 36.5773124695
53.2475395203 -12.8829956055 36.3968009949
53.3214988708 -12.8943395615 36.2195014954
53.4066123962 -12.9081993103 36.0444488525
53.4936828613 -12.9225034714 35.8698692322
53.5726203918 -12.9349765778 35.6937942505
53.6357421875 -12.9438896179 35.5147056580
53.6799926758 -12.9485521317 35.3319740295
53.7075920105 -12.9494638443 35.1459999084
53.7248611450 -12.9480485916 34.9580078125
53.7400207520 -12.9461574554 34.7696037292
53.7611274719 -12.9456062317 34.5823860168
53.7947235107 -12.9478721619 34.3976783752
53.8449096680 -12.9538774490 34.2163200378
53.9126281738 -12.9638366699 34.0385360718
53.9953842163 -12.9771890640 33.8638496399
54.0877876282 -12.9927186966 33.6912040710
54.1830139160 -13.0088872910 33.5192337036
54.2745971680 -13.0242366791 33.3466262817
54.3580131531 -13.0377483368 33.1724548340
54.4322319031 -13.0491876602 32.9964942932
54.5006980896 -13.0593309402 32.8194274902
54.5703201294 -13.0697374344 32.6426734924
54.6483726501 -13.0820484161 32.4677352905
54.7394294739 -13.0972948074 32.2955703735
54.8438186646 -13.1155529022 32.1262779236
54.9574928284 -13.1359090805 31.9590377808
55.0731086731 -13.1567068100 31.7923297882
55.1822128296 -13.1760387421 31.6243877411
55.2775573730 -13.1922693253 31.4536781311
55.3545036316 -13.2043495178 31.2791938782
55.4113731384 -13.2118988037 31.1005458832
55.4490127563 -13.2151098251 30.9178771973
55.4697189331 -13.2144985199 30.7316398621
55.4766159058 -13.2107696533 30.5424709320
55.4746704102 -13.2050437927 30.3514041901
55.4721984863 -13.1991987228 30.1602096558
55.4800682068 -13.1956882477 29.9712238312
55.5077590942 -13.1966552734 29.7865123749
55.5591201782 -13.2029695511 29.6069469452
55.6308326721 -13.2138814926 29.4318485260
55.7141227722 -13.2274112701 29.2593479156
55.7987174988 -13.2412385941 29.0872230530
55.8771018982 -13.2536640167 28.9138317108
55.9467124939 -13.2641105652 28.7385959625
56.0089187622 -13.2728853226 28.5618057251
56.0665054321 -13.2806186676 28.3840599060
56.1222496033 -13.2879371643 28.2059631348
56.1789779663 -13.2954797745 28.0281429291
56.2397918701 -13.3039455414 27.8512878418
56.3076820374 -13.3140153885 27.6760787964
56.3848037720 -13.3261728287 27.5030059814
56.4716224670 -13.3405256271 27.3321952820
56.5660247803 -13.3565950394 27.1631870270
56.6628227234 -13.3732099533 26.9948234558
56.7547721863 -13.3887300491 26.8254699707
56.8347778320 -13.4015522003 26.6535072327
56.8977203369 -13.4105186462 26.4777450562
56.9412117004 -13.4150867462 26.2976093292
56.9658927917 -13.4153995514 26.1132087708
56.9754371643 -13.4122896194 25.9253501892
56.9757766724 -13.4070959091 25.7353725433
56.9739189148 -13.4014053345 25.5448760986
56.9771499634 -13.3968658447 25.3555412292
56.9925537109 -13.3950805664 25.1690216064
57.0259208679 -13.3973617554 24.9866886139
57.0799827576 -13.4043264389 24.8092098236
57.1531715393 -13.4156227112 24.6362609863
57.2401237488 -13.4300365448 24.4666175842
57.3336639404 -13.4459457397 24.2986183167
57.4272384644 -13.4618644714 24.1307315826
57.5168457031 -13.4768886566 23.9620113373
57.6013526917 -13.4907598495 23.7921810150
57.6802940369 -13.5033731461 23.6211185455
57.7509841919 -13.5141201019 23.4481773376
57.8081321716 -13.5218029022 23.2720756531
57.8466720581 -13.5252714157 23.0915756226
57.8653068542 -13.5242319107 22.9063301086
57.8687667847 -13.5197544098 22.7174415588
57.8679847717 -13.5143165588 22.5275192261
57.8777198792 -13.5112609863 22.3401298523
57.9113464355 -13.5136194229 22.1585350037
57.9751281738 -13.5228118896 21.9843063354
58.0657768250 -13.5380954742 21.8166961670
58.1727905273 -13.5570898056 21.6531887054
58.2831878662 -13.5768556595 21.4906311035
58.3854866028 -13.5947885513 21.3262081146
58.4717597961 -13.6090927124 21.1579513550
58.5381431580 -13.6188898087 20.9848747253
58.5840950012 -13.6240549088 20.8068103790
58.6110992432 -13.6249256134 20.6240844727
58.6219062805 -13.6221237183 20.4373493195
58.6204185486 -13.6165342331 20.2475471497
58.6113548279 -13.6092243195 20.0558338165
58.5995445251 -13.6012926102 19.8634090424
58.5897789001 -13.5938234329 19.6714687347
58.5873336792 -13.5880136490 19.4813480377
58.5978469849 -13.5851440430 19.2944869995
58.6254463196 -13.5861511230 19.1119518280
58.6698455811 -13.5909709930 18.9337043762
58.7250709534 -13.5982484818 18.7582550049
58.7814559937 -13.6057901382 18.5831565857
58.8296318054 -13.6114711761 18.4060173035
58.8637924194 -13.6139717102 18.2253303528
58.8829040527 -13.6130571365 18.0408058167
58.8904914856 -13.6095266342 17.8533229828
58.8936424255 -13.6049890518 17.6646919250
58.9012794495 -13.6014690399 17.4772109985
58.9215087891 -13.6008090973 17.2929954529
58.9587135315 -13.6040048599 17.1132106781
59.0119018555 -13.6108303070 16.9376239777
59.0754661560 -13.6200141907 16.7648067474
59.1420860291 -13.6298942566 16.5928535461
59.2054786682 -13.6390419006 16.4201240540
59.2610816956 -13.6464233398 16.2454109192
59.3050079346 -13.6511526108 16.0676727295
59.3333969116 -13.6523542404 15.8858661652
59.3437881470 -13.6494655609 15.6993093491
59.3370971680 -13.6426954269 15.5082130432
59.3177871704 -13.6330575943 15.3137331009
59.2920646667 -13.6219606400 15.1175031662
59.2663497925 -13.6108636856 14.9212303162
59.2467765808 -13.6011629105 14.7265596390
59.2384681702 -13.5940208435 14.5348806381
59.2443542480 -13.5901060104 14.3470048904
59.2647857666 -13.5894975662 14.1630535126
59.2983207703 -13.5918684006 13.9826622009
59.3428726196 -13.5967464447 13.8052911758
59.3962249756 -13.6036252975 13.6303558350
59.4555702209 -13.6118707657 13.4571094513
59.5167579651 -13.6205358505 13.2844276428
59.5741844177 -13.6283473969 13.1107788086
59.6219711304 -13.6339673996 12.9345426559
59.6558189392 -13.6364173889 12.7545166016
59.6745071411 -13.6354198456 12.5703411102
59.6802787781 -13.6314821243 12.3826026917
59.6781654358 -13.6257514954 12.1926755905
59.6749000549 -13.6197576523 12.0024127960
59.6776466370 -13.6151323318 11.8138055801
59.6927833557 -13.6133260727 11.6286449432
59.7251319885 -13.6154375076 11.4483022690
59.7772941589 -13.6220607758 11.2735395432
59.8484382629 -13.6330060959 11.1041593552
59.9328727722 -13.6469802856 10.9385967255
60.0203514099 -13.6616497040 10.7739849091
60.0988883972 -13.6742858887 10.6069421768
60.1587219238 -13.6826648712 10.4346847534
60.1949577332 -13.6856718063 10.2557888031
60.2079162598 -13.6833772659 10.0703010559
60.2017936707 -13.6767377853 9.8793745041
60.1824836731 -13.6670923233 9.6846580505
60.1553344727 -13.6556606293 9.4876575470
60.1241188049 -13.6433010101 9.2894439697
60.0920219421 -13.6307392120 9.0909233093
60.0632781982 -13.6189393997 8.8933153152
60.0431137085 -13.6090946198 8.6981391907
60.0357322693 -13.6021614075 8.5066261292
60.0426254272 -13.5984811783 8.3192348480
60.0629234314 -13.5978555679 8.1357364655
60.0943298340 -13.5997629166 7.9554901123
60.1328086853 -13.6032829285 7.7773356438
60.1719055176 -13.6069459915 7.5993976593
60.2040367126 -13.6090202332 7.4194512367
60.2234992981 -13.6082077026 7.2358083725
60.2287940979 -13.6041641235 7.0480027199
60.2229919434 -13.5975904465 6.8569130898
60.2125511169 -13.5899572372 6.6644320488
60.2048873901 -13.5829572678 6.4727468491
60.2053451538 -13.5778093338 6.2834529877
60.2155380249 -13.5748815536 6.0970454216
60.2342147827 -13.5738887787 5.9131689072
60.2594757080 -13.5743999481 5.7312722206
60.2901077271 -13.5761365891 5.5510039330
60.3250312805 -13.5788526535 5.3720493317
60.3619766235 -13.5820312500 5.1937336922
60.3972091675 -13.5848207474 5.0149359703
60.4269218445 -13.5863504410 4.8345012665
60.4487953186 -13.5860910416 4.6517167091
60.4620819092 -13.5838727951 4.4663410187
60.4663085938 -13.5795850754 4.2782139778
60.4604072571 -13.5729846954 4.0869932175
60.4437904358 -13.5639381409 3.8924813271
60.4189987183 -13.5530233383 3.6954329014
60.3933410645 -13.5419092178 3.4980759621
60.3774223328 -13.5330190659 3.3036656380
60.3809165955 -13.5285615921 3.1151978970
60.4080429077 -13.5295019150 2.9340109825
60.4550552368 -13.5349845886 2.7589912415
60.5113220215 -13.5425834656 2.5868842602
60.5639076233 -13.5493440628 2.4136934280
60.6027030945 -13.5529537201 2.2362661362
60.6226730347 -13.5522632599 2.0530087948
60.6231307983 -13.5471134186 1.8636710644
60.6063842773 -13.5380325317 1.6689386368
60.5773773193 -13.5261468887 1.4703277349
60.5439758301 -13.5132570267 1.2702876329
60.5172080994 -13.5018806458 1.0722792149
60.5102424622 -13.4950304031 0.8804698586
60.5348739624 -13.4954042435 0.6986245513
60.5961952209 -13.5041675568 0.5284142494
60.6893730164 -13.5202169418 0.3683760762
60.8015975952 -13.5406246185 0.2144961208
60.9173355103 -13.5618391037 0.0618641004
0.7902134061 -52.6163101196 62.0467910767
0.7891302109 -52.6809196472 61.8642387390
0.7904031277 -52.7988891602 61.6883468628
0.7932721972 -52.9529609680 61.5170745850
0.7972283363 -53.1315650940 61.3490486145
0.8021990061 -53.3330421448 61.1841087341
0.8084321618 -53.5629806519 61.0229988098
0.8163088560 -53.8299827576 60.8668670654
0.8262728453 -54.1440505981 60.7170524597
0.8388616443 -54.5172996521 60.5751953125
0.8546595573 -54.9628944397 60.4430999756
0.8739168048 -55.4864196777 60.3216285706
0.8958442807 -56.0699768066 60.2086067200
0.9182517529 -56.6640396118 60.0976791382
0.9382795095 -57.2040138245 59.9804000854
0.9538635015 -57.6433525085 59.8505325317
0.9646100998 -57.9732627869 59.7067298889
0.9714204073 -58.2141685486 59.5514907837
0.9755193591 -58.3937797546 59.3883590698
0.9778032303 -58.5323600769 59.2199325562
0.9787406325 -58.6405105591 59.0475654602
0.9785495996 -58.7231712341 58.8718719482
0.9773695469 -58.7835083008 58.6932296753
0.9753273726 -58.8243942261 58.5119972229
0.9725156426 -58.8479347229 58.3284187317
0.9689508080 -58.8545112610 58.1425170898
0.9645678997 -58.8426818848 57.9540634155
0.9592772722 -58.8104438782 57.7627410889
0.9530711174 -58.7576408386 57.5684890747
0.9461228251 -58.6881866455 57.3718185425
0.9387844205 -58.6100044250 57.1738166809
0.9314589500 -58.5321693420 56.9757575989
0.9244527221 -58.4615554810 56.7786140442
0.9179143906 -58.4014930725 56.5828857422
0.9118454456 -58.3520088196 56.3885879517
0.9061236978 -58.3103523254 56.1953506470
0.9005540013 -58.2721366882 56.0025482178
0.8949614763 -58.2334365845 55.8096160889
0.8892592788 -58.1923027039 55.6162681580
0.8834229708 -58.1481933594 55.4224205017
0.8774155974 -58.1002769470 55.2279472351
0.8711675406 -58.0470046997 55.0326080322
0.8646306396 -57.9872970581 54.8362350464
0.8578284383 -57.9216918945 54.6388931274
0.8508452773 -57.8520736694 54.4408569336
0.8437805176 -57.7806777954 54.2424545288
0.8367163539 -57.7093429565 54.0439567566
0.8297132254 -57.6394195557 53.8455772400
0.8228245378 -57.5720977783 53.6474952698
0.8161144853 -57.5088157654 53.4499359131
0.8096555471 -57.4511833191 53.2531547546
