-16.2727050781 -34.2862663269 76.0454940796
-16.2835445404 -34.3018989563 75.8496017456
-16.2936306000 -34.3161201477 75.6535949707
-16.3027076721 -34.3284530640 75.4574279785
-16.3107681274 -34.3388748169 75.2611083984
-16.3184661865 -34.3486175537 75.0647277832
-16.3271293640 -34.3601722717 74.8685073853
-16.3381099701 -34.3760719299 74.6726837158
-16.3517265320 -34.3969154358 74.4773101807
-16.3667068481 -34.4203186035 74.2821884155
-16.3808059692 -34.4420700073 74.0869369507
-16.3921813965 -34.4587097168 73.8912353516
-16.4002819061 -34.4692115784 73.6949691772
-16.4056663513 -34.4746170044 73.4982376099
-16.4092350006 -34.4766159058 73.3011779785
-16.4116878510 -34.4765205383 73.1039123535
-16.4134006500 -34.4750404358 72.9065017700
-16.4145870209 -34.4725685120 72.7089843750
-16.4155063629 -34.4695968628 72.5113983154
-16.4167003632 -34.4671363831 72.3138427734
-16.4190788269 -34.4669036865 72.1165008545
-16.4235763550 -34.4706420898 71.9195327759
-16.4303359985 -34.4786262512 71.7229843140
-16.4380989075 -34.4884910583 71.5266189575
-16.4445304871 -34.4958572388 71.3300094604
-16.4473896027 -34.4965209961 71.1327133179
-16.4456214905 -34.4885063171 70.9345169067
-16.4398937225 -34.4730606079 70.7355270386
-16.4324970245 -34.4544830322 70.5361785889
-16.4265594482 -34.4386405945 70.3370742798
-16.4247913361 -34.4306221008 70.1387634277
-16.4284934998 -34.4328651428 69.9415206909
-16.4372081757 -34.4445152283 69.7452697754
-16.4490623474 -34.4620552063 69.5496597290
-16.4617252350 -34.4811134338 69.3542327881
-16.4735393524 -34.4985809326 69.1586380005
-16.4839115143 -34.5133399963 68.9627685547
-16.4928245544 -34.5253639221 68.7665939331
-16.5002059937 -34.5345115662 68.5701141357
-16.5057792664 -34.5402679443 68.3732528687
-16.5092678070 -34.5421104431 68.1759490967
-16.5105762482 -34.5398597717 67.9781646729
-16.5097618103 -34.5336265564 67.7799224854
-16.5068798065 -34.5235137939 67.5812072754
-16.5019207001 -34.5095024109 67.3820114136
-16.4951057434 -34.4920043945 67.1823883057
-16.4874992371 -34.4730224609 66.9825515747
-16.4813270569 -34.4567298889 66.7829895020
-16.4793376923 -34.4482917786 66.5843200684
-16.4837036133 -34.4517745972 66.3870468140
-16.4954090118 -34.4690399170 66.1914215088
-16.5140819550 -34.4993782043 65.9973754883
-16.5375099182 -34.5386428833 65.8044433594
-16.5615139008 -34.5789909363 65.6116867065
-16.5815963745 -34.6119804382 65.4180755615
-16.5955886841 -34.6335372925 65.2230911255
-16.6044311523 -34.6454238892 65.0269241333
-16.6099758148 -34.6511268616 64.8299942017
-16.6125698090 -34.6512870789 64.6323623657
-16.6113052368 -34.6442031860 64.4338073730
-16.6061420441 -34.6298027039 64.2342987061
-16.5988578796 -34.6114196777 64.0342483521
-16.5919132233 -34.5936698914 63.8342475891
-16.5870647430 -34.5798568726 63.6347160339
-16.5851612091 -34.5715713501 63.4358673096
-16.5867347717 -34.5698127747 63.2378425598
-16.5924644470 -34.5758590698 63.0408325195
-16.6031513214 -34.5912094116 62.8450393677
-16.6190395355 -34.6163291931 62.6505546570
-16.6386222839 -34.6483840942 62.4570159912
-16.6577987671 -34.6796722412 62.2634086609
-16.6709022522 -34.6995658875 62.0682983398
-16.6737918854 -34.7002792358 61.8706092834
-16.6666526794 -34.6821594238 61.6703453064
-16.6538162231 -34.6533432007 61.4685821533
-16.6406764984 -34.6239547729 61.2666893005
-16.6306076050 -34.6003303528 61.0655364990
-16.6243152618 -34.5838012695 60.8653221130
-16.6212253571 -34.5732803345 60.6659126282
-16.6210384369 -34.5682106018 60.4672431946
-16.6242733002 -34.5695686340 60.2694587708
-16.6317501068 -34.5788917542 60.0727920532
-16.6436023712 -34.5964317322 59.8772964478
-16.6587467194 -34.6201553345 59.6827011108
-16.6753196716 -34.6465606689 59.4885139465
-16.6915988922 -34.6724166870 59.2942733765
-16.7064285278 -34.6955490112 59.0996589661
-16.7192916870 -34.7149925232 58.9045295715
-16.7305088043 -34.7313385010 58.7089614868
-16.7407207489 -34.7458000183 58.5131225586
-16.7492733002 -34.7571449280 58.3168334961
-16.7539157867 -34.7611465454 58.1194572449
-16.7535381317 -34.7557182312 57.9206619263
-16.7506752014 -34.7456207275 57.7211418152
-16.7501926422 -34.7399940491 57.5222740173
-16.7561607361 -34.7464828491 57.3252258301
-16.7705287933 -34.7687530518 57.1305770874
-16.7934074402 -34.8070068359 56.9383964539
-16.8231391907 -34.8581390381 56.7482414246
-16.8562335968 -34.9155883789 56.5591239929
-16.8881111145 -34.9707489014 56.3697166443
-16.9147300720 -35.0160408020 56.1788406372
-16.9343814850 -35.0482368469 55.9859619141
-16.9483413696 -35.0697441101 55.7914390564
-16.9593524933 -35.0857124329 55.5960540771
-16.9688320160 -35.0988006592 55.4002227783
-16.9752826691 -35.1062049866 55.2034950256
-16.9754066467 -35.1017189026 55.0048561096
-16.9669494629 -35.0811119080 54.8036041260
-16.9507484436 -35.0459518433 54.5999565125
-16.9302196503 -35.0026588440 54.3949279785
-16.9092769623 -34.9585876465 54.1896972656
-16.8911247253 -34.9197578430 53.9852485657
-16.8787212372 -34.8917312622 53.7825126648
-16.8751144409 -34.8802261353 53.5824546814
-16.8821697235 -34.8887596130 53.3856964111
-16.8987884521 -34.9152603149 53.1919288635
-16.9208450317 -34.9519805908 52.9999008179
-16.9436378479 -34.9900856018 52.8081474304
-16.9648551941 -35.0252304077 52.6159324646
-16.9852085114 -35.0587539673 52.4234848022
-17.0063552856 -35.0937690735 52.2313232422
-17.0285396576 -35.1307296753 52.0395355225
-17.0501613617 -35.1666412354 51.8476066589
-17.0690841675 -35.1974792480 51.6548423767
-17.0839118958 -35.2206230164 51.4607772827
-17.0942993164 -35.2354202271 51.2652816772
-17.1006679535 -35.2426643372 51.0684776306
-17.1039772034 -35.2441635132 50.8706626892
-17.1055870056 -35.2424659729 50.6722793579
-17.1069583893 -35.2403144836 50.4738006592
-17.1092720032 -35.2399368286 50.2756195068
-17.1133193970 -35.2428207397 50.0780067444
-17.1197471619 -35.2501754761 49.8811874390
-17.1292858124 -35.2633819580 49.6854133606
-17.1424522400 -35.2834014893 49.4908790588
-17.1586914063 -35.3092002869 49.2974052429
-17.1759243011 -35.3368644714 49.1042938232
-17.1915359497 -35.3614883423 48.9106559753
-17.2043399811 -35.3808288574 48.7160720825
-17.2152290344 -35.3965721130 48.5208435059
-17.2255516052 -35.4112510681 48.3254318237
-17.2350654602 -35.4244079590 48.1297454834
-17.2418251038 -35.4323883057 47.9331016541
-17.2439556122 -35.4316673279 47.7348327637
-17.2413539886 -35.4220504761 47.5348854065
-17.2359199524 -35.4071044922 47.3339080811
-17.2303276062 -35.3918647766 47.1328392029
-17.2264957428 -35.3799324036 46.9323692322
-17.2249011993 -35.3722038269 46.7326660156
-17.2249603271 -35.3675842285 46.5335350037
-17.2256774902 -35.3642044067 46.3346214294
-17.2260665894 -35.3602027893 46.1355705261
-17.2256240845 -35.3546409607 45.9362030029
-17.2250595093 -35.3488464355 45.7367668152
-17.2264404297 -35.3467102051 45.5380249023
-17.2320747375 -35.3525733948 45.3408279419
-17.2429237366 -35.3682403564 45.1455535889
-17.2581386566 -35.3921203613 44.9519004822
-17.2757358551 -35.4204750061 44.7591552734
-17.2933177948 -35.4488029480 44.5664291382
-17.3087158203 -35.4730262756 44.3729209900
-17.3210430145 -35.4914779663 44.1782798767
-17.3314876556 -35.5063858032 43.9829444885
-17.3424873352 -35.5223350525 43.7878265381
-17.3554916382 -35.5420608521 43.5934791565
-17.3695011139 -35.5636749268 43.3995361328
-17.3820362091 -35.5825157166 43.2050437927
-17.3914947510 -35.5955734253 43.0093879700
-17.3985576630 -35.6041221619 42.8128166199
-17.4055919647 -35.6126174927 42.6162338257
-17.4149208069 -35.6254310608 42.4205436707
-17.4273109436 -35.6440010071 42.2260475159
-17.4415512085 -35.6660499573 42.0322875977
-17.4553279877 -35.6872291565 41.8383636475
-17.4667320251 -35.7039489746 41.6435279846
-17.4751377106 -35.7150230408 41.4475212097
-17.4809856415 -35.7212905884 41.2505073547
-17.4850387573 -35.7241821289 41.0527801514
-17.4878044128 -35.7246475220 40.8545303345
-17.4892845154 -35.7226982117 40.6557540894
-17.4889907837 -35.7174110413 40.4562492371
-17.4862766266 -35.7075691223 40.2557563782
-17.4811058044 -35.6931037903 40.0542411804
-17.4749660492 -35.6768150330 39.8522987366
-17.4710197449 -35.6646537781 39.6512145996
-17.4727134705 -35.6631011963 39.4524040222
-17.4815044403 -35.6749000549 39.2564773560
-17.4956130981 -35.6967048645 39.0627441406
-17.5110797882 -35.7210655212 38.8695831299
-17.5241432190 -35.7409057617 38.6754570007
-17.5329933167 -35.7528152466 38.4795989990
-17.5379943848 -35.7574882507 38.2821426392
-17.5409450531 -35.7583007813 38.0838279724
-17.5442047119 -35.7596931458 37.8856315613
-17.5500850677 -35.7660179138 37.6885223389
-17.5604515076 -35.7807846069 37.4933052063
-17.5763740540 -35.8060035706 37.3004417419
-17.5977172852 -35.8414230347 37.1099014282
-17.6228694916 -35.8840141296 36.9210243225
-17.6489868164 -35.9284210205 36.7326049805
-17.6729602814 -35.9687919617 36.5433197021
-17.6928501129 -36.0014839172 36.3523292542
-17.7088108063 -36.0267791748 36.1596794128
-17.7225551605 -36.0479049683 35.9660949707
-17.7356605530 -36.0678329468 35.7722511292
-17.7482852936 -36.0868530273 35.5782165527
-17.7594642639 -36.1031494141 35.3835639954
-17.7683010101 -36.1150436401 35.1879005432
-17.7745666504 -36.1220932007 34.9911117554
-17.7783622742 -36.1244964600 34.7932319641
-17.7799301147 -36.1227111816 34.5943603516
-17.7802543640 -36.1185798645 34.3949241638
-17.7815856934 -36.1163444519 34.1959152222
-17.7866210938 -36.1210784912 33.9985427856
-17.7965564728 -36.1350402832 33.8033599854
-17.8099918365 -36.1555900574 33.6097488403
-17.8238811493 -36.1769905090 33.4163627625
-17.8355140686 -36.1941452026 33.2219772339
-17.8436908722 -36.2047958374 33.0260391235
-17.8486175537 -36.2093315125 32.8286285400
-17.8513336182 -36.2097015381 32.6302070618
-17.8533515930 -36.2087554932 32.4314537048
-17.8565902710 -36.2101097107 32.2332458496
-17.8633117676 -36.2180175781 32.0366287231
-17.8757114410 -36.2366218567 31.8426265717
-17.8950481415 -36.2682800293 31.6518459320
-17.9206809998 -36.3117904663 31.4640159607
-17.9498252869 -36.3619155884 31.2778682709
-17.9785079956 -36.4111747742 31.0915660858
-18.0033531189 -36.4532089233 30.9035282135
-18.0230197906 -36.4854965210 30.7131118774
-18.0382194519 -36.5093727112 30.5206279755
-18.0503349304 -36.5274429321 30.3267135620
-18.0598087311 -36.5405387878 30.1315612793
-18.0657234192 -36.5469322205 29.9347267151
-18.0670700073 -36.5447273254 29.7357177734
-18.0644149780 -36.5349884033 29.5347843170
-18.0601100922 -36.5221366882 29.3330326080
-18.0570049286 -36.5115470886 29.1318283081
-18.0572738647 -36.5073127747 28.9322204590
-18.0621833801 -36.5118103027 28.7348308563
-18.0720634460 -36.5256690979 28.5398426056
-18.0858592987 -36.5469055176 28.3467617035
-18.1008434296 -36.5703773499 28.1542778015
-18.1133766174 -36.5892333984 27.9606208801
-18.1206417084 -36.5981712341 27.7643985748
-18.1221427917 -36.5962562561 27.5653514862
-18.1198482513 -36.5871887207 27.3644180298
-18.1168727875 -36.5768394470 27.1631259918
-18.1158733368 -36.5702095032 26.9627819061
-18.1184997559 -36.5704116821 26.7642173767
-18.1258926392 -36.5795860291 26.5680103302
-18.1388034821 -36.5991554260 26.3745594025
-18.1565952301 -36.6279182434 26.1835651398
-18.1764640808 -36.6605949402 25.9936428070
-18.1945762634 -36.6899604797 25.8028717041
-18.2084102631 -36.7112731934 25.6099720001
-18.2178821564 -36.7243652344 25.4148864746
-18.2244834900 -36.7320556641 25.2183513641
-18.2299003601 -36.7375106812 25.0212135315
-18.2353363037 -36.7430038452 24.8240814209
-18.2414188385 -36.7497100830 24.6272735596
-18.2481708527 -36.7576828003 24.4308071136
-18.2551307678 -36.7660446167 24.2344474792
-18.2617588043 -36.7737808228 24.0379142761
-18.2680168152 -36.7808227539 23.8411922455
-18.2747402191 -36.7887420654 23.6447086334
-18.2833976746 -36.8003005981 23.4492263794
-18.2952136993 -36.8178138733 23.2553958893
-18.3104000092 -36.8416748047 23.0633373260
-18.3282871246 -36.8706245422 22.8727149963
-18.3480854034 -36.9031791687 22.6831245422
-18.3692264557 -36.9382591248 22.4942779541
-18.3911094666 -36.9747390747 22.3058586121
-18.4130287170 -37.0112915039 22.1175003052
-18.4342365265 -37.0465011597 21.9288063049
-18.4535465240 -37.0781402588 21.7391414642
-18.4691028595 -37.1027030945 21.5475101471
-18.4793796539 -37.1173210144 21.3530788422
-18.4847373962 -37.1226654053 21.1560211182
-18.4876480103 -37.1234016418 20.9576454163
-18.4914169312 -37.1257553101 20.7597217560
-18.4989147186 -37.1351356506 20.5637989044
-18.5118026733 -37.1546745300 20.3707981110
-18.5297603607 -37.1837654114 20.1805629730
-18.5501174927 -37.2173767090 19.9916629791
-18.5691146851 -37.2484283447 19.8020591736
-18.5841846466 -37.2720832825 19.6103401184
-18.5950984955 -37.2879028320 19.4163665771
-18.6032218933 -37.2984619141 19.2208671570
-18.6101131439 -37.3067016602 19.0246944427
-18.6167240143 -37.3144111633 18.8283653259
-18.6232643127 -37.3219871521 18.6319980621
-18.6294784546 -37.3289527893 18.4354476929
-18.6351127625 -37.3348197937 18.2385711670
-18.6403541565 -37.3399467468 18.0414733887
-18.6460609436 -37.3459548950 17.8446292877
-18.6536540985 -37.3555145264 17.6488399506
-18.6646041870 -37.3714027405 17.4549388885
-18.6796150208 -37.3949470520 17.2633342743
-18.6978931427 -37.4246520996 17.0735969543
-18.7173233032 -37.4565277100 16.8845424652
-18.7358112335 -37.4866256714 16.6949863434
-18.7528400421 -37.5139770508 16.5046329498
-18.7696609497 -37.5409393311 16.3141899109
-18.7878494263 -37.5704727173 16.1245517731
-18.8077945709 -37.6033248901 15.9359540939
-18.8286380768 -37.6378707886 15.7479057312
-18.8491706848 -37.6718292236 15.5597171783
-18.8683147430 -37.7031707764 15.3707637787
-18.8849411011 -37.7297706604 15.1803884506
-18.8980159760 -37.7496681213 14.9879798889
-18.9072856903 -37.7623977661 14.7933788300
-18.9136829376 -37.7697105408 14.5971107483
-18.9189167023 -37.7748260498 14.4001607895
-18.9247455597 -37.7810630798 14.2035551071
-18.9324016571 -37.7907524109 14.0080175400
-18.9423770905 -37.8048095703 13.8138446808
-18.9546375275 -37.8231773376 13.6210279465
-18.9691181183 -37.8457298279 13.4295349121
-18.9858570099 -37.8725433350 13.2394018173
-19.0046215057 -37.9031753540 13.0504951477
-19.0243816376 -37.9356880188 12.8622150421
-19.0432453156 -37.9665107727 12.6734342575
-19.0590476990 -37.9915618896 12.4828567505
-19.0704898834 -38.0083847046 12.2896919250
-19.0780410767 -38.0178756714 12.0942049026
-19.0838527679 -38.0240859985 11.8976726532
-19.0905876160 -38.0320358276 11.7016935349
-19.1000308990 -38.0450935364 11.5073509216
-19.1126594543 -38.0641593933 11.3149442673
-19.1283740997 -38.0890464783 11.1244268417
-19.1471977234 -38.1198005676 10.9358253479
-19.1689701080 -38.1561126709 10.7490539551
-19.1927089691 -38.1961364746 10.5635251999
-19.2168025970 -38.2368316650 10.3782606125
-19.2398071289 -38.2754745483 10.1923742294
-19.2607040405 -38.3101387024 10.0052347183
-19.2785835266 -38.3391113281 9.8162708282
-19.2927932739 -38.3611679077 9.6250705719
-19.3036861420 -38.3769645691 9.4318351746
-19.3129196167 -38.3896331787 9.2375802994
-19.3228149414 -38.4035491943 9.0437431335
-19.3352489471 -38.4222526550 8.8514966965
-19.3507232666 -38.4466972351 8.6611671448
-19.3681755066 -38.4748687744 8.4720973969
-19.3858451843 -38.5034523010 8.2831945419
-19.4027194977 -38.5305366516 8.0938205719
-19.4192676544 -38.5570068359 7.9042677879
-19.4368515015 -38.5854339600 7.7153968811
-19.4565391541 -38.6178283691 7.5278863907
-19.4784202576 -38.6543579102 7.3418021202
-19.5017776489 -38.6936798096 7.1566996574
-19.5254478455 -38.7335929871 6.9718403816
-19.5478134155 -38.7710418701 6.7861938477
-19.5668964386 -38.8022994995 6.5984888077
-19.5810031891 -38.8241691589 6.4076242447
-19.5894622803 -38.8353805542 6.2131490707
-19.5928363800 -38.8369979858 6.0154008865
-19.5925693512 -38.8317451477 5.8152928352
-19.5904884338 -38.8230705261 5.6139903069
-19.5883922577 -38.8143653870 5.4126539230
-19.5878009796 -38.8085021973 5.2122707367
-19.5898399353 -38.8075981140 5.0135779381
-19.5953235626 -38.8131942749 4.8171200752
-19.6049537659 -38.8266181946 4.6233696938
-19.6191310883 -38.8486213684 4.4326057434
-19.6372261047 -38.8780174255 4.2444343567
-19.6571331024 -38.9108352661 4.0574870110
-19.6761360168 -38.9419479370 3.8699781895
-19.6927204132 -38.9684944153 3.6809039116
-19.7077274323 -38.9920692444 3.4908125401
-19.7237739563 -39.0176048279 3.3014333248
-19.7433662415 -39.0498352051 3.1144363880
-19.7670803070 -39.0898399353 2.9302201271
-19.7930431366 -39.1340942383 2.7475521564
-19.8180046082 -39.1764602661 2.5642676353
-19.8391380310 -39.2116012573 2.3784651756
-19.8553276062 -39.2374114990 2.1893799305
-19.8671875000 -39.2550506592 1.9974061251
-19.8758411407 -39.2666358948 1.8032820225
-19.8813209534 -39.2722282410 1.6070170403
-19.8821029663 -39.2689552307 1.4075661898
-19.8766269684 -39.2538681030 1.2038493156
-19.8655967712 -39.2282943726 0.9963217974
-19.8526268005 -39.1990585327 0.7874220610
-19.8425064087 -39.1752014160 0.5804136395
-19.8390560150 -39.1639328003 0.3779214025
-19.8443851471 -39.1692390442 0.1814203113
-26.2929992676 -27.8697280884 80.9951095581
-26.2821159363 -27.8561878204 80.7973327637
-26.2639617920 -27.8356456757 80.5989227295
-26.2443847656 -27.8137321472 80.4003448486
-26.2268981934 -27.7938327789 80.2018966675
-26.2121944427 -27.7766113281 80.0036315918
-26.2001953125 -27.7619953156 79.8055648804
-26.1914596558 -27.7505207062 79.6077499390
-26.1864223480 -27.7426090240 79.4102249146
-26.1842422485 -27.7374477386 79.2129364014
-26.1832313538 -27.7334136963 79.0157241821
-26.1822242737 -27.7293834686 78.8185043335
-26.1812705994 -27.7254028320 78.6212692261
-26.1813430786 -27.7224102020 78.4241104126
-26.1837062836 -27.7216224670 78.2271423340
-26.1892566681 -27.7239074707 78.0304718018
-26.1979866028 -27.7292556763 77.8340988159
-26.2087821960 -27.7365913391 77.6379165649
-26.2197303772 -27.7440757751 77.4417572021
-26.2287750244 -27.7497253418 77.2454147339
-26.2344264984 -27.7521057129 77.0487365723
-26.2362670898 -27.7508163452 76.8516693115
-26.2349891663 -27.7465209961 76.6542739868
-26.2319011688 -27.7404842377 76.4566802979
-26.2282810211 -27.7339324951 76.2590103149
-26.2249851227 -27.7276935577 76.0613555908
-26.2224578857 -27.7221927643 75.8637542725
-26.2208919525 -27.7176208496 75.6662292480
-26.2203769684 -27.7140579224 75.4688034058
-26.2209205627 -27.7115173340 75.2714691162
-26.2224292755 -27.7099056244 75.0742263794
-26.2246990204 -27.7090263367 74.8770523071
-26.2274932861 -27.7086524963 74.6799163818
-26.2307014465 -27.7086772919 74.4828262329
-26.2345752716 -27.7093429565 74.2857894897
-26.2399902344 -27.7114944458 74.0889205933
-26.2484817505 -27.7166080475 73.8923873901
-26.2615909576 -27.7261734009 73.6963806152
-26.2795944214 -27.7404556274 73.5009460449
-26.3007812500 -27.7578029633 73.3058853149
-26.3222217560 -27.7753963470 73.1108779907
-26.3411731720 -27.7905902863 72.9156036377
-26.3556385040 -27.8014621735 72.7198104858
-26.3644065857 -27.8068447113 72.5233535767
-26.3676033020 -27.8068599701 72.3262329102
-26.3670845032 -27.8032913208 72.1286468506
-26.3655395508 -27.7987346649 71.9309234619
-26.3650379181 -27.7951831818 71.7333068848
-26.3664627075 -27.7934875488 71.5359039307
-26.3698749542 -27.7937088013 71.3387451172
-26.3750553131 -27.7956314087 71.1417922974
-26.3818130493 -27.7990779877 70.9450302124
-26.3901920319 -27.8040847778 70.7484664917
-26.4005374908 -27.8109855652 70.5521545410
-26.4133586884 -27.8202724457 70.3561630249
-26.4288387299 -27.8321228027 70.1605224609
-26.4460716248 -27.8456630707 69.9651184082
-26.4627552032 -27.8586730957 69.7696533203
-26.4761333466 -27.8684978485 69.5737686157
-26.4846134186 -27.8736038208 69.3772430420
-26.4883251190 -27.8741111755 69.1800765991
-26.4880123138 -27.8707389832 68.9823608398
-26.4837188721 -27.8635311127 68.7840881348
-26.4749221802 -27.8519821167 68.5851745605
-26.4620323181 -27.8364868164 68.3856735229
-26.4474906921 -27.8193988800 68.1859054565
-26.4350090027 -27.8042945862 67.9863739014
-26.4275703430 -27.7940521240 67.7875213623
-26.4262256622 -27.7896823883 67.5894851685
-26.4305477142 -27.7907772064 67.3922424316
-26.4398193359 -27.7966423035 67.1956863403
-26.4536476135 -27.8069000244 66.9997863770
-26.4714584351 -27.8209972382 66.8044738770
-26.4912796021 -27.8370342255 66.6094589233
-26.5091552734 -27.8511924744 66.4141845703
-26.5203418732 -27.8589057922 66.2179412842
-26.5220432281 -27.8574714661 66.0203018188
-26.5157222748 -27.8483047485 65.8214569092
-26.5070438385 -27.8368644714 65.6222381592
-26.5028724670 -27.8297672272 65.4236602783
-26.5070838928 -27.8307533264 65.2263259888
-26.5184841156 -27.8386707306 65.0300750732
-26.5325775146 -27.8491840363 64.8342361450
-26.5453319550 -27.8584079742 64.6382064819
-26.5556621552 -27.8652954102 64.4418029785
-26.5651588440 -27.8713760376 64.2452697754
-26.5759887695 -27.8787441254 64.0489501953
-26.5886745453 -27.8879013062 63.8529243469
-26.6015110016 -27.8972015381 63.6569252014
-26.6122074127 -27.9044418335 63.4605979919
-26.6198387146 -27.9087257385 63.2637786865
-26.6245708466 -27.9102134705 63.0664901733
-26.6261234283 -27.9086341858 62.8686828613
-26.6241722107 -27.9036769867 62.6702919006
-26.6206741333 -27.8972282410 62.4716262817
-26.6203899384 -27.8938770294 62.2734680176
-26.6280288696 -27.8981666565 62.0766029358
-26.6448554993 -27.9113159180 61.8812561035
-26.6680107117 -27.9305706024 61.6869812012
-26.6926536560 -27.9512577057 61.4929771423
-26.7145576477 -27.9693069458 61.2985382080
-26.7313232422 -27.9824008942 61.1032524109
-26.7425327301 -27.9901332855 60.9070320129
-26.7499408722 -27.9942016602 60.7101669312
-26.7574768066 -27.9983940125 60.5133171082
-26.7700195313 -28.0074119568 60.3173332214
-26.7910308838 -28.0246009827 60.1228256226
-26.8202133179 -28.0496711731 59.9297637939
-26.8529396057 -28.0781593323 59.7373619080
-26.8826007843 -28.1036911011 59.5444602966
-26.9043273926 -28.1215705872 59.3501853943
-26.9167289734 -28.1304569244 59.1542739868
-26.9206390381 -28.1311511993 58.9568443298
-26.9170513153 -28.1246147156 58.7580566406
-26.9066696167 -28.1115226746 58.5580177307
-26.8911132813 -28.0934391022 58.3570022583
-26.8740787506 -28.0739288330 58.1556739807
-26.8608207703 -28.0580596924 57.9549942017
-26.8562221527 -28.0505447388 57.7558708191
-26.8629398346 -28.0539455414 57.5588188171
-26.8804988861 -28.0678043365 57.3637809753
-26.9057292938 -28.0890655518 57.1701889038
-26.9347000122 -28.1139354706 56.9773292542
-26.9647636414 -28.1398582458 56.7847099304
-26.9945907593 -28.1655540466 56.5920829773
-27.0225276947 -28.1894283295 56.3991317749
-27.0457801819 -28.2087821960 56.2053146362
-27.0614070892 -28.2207813263 56.0100593567
-27.0675792694 -28.2236557007 55.8129882813
-27.0639686584 -28.2170925140 55.6140136719
-27.0517559052 -28.2022304535 55.4133415222
-27.0338211060 -28.1818466187 55.2115097046
-27.0144729614 -28.1600990295 55.0093536377
-26.9979896545 -28.1411132813 54.8077125549
-26.9868049622 -28.1272411346 54.6070785522
-26.9809818268 -28.1185398102 54.4074745178
-26.9792690277 -28.1138057709 54.2086677551
-26.9806060791 -28.1120128632 54.0104522705
-26.9849510193 -28.1131229401 53.8128318787
-26.9932308197 -28.1180286407 53.6160011292
-27.0065155029 -28.1277656555 53.4201889038
-27.0247612000 -28.1422901154 53.2253990173
-27.0460414886 -28.1597423553 53.0312423706
-27.0671730042 -28.1770515442 52.8370819092
-27.0853652954 -28.1915245056 52.6423301697
-27.0994491577 -28.2020339966 52.4467391968
-27.1099452972 -28.2090797424 52.2504081726
-27.1183834076 -28.2141399384 52.0536499023
-27.1266479492 -28.2190322876 51.8568496704
-27.1364078522 -28.2253684998 51.6603660583
-27.1482925415 -28.2337532043 51.4643363953
-27.1611003876 -28.2430324554 51.2685050964
-27.1723289490 -28.2507858276 51.0723419189
-27.1801738739 -28.2552738190 50.8754539490
-27.1850948334 -28.2569389343 50.6779327393
-27.1893043518 -28.2579174042 50.4802513123
-27.1952266693 -28.2605495453 50.2829322815
-27.2044773102 -28.2663936615 50.0863342285
-27.2174129486 -28.2757949829 49.8905487061
-27.2329711914 -28.2877273560 49.6953430176
-27.2493343353 -28.3004360199 49.5003280640
-27.2652206421 -28.3126869202 49.3052177429
-27.2806301117 -28.3244762421 49.1100158691
-27.2965354919 -28.3367443085 48.9149322510
-27.3144283295 -28.3509311676 48.7203102112
-27.3361473083 -28.3688106537 48.5265655518
-27.3631324768 -28.3917770386 48.3340339661
-27.3946380615 -28.4191055298 48.1425628662
-27.4266815186 -28.4469528198 47.9512519836
-27.4538745880 -28.4701194763 47.7588691711
-27.4728469849 -28.4853515625 47.5646286011
-27.4838008881 -28.4928417206 47.3685531616
-27.4890499115 -28.4948253632 47.1711616516
-27.4907016754 -28.4933357239 46.9729232788
-27.4893016815 -28.4888992310 46.7739562988
-27.4837112427 -28.4804172516 46.5739936829
-27.4720706940 -28.4660930634 46.3725776672
-27.4538650513 -28.4454288483 46.1695747375
-27.4319267273 -28.4211635590 45.9656410217
-27.4122829437 -28.3991107941 45.7621955872
-27.4016685486 -28.3857746124 45.5608558655
-27.4049987793 -28.3859024048 45.3628273010
-27.4243164063 -28.4014663696 45.1686286926
-27.4583930969 -28.4312801361 44.9780120850
-27.5027465820 -28.4710216522 44.7899322510
-27.5511131287 -28.5146331787 44.6028862000
-27.5978164673 -28.5566444397 44.4155082703
-27.6391601563 -28.5934791565 44.2268791199
-27.6732101440 -28.6232719421 44.0365142822
-27.6990394592 -28.6451282501 43.8441658020
-27.7160720825 -28.6584892273 43.6496658325
-27.7240505219 -28.6631069183 43.4529304504
-27.7238445282 -28.6598224640 43.2541542053
-27.7179298401 -28.6510257721 43.0539321899
-27.7094650269 -28.6397628784 42.8530387878
-27.7008724213 -28.6283779144 42.6520881653
-27.6934242249 -28.6180973053 42.4513931274
-27.6876964569 -28.6094779968 42.2511024475
-27.6840572357 -28.6028747559 42.0513191223
-27.6828479767 -28.5986194611 41.8521347046
-27.6844539642 -28.5970802307 41.6536521912
-27.6893596649 -28.5987300873 41.4560050964
-27.6981315613 -28.6041126251 41.2593498230
-27.7111148834 -28.6135635376 41.0637817383
-27.7276420593 -28.6264381409 40.8691444397
-27.7452030182 -28.6403083801 40.6747894287
-27.7598247528 -28.6513423920 40.4796791077
-27.7682876587 -28.6564273834 40.2829589844
-27.7703609467 -28.6553401947 40.0845565796
-27.7686252594 -28.6505737305 39.8851356506
-27.7660846710 -28.6450309753 39.6854782104
-27.7644081116 -28.6403198242 39.4860305786
-27.7642002106 -28.6370277405 39.2869567871
-27.7662353516 -28.6359043121 39.0884666443
-27.7720355988 -28.6384143829 38.8909759521
-27.7831707001 -28.6460800171 38.6949195862
-27.7998943329 -28.6591453552 38.5003738403
-27.8205280304 -28.6759853363 38.3069076538
-27.8426818848 -28.6942939758 38.1138725281
-27.8654327393 -28.7131824493 37.9210205078
-27.8901939392 -28.7340126038 37.7287483215
-27.9193477631 -28.7590847015 37.5377082825
-27.9539699554 -28.7894420624 37.3482131958
-27.9925918579 -28.8236637115 37.1598663330
-28.0317020416 -28.8583583832 36.9717102051
-28.0674400330 -28.8897953033 36.7826690674
-28.0971965790 -28.9154548645 36.5919990540
-28.1201648712 -28.9345550537 36.3994674683
-28.1369266510 -28.9476604462 36.2052116394
-28.1489868164 -28.9562225342 36.0096435547
-28.1586074829 -28.9624290466 35.8133926392
-28.1685829163 -28.9689769745 35.6172409058
-28.1814270020 -28.9782962799 35.4219055176
-28.1981258392 -28.9913406372 35.2276802063
-28.2174320221 -29.0069046021 35.0342140198
-28.2366733551 -29.0224075317 34.8407478333
-28.2535896301 -29.0356616974 34.6466255188
-28.2674694061 -29.0459842682 34.4516410828
-28.2788047791 -29.0538463593 34.2559280396
-28.2882785797 -29.0599117279 34.0596771240
-28.2961158752 -29.0643939972 33.8629493713
-28.3019962311 -29.0669860840 33.6656455994
-28.3053169250 -29.0671043396 33.4675827026
-28.3055496216 -29.0642375946 33.2686004639
-28.3026103973 -29.0583076477 33.0686683655
-28.2971267700 -29.0499153137 32.8679580688
-28.2904090881 -29.0403308868 32.6668548584
-28.2841053009 -29.0311470032 32.4658508301
-28.2797393799 -29.0238342285 32.2653923035
-28.2783622742 -29.0194110870 32.0658111572
-28.2804527283 -29.0183372498 31.8672504425
-28.2859439850 -29.0205497742 31.6697025299
-28.2943439484 -29.0255756378 31.4730262756
-28.3049640656 -29.0327472687 31.2770233154
-28.3172473907 -29.0415248871 31.0815277100
-28.3309535980 -29.0516796112 30.8864727020
-28.3458881378 -29.0630187988 30.6918010712
-28.3611221313 -29.0746498108 30.4972305298
-28.3746604919 -29.0846424103 30.3021488190
-28.3843421936 -29.0909061432 30.1058845520
-28.3894271851 -29.0927276611 29.9081993103
-28.3915958405 -29.0917282104 29.7096004486
-28.3948955536 -29.0918235779 29.5113430023
-28.4047355652 -29.0982398987 29.3151149750
-28.4256305695 -29.1153430939 29.1223468781
-28.4583816528 -29.1439075470 28.9333229065
-28.4985637665 -29.1796569824 28.7466793060
-28.5375957489 -29.2142944336 28.5597267151
-28.5663566589 -29.2390022278 28.3695755005
-28.5799770355 -29.2490768433 28.1746540070
-28.5806179047 -29.2466011047 27.9756069183
-28.5754241943 -29.2384872437 27.7746829987
-28.5714550018 -29.2315540314 27.5741233826
-28.5722293854 -29.2292079926 27.3750648499
-28.5779266357 -29.2316207886 27.1775760651
-28.5873794556 -29.2376651764 26.9812927246
-28.5996875763 -29.2464675903 26.7859325409
-28.6148166656 -29.2579994202 26.5914936066
-28.6330776215 -29.2725601196 26.3980846405
-28.6537551880 -29.2894554138 26.2054805756
-28.6742362976 -29.3061637878 26.0128326416
-28.6909656525 -29.3192443848 25.8189735413
-28.7014732361 -29.3263092041 25.6230792999
-28.7053604126 -29.3269710541 25.4250049591
-28.7034969330 -29.3220729828 25.2250175476
-28.6967983246 -29.3125000000 25.0234088898
-28.6859855652 -29.2989463806 24.8204021454
-28.6722698212 -29.2825870514 24.6163921356
-28.6577625275 -29.2654590607 24.4120750427
-28.6448059082 -29.2498340607 24.2082386017
-28.6351394653 -29.2373886108 24.0054664612
-28.6299285889 -29.2292499542 23.8041610718
-28.6299915314 -29.2262115479 23.6046142578
-28.6351356506 -29.2280864716 23.4067707062
-28.6437034607 -29.2332725525 23.2100830078
-28.6538524628 -29.2399883270 23.0139331818
-28.6655292511 -29.2481803894 22.8183040619
-28.6809825897 -29.2600269318 22.6239757538
-28.7031097412 -29.2783241272 22.4319458008
-28.7326850891 -29.3038291931 22.2425022125
-28.7668552399 -29.3337783813 22.0546817780
-28.8006896973 -29.3634014130 21.8667869568
-28.8306789398 -29.3893070221 21.6776027679
-28.8568935394 -29.4115638733 21.4871444702
-28.8820858002 -29.4328289032 21.2963600159
-28.9091033936 -29.4558620453 21.1062412262
-28.9390068054 -29.4816875458 20.9171638489
-28.9709339142 -29.5094718933 20.7288360596
-29.0028724670 -29.5372657776 20.5405502319
-29.0321159363 -29.5624542236 20.3513545990
-29.0557880402 -29.5822544098 20.1602230072
-29.0722007751 -29.5950317383 19.9665412903
-29.0818901062 -29.6013069153 19.7704811096
-29.0869369507 -29.6030902863 19.5727672577
-29.0895042419 -29.6024742126 19.3741588593
-29.0914344788 -29.6012439728 19.1753101349
-29.0950222015 -29.6016139984 18.9770431519
-29.1035766602 -29.6067924500 18.7805557251
-29.1204128265 -29.6199798584 18.5870552063
-29.1462688446 -29.6418933868 18.3968334198
-29.1775550842 -29.6690616608 18.2086105347
-29.2079944611 -29.6954116821 18.0201206207
-29.2325897217 -29.7161064148 17.8295364380
-29.2500152588 -29.7298679352 17.6363582611
-29.2618656158 -29.7382335663 17.4411544800
-29.2706813812 -29.7436637878 17.2448387146
-29.2787532806 -29.7483749390 17.0482501984
-29.2878189087 -29.7540473938 16.8520240784
-29.2991275787 -29.7618904114 16.6566295624
-29.3136615753 -29.7728519440 16.4624328613
-29.3321037292 -29.7875976563 16.2696990967
-29.3544635773 -29.8061332703 16.0784416199
-29.3800334930 -29.8277740479 15.8884057999
-29.4084777832 -29.8521976471 15.6994752884
-29.4410285950 -29.8805961609 15.5121202469
-29.4797248840 -29.9149398804 15.3271179199
-29.5246238708 -29.9552898407 15.1445074081
-29.5719947815 -29.9980316162 14.9628944397
-29.6159820557 -30.0374984741 14.7800674438
-29.6522617340 -30.0695075989 14.5943756104
-29.6805305481 -30.0937671661 14.4056835175
-29.7048435211 -30.1141986847 14.2155160904
-29.7318992615 -30.1372833252 14.0264234543
-29.7671413422 -30.1682929993 13.8405008316
-29.8108825684 -30.2075271606 13.6578893661
-29.8580131531 -30.2500419617 13.4766445160
-29.9011917114 -30.2887344360 13.2939424515
-29.9339790344 -30.3173694611 13.1072816849
-29.9525318146 -30.3322315216 12.9151430130
-29.9568748474 -30.3333396912 12.7174978256
-29.9512577057 -30.3248062134 12.5159635544
-29.9422531128 -30.3129959106 12.3130807877
-29.9355716705 -30.3034324646 12.1110734940
-29.9341316223 -30.2989425659 11.9110946655
-29.9384117126 -30.2999877930 11.7133445740
-29.9478588104 -30.3060340881 11.5176219940
-29.9619979858 -30.3166236877 11.3237533569
-29.9805526733 -30.3314857483 11.1316404343
-30.0026149750 -30.3497428894 10.9409341812
-30.0259227753 -30.3692073822 10.7507476807
-30.0474643707 -30.3869628906 10.5598831177
-30.0650444031 -30.4008808136 10.3674564362
-30.0781784058 -30.4104995728 10.1732654572
-30.0877017975 -30.4166202545 9.9776344299
-30.0949039459 -30.4204959869 9.7810697556
-30.1010646820 -30.4233627319 9.5840816498
-30.1074619293 -30.4264564514 9.3871831894
-30.1155338287 -30.4311733246 9.1909570694
-30.1269283295 -30.4391059875 8.9960775375
-30.1431579590 -30.4517192841 8.8031673431
-30.1649265289 -30.4696960449 8.6125259399
-30.1918315887 -30.4926452637 8.4240036011
-30.2229175568 -30.5196437836 8.2372245789
-30.2574119568 -30.5499420166 8.0518827438
-30.2947196960 -30.5829639435 7.8677415848
-30.3338184357 -30.6177215576 7.6843886375
-30.3728713989 -30.6524372101 7.5010700226
-30.4094600677 -30.6847667694 7.3167862892
-30.4416751862 -30.7128620148 7.1307368279
-30.4693965912 -30.7366065979 6.9428620338
-30.4942302704 -30.7575569153 6.7538185120
-30.5175743103 -30.7770633698 6.5641808510
-30.5386962891 -30.7944202423 6.3736391068
-30.5548839569 -30.8069992065 6.1810512543
-30.5633049011 -30.8120574951 5.9852142334
-30.5627651215 -30.8084373474 5.7856035233
-30.5544605255 -30.7972984314 5.5827016830
-30.5417709351 -30.7819156647 5.3779153824
-30.5289936066 -30.7664432526 5.1730513573
-30.5195617676 -30.7542133331 4.9695692062
-30.5151977539 -30.7468872070 4.7682075500
-30.5165081024 -30.7450580597 4.5692410469
-30.5240173340 -30.7492313385 4.3729076385
-30.5381984711 -30.7598667145 4.1794271469
-30.5584354401 -30.7763652802 3.9885523319
-30.5821971893 -30.7962799072 3.7992124557
-30.6057624817 -30.8160037994 3.6098144054
-30.6260890961 -30.8325920105 3.4190437794
-30.6420707703 -30.8449707031 3.2264134884
-30.6544075012 -30.8538208008 3.0322163105
-30.6649246216 -30.8609085083 2.8372342587
-30.6761379242 -30.8686695099 2.6425569057
-30.6909179688 -30.8798866272 2.4494390488
-30.7117462158 -30.8969612122 2.2589735985
-30.7396430969 -30.9208831787 2.0716245174
-30.7737998962 -30.9508686066 1.8870555162
-30.8126029968 -30.9853572845 1.7045741081
-30.8548030853 -31.0231342316 1.5236423016
-30.8989219666 -31.0627727509 1.3436168432
-30.9417381287 -31.1011486053 1.1630767584
-30.9786777496 -31.1338348389 0.9799928665
-31.0064239502 -31.1576137543 0.7928752303
-31.0249538422 -31.1724681854 0.6016898155
-31.0375099182 -31.1815338135 0.4078558385
-31.0496253967 -31.1901741028 0.2138315737
-31.0684661865 -31.2053279877 0.0228232946
-33.2742271423 -18.2134418488 80.9726562500
-33.2722778320 -18.2100429535 80.7754745483
-33.2721748352 -18.2075405121 80.5783996582
-33.2777404785 -18.2077941895 80.3816909790
-33.2895317078 -18.2110748291 80.1854019165
-33.3058662415 -18.2165622711 79.9894180298
-33.3250885010 -18.2234535217 79.7936477661
-33.3467788696 -18.2315464020 79.5980606079
-33.3712425232 -18.2409858704 79.4026870728
-33.3975830078 -18.2513389587 79.2074661255
-33.4222450256 -18.2608737946 79.0121459961
-33.4399795532 -18.2670440674 78.8163452148
-33.4466629028 -18.2678432465 78.6197357178
-33.4414062500 -18.2628345490 78.4222335815
-33.4268264771 -18.2532920837 78.2240142822
-33.4079589844 -18.2416667938 78.0254287720
-33.3901596069 -18.2305603027 77.8268890381
-33.3767585754 -18.2215919495 77.6286468506
-33.3681106567 -18.2149333954 77.4307403564
-33.3625183105 -18.2097606659 77.2330474854
-33.3579025269 -18.2050628662 77.0354080200
-33.3529014587 -18.2001762390 76.8377227783
-33.3472824097 -18.1949882507 76.6399536133
-33.3418960571 -18.1899147034 76.4421920776
-33.3383331299 -18.1857261658 76.2445526123
-33.3382453918 -18.1832275391 76.0471801758
-33.3426399231 -18.1829109192 75.8501663208
-33.3514595032 -18.1847438812 75.6535186768
-33.3638496399 -18.1883125305 75.4571685791
-33.3791007996 -18.1932754517 75.2610702515
-33.3976478577 -18.1998386383 75.0652542114
-33.4210510254 -18.2087631226 74.8698730469
-33.4506416321 -18.2206974030 74.6750488281
-33.4856643677 -18.2352752686 74.4807357788
-33.5227851868 -18.2508735657 74.2866363525
-33.5577888489 -18.2654418945 74.0923919678
-33.5878181458 -18.2775917053 73.8977279663
-33.6120986938 -18.2869453430 73.7025680542
-33.6311531067 -18.2937583923 73.5069503784
-33.6458511353 -18.2984523773 73.3109359741
-33.6567382813 -18.3012924194 73.1145782471
-33.6638259888 -18.3022842407 72.9178619385
-33.6671600342 -18.3014488220 72.7207870483
-33.6675910950 -18.2992019653 72.5234298706
-33.6666908264 -18.2963085175 72.3259277344
-33.6659011841 -18.2934703827 72.1284179688
-33.6659736633 -18.2910480499 71.9309768677
-33.6670532227 -18.2891159058 71.7336196899
-33.6691131592 -18.2876605988 71.5363464355
-33.6722946167 -18.2867527008 71.3391723633
-33.6770019531 -18.2865848541 71.1421432495
-33.6839179993 -18.2874927521 70.9453201294
-33.6939353943 -18.2899093628 70.7488174438
-33.7080574036 -18.2943229675 70.5527267456
-33.7269592285 -18.3010597229 70.3571319580
-33.7500267029 -18.3098258972 70.1619796753
-33.7741584778 -18.3191089630 69.9669570923
-33.7936439514 -18.3261318207 69.7714691162
-33.8025970459 -18.3280315399 69.5748748779
-33.7987632751 -18.3237075806 69.3769226074
-33.7851943970 -18.3146476746 69.1779098511
-33.7679214478 -18.3037853241 68.9784622192
-33.7519149780 -18.2935390472 68.7791137695
-33.7389984131 -18.2847938538 68.5800628662
-33.7286796570 -18.2773132324 68.3812637329
-33.7200584412 -18.2706584930 68.1826248169
-33.7129058838 -18.2647190094 67.9841232300
-33.7077140808 -18.2597332001 67.7858123779
-33.7051963806 -18.2560482025 67.5877838135
-33.7057723999 -18.2538681030 67.3900909424
-33.7092590332 -18.2531032562 67.1927108765
-33.7149276733 -18.2534008026 66.9955673218
-33.7217903137 -18.2542800903 66.7985610962
-33.7289123535 -18.2552871704 66.6015777588
-33.7356758118 -18.2561168671 66.4045486450
-33.7419509888 -18.2567100525 66.2074584961
-33.7481231689 -18.2572536469 66.0103454590
-33.7548065186 -18.2580451965 65.8132858276
-33.7625389099 -18.2593460083 65.6163482666
-33.7718429565 -18.2614135742 65.4195938110
-33.7835044861 -18.2646274567 65.2231292725
-33.7984313965 -18.2694320679 65.0270614624
-33.8167381287 -18.2758808136 64.8314056396
-33.8370666504 -18.2833137512 64.6360168457
-33.8571701050 -18.2906398773 64.4406127930
-33.8753814697 -18.2970409393 64.2449798584
-33.8913040161 -18.3023300171 64.0490798950
-33.9054985046 -18.3067779541 63.8529663086
-33.9191474915 -18.3109607697 63.6567878723
-33.9342269897 -18.3158397675 63.4607963562
-33.9532051086 -18.3226165771 63.2653083801
-33.9774780273 -18.3319702148 63.0705146790
-34.0055923462 -18.3431968689 62.8762397766
-34.0336799622 -18.3544082642 62.6819801331
-34.0582923889 -18.3639297485 62.4872932434
-34.0789031982 -18.3715019226 62.2920989990
-34.0970687866 -18.3778858185 62.0965995789
-34.1135025024 -18.3834247589 61.9008750916
-34.1267547607 -18.3874149323 61.7047348022
-34.1347084045 -18.3888244629 61.5078887939
-34.1365165710 -18.3872432709 61.3102111816
-34.1334915161 -18.3833084106 61.1118621826
-34.1292648315 -18.3787879944 60.9133300781
-34.1289253235 -18.3761596680 60.7153129578
-34.1364822388 -18.3773765564 60.5183639526
-34.1523590088 -18.3826427460 60.3225631714
-34.1738319397 -18.3906364441 60.1275520325
-34.1976280212 -18.3997631073 59.9328804016
-34.2210922241 -18.4087257385 59.7381782532
-34.2412033081 -18.4160575867 59.5430221558
-34.2543296814 -18.4199867249 59.3468856812
-34.2581367493 -18.4193782806 59.1494255066
-34.2537155151 -18.4147605896 58.9507751465
-34.2454490662 -18.4082698822 58.7515487671
-34.2385520935 -18.4024486542 58.5524940491
-34.2364463806 -18.3989562988 58.3541107178
-34.2402153015 -18.3983287811 58.1565704346
-34.2500801086 -18.4006690979 57.9599151611
-34.2663955688 -18.4061527252 57.7642097473
-34.2888412476 -18.4146194458 57.5694236755
-34.3152503967 -18.4250183105 57.3752441406
-34.3422851563 -18.4357223511 57.1811790466
-34.3678321838 -18.4457015991 56.9869117737
-34.3927917480 -18.4553947449 56.7925796509
-34.4202728271 -18.4663181305 56.5986480713
-34.4526252747 -18.4796142578 56.4054832458
-34.4886665344 -18.4947071075 56.2129135132
-34.5237808228 -18.5093498230 56.0202369690
-34.5529594421 -18.5211009979 55.8266792297
-34.5737609863 -18.5287685394 55.6318435669
-34.5863723755 -18.5324497223 55.4357490540
-34.5913696289 -18.5324211121 55.2384605408
-34.5878791809 -18.5282554626 55.0398292542
-34.5743522644 -18.5192012787 54.8395919800
-34.5514259338 -18.5055656433 54.6378250122
-34.5237808228 -18.4896297455 54.4352645874
-34.4982910156 -18.4747467041 54.2329902649
-34.4799041748 -18.4633216858 54.0318107605
-34.4696273804 -18.4558467865 53.8318977356
-34.4660644531 -18.4516448975 53.6330490112
-34.4677581787 -18.4500026703 53.4350357056
-34.4737434387 -18.4504528046 53.2377128601
-34.4829826355 -18.4524860382 53.0409164429
-34.4944305420 -18.4555988312 52.8444824219
-34.5078163147 -18.4596538544 52.6483726501
-34.5234794617 -18.4648189545 52.4526443481
-34.5408210754 -18.4708023071 52.2572059631
-34.5567817688 -18.4761123657 52.0615463257
-34.5665016174 -18.4783821106 51.8648376465
-34.5665397644 -18.4759330750 51.6664886475
-34.5579223633 -18.4692649841 51.4666557312
-34.5455093384 -18.4607486725 51.2661476135
-34.5343780518 -18.4528541565 51.0658264160
-34.5270957947 -18.4468364716 50.8661346436
-34.5239448547 -18.4428329468 50.6671333313
-34.5244903564 -18.4406280518 50.4687538147
-34.5285758972 -18.4401512146 50.2709770203
-34.5364913940 -18.4415397644 50.0738639832
-34.5487632751 -18.4450511932 49.8775100708
-34.5660934448 -18.4510288239 49.6820487976
-34.5892791748 -18.4598617554 49.4876327515
-34.6189193726 -18.4718399048 49.2943840027
-34.6544532776 -18.4866905212 49.1022148132
-34.6933670044 -18.5031909943 48.9106826782
-34.7318916321 -18.5195007324 48.7191238403
-34.7673683167 -18.5343265533 48.5270500183
-34.8003349304 -18.5479278564 48.3345603943
-34.8339118958 -18.5618286133 48.1422119141
-34.8703842163 -18.5771389008 47.9504241943
-34.9078979492 -18.5929603577 47.7588615417
-34.9409141541 -18.6065883636 47.5665092468
-34.9640159607 -18.6153831482 47.3723602295
-34.9751625061 -18.6183471680 47.1760063171
-34.9761924744 -18.6163825989 46.9777755737
-34.9719238281 -18.6118316650 46.7785339355
-34.9680862427 -18.6074924469 46.5793571472
-34.9678993225 -18.6049327850 46.3808441162
-34.9702491760 -18.6036071777 46.1827964783
-34.9721069336 -18.6020450592 45.9846458435
-34.9720954895 -18.5995712280 45.7861251831
-34.9709587097 -18.5965461731 45.5873718262
-34.9698562622 -18.5935382843 45.3886108398
-34.9692306519 -18.5907611847 45.1899261475
-34.9687538147 -18.5880584717 44.9912528992
-34.9674415588 -18.5849494934 44.7924041748
-34.9633903503 -18.5805015564 44.5930023193
-34.9538536072 -18.5733795166 44.3925094604
-34.9369506836 -18.5626659393 44.1905441284
-34.9150810242 -18.5495281219 43.9875640869
-34.8968544006 -18.5381679535 43.7852554321
-34.8937377930 -18.5341739655 43.5858993530
-34.9126739502 -18.5409374237 43.3909111023
-34.9517173767 -18.5575065613 43.1999511719
-35.0028381348 -18.5799694061 43.0114440918
-35.0580062866 -18.6044025421 42.8238105774
-35.1122512817 -18.6283893585 42.6360511780
-35.1629066467 -18.6506252289 42.4476318359
-35.2080001831 -18.6701488495 42.2581329346
-35.2456855774 -18.6860599518 42.0671768188
-35.2746353149 -18.6977100372 41.8744697571
-35.2947235107 -18.7050380707 41.6799736023
-35.3070106506 -18.7085609436 41.4838829041
-35.3128280640 -18.7089271545 41.2864532471
-35.3128471375 -18.7064666748 41.0878219604
-35.3075828552 -18.7014274597 40.8880729675
-35.2989845276 -18.6947612762 40.6876029968
-35.2911987305 -18.6884899139 40.4872779846
-35.2885932922 -18.6847476959 40.2880172729
-35.2924842834 -18.6841716766 40.0901069641
-35.3002395630 -18.6854839325 39.8930053711
-35.3080749512 -18.6868343353 39.6959152222
-35.3141784668 -18.6873397827 39.4984512329
-35.3194618225 -18.6874427795 39.3008041382
-35.3265571594 -18.6884307861 39.1035423279
-35.3387260437 -18.6918964386 38.9073638916
-35.3584594727 -18.6990528107 38.7128219604
-35.3858108521 -18.7099227905 38.5199432373
-35.4178352356 -18.7230777740 38.3281021118
-35.4499130249 -18.7362556458 38.1362991333
-35.4779472351 -18.7474632263 37.9436454773
-35.4999771118 -18.7557392120 37.7496986389
-35.5162315369 -18.7611999512 37.5545005798
-35.5281906128 -18.7645606995 37.3583564758
-35.5376167297 -18.7666873932 37.1616554260
-35.5464057922 -18.7685050964 36.9648132324
-35.5568275452 -18.7711181641 36.7683296204
-35.5712318420 -18.7756729126 36.5727386475
-35.5907897949 -18.7827453613 36.3783073425
-35.6144371033 -18.7918109894 36.1848068237
-35.6393318176 -18.8014888763 35.9916076660
-35.6626014709 -18.8103713989 35.7980613708
-35.6823997498 -18.8175621033 35.6037483215
-35.6977043152 -18.8225593567 35.4084167480
-35.7079086304 -18.8250656128 35.2119331360
-35.7130279541 -18.8250904083 35.0142784119
-35.7140502930 -18.8231143951 34.8156738281
-35.7127685547 -18.8200168610 34.6165275574
-35.7112121582 -18.8167819977 34.4173011780
-35.7109718323 -18.8141918182 34.2183609009
-35.7127761841 -18.8125953674 34.0198783875
-35.7164802551 -18.8119297028 33.8218307495
-35.7216339111 -18.8119716644 33.6241111755
-35.7283096313 -18.8127536774 33.4267425537
-35.7378196716 -18.8149242401 33.2300338745
-35.7528572083 -18.8197898865 33.0346336365
-35.7765274048 -18.8288688660 32.8412818909
-35.8104171753 -18.8429393768 32.6503791809
-35.8528175354 -18.8611621857 32.4615364075
-35.8986701965 -18.8810749054 32.2735671997
-35.9417190552 -18.8996162415 32.0849761963
-35.9774856567 -18.9146060944 31.8946762085
-36.0052642822 -18.9256935120 31.7024860382
-36.0278129578 -18.9342288971 31.5090541840
-36.0492553711 -18.9422245026 31.3153705597
-36.0725936890 -18.9511451721 31.1221637726
-36.0980377197 -18.9610939026 30.9294891357
-36.1230049133 -18.9708118439 30.7367191315
-36.1440467834 -18.9786109924 30.5430049896
-36.1594924927 -18.9836807251 30.3479290009
-36.1707115173 -18.9866847992 30.1518154144
-36.1813468933 -18.9894027710 29.9555587769
-36.1956939697 -18.9939346313 29.7602233887
-36.2171249390 -19.0019264221 29.5666561127
-36.2466506958 -19.0138702393 29.3751277924
-36.2820053101 -19.0286598206 29.1850833893
-36.3181915283 -19.0438594818 28.9952850342
-36.3495826721 -19.0567150116 28.8043155670
-36.3723640442 -19.0653667450 28.6112003326
-36.3857917786 -19.0694522858 28.4157333374
-36.3914451599 -19.0697383881 28.2182941437
-36.3910827637 -19.0670871735 28.0193176270
-36.3848762512 -19.0615825653 27.8188304901
-36.3714866638 -19.0525665283 27.6164798737
-36.3503456116 -19.0397644043 27.4121055603
-36.3243637085 -19.0246009827 27.2064399719
-36.3002586365 -19.0103492737 27.0012054443
-36.2855644226 -19.0006961823 26.7983589172
-36.2848091125 -18.9978504181 26.5990982056
-36.2977600098 -19.0017013550 26.4033889771
-36.3205604553 -19.0103626251 26.2102546692
-36.3486938477 -19.0216274261 26.0185317993
-36.3798370361 -19.0343627930 25.8276252747
-36.4144325256 -19.0487880707 25.6376571655
-36.4535179138 -19.0654067993 25.4489078522
-36.4960174561 -19.0836925507 25.2611026764
-36.5381698608 -19.1018085480 25.0732498169
-36.5753593445 -19.1175022125 24.8841228485
