52.5389404297 3.0463237762 15.4489002228
52.5240631104 3.0458314419 15.2544507980
52.5039291382 3.0451400280 15.0585737228
52.4722328186 3.0440104008 14.8595714569
52.4253044128 3.0423042774 14.6564397812
52.3647994995 3.0400834084 14.4495925903
52.2975082397 3.0376057625 14.2408361435
52.2321357727 3.0352008343 14.0325078964
52.1757583618 3.0331366062 13.8265266418
52.1320381165 3.0315518379 13.6239061356
52.1011543274 3.0304534435 13.4247150421
52.0808563232 3.0297558308 13.2283678055
52.0681762695 3.0293469429 13.0340700150
52.0608062744 3.0291392803 12.8412065506
52.0575942993 3.0290889740 12.6494703293
52.0583076477 3.0291874409 12.4588060379
52.0631980896 3.0294439793 12.2692871094
52.0726890564 3.0298748016 12.0810432434
52.0873908997 3.0305030346 11.8942489624
52.1081962585 3.0313625336 11.7091646194
52.1361465454 3.0324926376 11.5260887146
52.1715202332 3.0339038372 11.3451137543
52.2125511169 3.0355291367 11.1657600403
52.2549705505 3.0372073650 10.9868431091
52.2935218811 3.0387389660 10.8068885803
52.3243179321 3.0399768353 10.6247940063
52.3458633423 3.0408639908 10.4401235580
52.3581314087 3.0413999557 10.2528514862
52.3610343933 3.0415813923 10.0629377365
52.3538093567 3.0413792133 9.8701448441
52.3358650208 3.0407707691 9.6742877960
52.3085899353 3.0398092270 9.4757413864
52.2762794495 3.0386567116 9.2757139206
52.2446136475 3.0375287533 9.0758266449
52.2177963257 3.0365846157 8.8772878647
52.1970214844 3.0358691216 8.6804475784
52.1811027527 3.0353376865 8.4849777222
52.1676368713 3.0348989964 8.2901906967
52.1531829834 3.0344231129 8.0950956345
52.1332359314 3.0337390900 7.8983831406
52.1028938293 3.0326611996 7.6986155510
52.0579643250 3.0310313702 7.4945521355
51.9960365295 3.0287573338 7.2854590416
51.9179954529 3.0258731842 7.0715641975
51.8296279907 3.0225982666 6.8545360565
51.7405433655 3.0192959309 6.6371784210
51.6593971252 3.0162942410 6.4220447540
51.5885086060 3.0136814117 6.2098336220
51.5218391418 3.0112280846 5.9987750053
51.4481086731 3.0085074902 5.7855343819
51.3577995300 3.0051591396 5.5672659874
51.2495651245 3.0011320114 5.3435397148
51.1314620972 2.9967310429 5.1167254448
51.0164794922 2.9924485683 4.8906903267
50.9166526794 2.9887399673 4.6690487862
50.8405723572 2.9859304428 4.4544091225
50.7948417664 2.9842705727 4.2488064766
50.7860527039 2.9840095043 4.0542840958
50.8198966980 2.9853630066 3.8726344109
50.8980598450 2.9883944988 3.7044489384
51.0154151917 2.9929101467 3.5482547283
51.1595802307 2.9984412193 3.4003598690
51.3135681152 3.0043437481 3.2556355000
51.4605789185 3.0099823475 3.1089701653
51.5889892578 3.0149164200 2.9567911625
51.6954994202 3.0190212727 2.7980530262
51.7851219177 3.0224864483 2.6342527866
51.8670196533 3.0256590843 2.4681813717
51.9475784302 3.0287811756 2.3017961979
52.0254554749 3.0318014622 2.1346771717
52.0931472778 3.0344359875 1.9644956589
52.1434593201 3.0364127159 1.7889981270
52.1741943359 3.0376479626 1.6074676514
52.1878814697 3.0382375717 1.4206557274
52.1890945435 3.0383551121 1.2299584150
52.1825561523 3.0381789207 1.0368306637
52.1723785400 3.0378649235 0.8425486684
52.1616096497 3.0375287533 0.6480628848
52.1517791748 3.0372281075 0.4538543522
52.1425018311 3.0369482040 0.2598023415
52.1313629150 3.0365979671 0.0651455745
17.8508052826 36.0463867188 79.4111251831
17.8551788330 36.0554161072 79.2131881714
17.8620643616 36.0692176819 79.0154800415
17.8676090240 36.0804748535 78.8176651001
17.8702239990 36.0861587524 78.6195907593
17.8705902100 36.0875701904 78.4213104248
17.8704280853 36.0879707336 78.2229766846
17.8719215393 36.0915222168 78.0247955322
17.8779563904 36.1037063599 77.8270492554
17.8919315338 36.1309928894 77.6300964355
17.9162425995 36.1779251099 77.4342041016
17.9503345490 36.2434577942 77.2393493652
17.9903850555 36.3203201294 77.0451812744
18.0310554504 36.3983573914 76.8511810303
18.0672760010 36.4679336548 76.6568145752
18.0945358276 36.5204734802 76.4615859985
18.1088409424 36.5483856201 76.2650375366
18.1080379486 36.5475692749 76.0668869019
18.0937862396 36.5211830139 75.8672561646
18.0719356537 36.4803504944 75.6667327881
18.0505409241 36.4403839111 75.4662094116
18.0369186401 36.4151954651 75.2665023804
17.9982547760 36.3480987549 73.4778671265
17.9993591309 36.3509063721 73.2797317505
18.0018348694 36.3563270569 73.0817642212
18.0042686462 36.3616676331 72.8838043213
18.0069808960 36.3675346375 72.6858749390
18.0121955872 36.3781623840 72.4882812500
18.0216941833 36.3969345093 72.2912597656
18.0344161987 36.4218292236 72.0946884155
18.0469512939 36.4463729858 71.8981246948
18.0560913086 36.4644622803 71.7011260986
18.0602874756 36.4731521606 71.5034637451
18.0589313507 36.4712829590 71.3050308228
18.0510940552 36.4570960999 71.1056823730
18.0358066559 36.4287452698 70.9052505493
18.0140914917 36.3881759644 70.7038574219
17.9904785156 36.3439941406 70.5021286011
17.9712448120 36.3081398010 70.3009796143
17.9602241516 36.2879028320 70.1009750366
17.9565429688 36.2816162109 69.9020233154
17.9565258026 36.2822952271 69.7036056519
17.9570178986 36.2839431763 69.5052642822
17.9567642212 36.2841758728 69.3068008423
17.9557800293 36.2830123901 69.1082229614
17.9543933868 36.2810897827 68.9095764160
17.9528408051 36.2788505554 68.7108993530
18.2255687714 36.8172607422 63.2049140930
18.2239494324 36.8148956299 63.0063705444
18.2225761414 36.8129959106 62.8078689575
18.2220401764 36.8126907349 62.6095237732
18.2234134674 36.8160133362 62.4115447998
18.2281684875 36.8257637024 62.2142372131
18.2374172211 36.8440551758 62.0178337097
18.2506141663 36.8698577881 61.8222427368
18.2649955750 36.8979072571 61.6269187927
18.2769031525 36.9212532043 61.4311218262
18.2840690613 36.9355850220 61.2343826294
18.2864360809 36.9407958984 61.0366706848
18.4901790619 37.3437423706 56.7228355408
18.4885730743 37.3414001465 56.5244102478
18.4869670868 37.3390579224 56.3259773254
18.4853610992 37.3367195129 56.1275367737
18.4837551117 37.3343772888 55.9290847778
18.6970577240 37.7518997192 52.6169357300
18.7195777893 37.7954177856 52.4249687195
18.7596225739 37.8722381592 52.2376823425
18.8068618774 37.9627380371 52.0523986816
18.8508834839 38.0471191406 51.8663749695
18.8842678070 38.1112861633 51.6776123047
18.9043693542 38.1501998901 51.4853591919
18.9125442505 38.1664505005 51.2899284363
19.0503883362 38.4405059814 47.9697685242
19.0488834381 38.4383544922 47.7717895508
19.0473804474 38.4362068176 47.5738029480
19.7879943848 39.8530044556 45.2359657288
19.7974910736 39.8717575073 45.0422782898
19.8120555878 39.9001426697 44.8502006531
19.8235893250 39.9227714539 44.6571998596
19.8269805908 39.9299201965 44.4616470337
19.8228130341 39.9227066040 44.2636947632
19.8159980774 39.9104614258 44.0648841858
19.8119831085 39.9035377502 43.8669471741
19.8138122559 39.9077224731 43.6708755493
19.8214702606 39.9229812622 43.4766845703
19.8328647614 39.9453430176 43.2837219238
19.8458080292 39.9706497192 43.0912895203
19.8599700928 39.9982681274 42.8992843628
19.8771648407 40.0316543579 42.7083053589
19.8994388580 40.0746879578 42.5190429688
19.9266452789 40.1270980835 42.3314628601
19.9557323456 40.1830863953 42.1445693970
19.9823436737 40.2343673706 41.9569244385
20.0033531189 40.2749977112 41.7674674988
20.0184020996 40.3043022156 41.5760574341
20.0295658112 40.3262252808 41.3833732605
20.0400409698 40.3468399048 41.1904792786
20.0530433655 40.3722572327 40.9984626770
20.0708408356 40.4067840576 40.8081130981
20.0938911438 40.4512939453 40.6196060181
20.1210269928 40.5035705566 40.4325561523
20.1508216858 40.5608978271 40.2464866638
20.1825084686 40.6218223572 40.0611457825
20.2153568268 40.6849517822 39.8762855530
20.2477684021 40.7472496033 39.6913528442
20.2776641846 40.8047714233 39.5056190491
20.3037948608 40.8551330566 39.3186340332
20.3262710571 40.8985481262 39.1304206848
20.3460559845 40.9368515015 38.9413108826
20.3644504547 40.9725151062 38.7517509460
20.3829708099 41.0084152222 38.5622825623
20.4027805328 41.0467681885 38.3733139038
20.4239063263 41.0876159668 38.1848678589
20.4454402924 41.1292419434 37.9966163635
20.4666595459 41.1702690125 37.8083038330
20.4874057770 41.2103996277 37.6198654175
20.5073394775 41.2489852905 37.4311828613
20.5252208710 41.2836685181 37.2417984009
20.5390071869 41.3105735779 37.0509490967
20.5468673706 41.3262138367 36.8579521179
20.5491027832 41.3311653137 36.6628913879
20.5497779846 41.3331489563 36.4672508240
20.5556621552 41.3450355530 36.2735481262
20.5723915100 41.3775329590 36.0839042664
20.6012248993 41.4330253601 35.8988342285
20.6394348145 41.5063400269 35.7173576355
20.6832714081 41.5903472900 35.5380973816
20.7297973633 41.6794662476 35.3599624634
20.7760601044 41.7680816650 35.1818466187
20.8178691864 41.8482322693 35.0021476746
20.8509292603 41.9117584229 34.8192024231
20.8734931946 41.9553375244 34.6323127747
20.8875808716 41.9828109741 34.4422149658
20.8977146149 42.0027694702 34.2506217957
20.9088134766 42.0245628357 34.0594215393
20.9247436523 42.0555381775 33.8701248169
20.9479656219 42.1003646851 33.6837081909
20.9796676636 42.1613121033 33.5006675720
21.0194416046 42.2375946045 33.3208732605
21.0643577576 42.3236465454 33.1432037354
21.1088829041 42.4089546204 32.9654922485
21.1467361450 42.4815864563 32.7852439880
21.1739482880 42.5340003967 32.6008529663
21.1910610199 42.5672187805 32.4124984741
21.2024230957 42.5895080566 32.2218780518
21.2127819061 42.6098937988 32.0308799744
21.2244033813 42.6326751709 31.8404140472
21.2373409271 42.6579627991 31.6505050659
21.2514686584 42.6855087280 31.4611072540
21.2672500610 42.7161979675 31.2724151611
21.2850914001 42.7508010864 31.0845985413
21.3054218292 42.7901344299 30.8978424072
21.3296070099 42.8367919922 30.7127189636
21.3596248627 42.8945312500 30.5300559998
21.3962459564 42.9648170471 30.3501949310
21.4379062653 43.0446777344 30.1725139618
21.4812774658 43.1277885437 29.9956474304
21.5221595764 43.2061729431 29.8178501129
21.5561904907 43.2715377808 29.6372852325
21.5801467896 43.3177566528 29.4525756836
21.5933933258 43.3436279297 29.2634124756
21.5978393555 43.3527755737 29.0705604553
21.5966510773 43.3512153625 28.8753280640
21.5934505463 43.3458328247 28.6792335510
21.5925540924 43.3448295593 28.4841098785
21.5988178253 43.3574333191 28.2920379639
21.6160507202 43.3908767700 28.1046829224
21.6449184418 43.4464302063 27.9223728180
21.6819210052 43.5174369812 27.7436408997
21.7202205658 43.5909080505 27.5655612946
21.7520427704 43.6520729065 27.3847656250
21.7716655731 43.6900558472 27.1987361908
21.7776737213 43.7021713257 27.0068092346
21.7736072540 43.6951446533 26.8104801178
21.7669963837 43.6832809448 26.6130199432
21.7669448853 43.6838798523 26.4184265137
21.7808742523 43.7110443115 26.2300052643
21.8117179871 43.7703514099 26.0491085052
21.8570747375 43.8572311401 25.8747367859
21.9108123779 43.9600372314 25.7042102814
21.9661636353 44.0659027100 25.5345401764
22.0181884766 44.1654510498 25.3635196686
22.0639724731 44.2531433105 25.1898212433
22.1011905670 44.3245544434 25.0123748779
22.1276035309 44.3754386902 24.8301353455
22.1423988342 44.4042434692 24.6426906586
22.1473922729 44.4144325256 24.4508247375
22.1465950012 44.4136123657 24.2563266754
22.1448135376 44.4109230042 24.0613689423
22.1463050842 44.4144592285 23.8679065704
22.1536521912 44.4291152954 23.6771335602
22.1670722961 44.4553070068 23.4891757965
22.1846790314 44.4894599915 23.3031864166
22.2034454346 44.5258140564 23.1177730560
22.2203617096 44.5586509705 22.9315433502
22.2333908081 44.5841026306 22.7435417175
22.2417812347 44.6007423401 22.5533981323
22.2457218170 44.6089248657 22.3611850739
22.2458839417 44.6099319458 22.1672019958
22.2432613373 44.6056442261 21.9719009399
22.2392673492 44.5987510681 21.7759418488
22.2358283997 44.5929145813 21.5802288055
22.2354640961 44.5929222107 21.3859653473
22.2412967682 44.6046981812 21.1946487427
22.2566223145 44.6345138550 21.0078811646
22.2836055756 44.6864776611 20.8267345428
22.3215751648 44.7593116760 20.6509304047
22.3664226532 44.8452186584 20.4785366058
22.4120349884 44.9325752258 20.3066215515
22.4526920319 45.0105171204 20.1324195862
22.4847640991 45.0721473694 19.9541492462
22.5072898865 45.1156425476 19.7713088989
22.5218811035 45.1440582275 19.5846462250
22.5320320129 45.1640396118 19.3958435059
22.5417385101 45.1831779480 19.2068424225
22.5539360046 45.2070465088 19.0190906525
22.5697307587 45.2377510071 18.8331394196
22.5888404846 45.2747535706 18.6488647461
22.6105079651 45.3166160583 18.4659023285
22.6339702606 45.3618850708 18.2838859558
22.6583728790 45.4089431763 18.1023921967
22.6825256348 45.4555282593 17.9208335876
22.7048206329 45.4985771179 17.7384014130
22.7236518860 45.5350494385 17.5542812347
22.7380771637 45.5631523132 17.3679866791
22.7478160858 45.5823478699 17.1793556213
22.7529525757 45.5928001404 16.9884166718
22.7544403076 45.5963249207 16.7956333160
22.7548847198 45.5978622437 16.6023178101
22.7577724457 45.6040458679 16.4102458954
22.7656764984 45.6197586060 16.2207412720
22.7797412872 45.6471710205 16.0344123840
22.8006782532 45.6876449585 15.8516502380
22.8289508820 45.7420501709 15.6727170944
22.8633365631 45.8080749512 15.4970130920
22.8998718262 45.8781776428 15.3225049973
22.9326248169 45.9410934448 15.1461229324
22.9555759430 45.9853897095 14.9647178650
22.9643878937 46.0028266907 14.7759895325
22.9580345154 45.9914550781 14.5793447495
22.9400634766 45.9580039978 14.3765840530
22.9182033539 45.9171714783 14.1717290878
22.9014434814 45.8860244751 13.9695005417
22.8961086273 45.8765830994 13.7732591629
22.9040775299 45.8924179077 13.5840473175
22.9240703583 45.9310913086 13.4012355804
22.9536933899 45.9880638123 13.2235956192
22.9902000427 46.0581130981 13.0497016907
23.0303211212 46.1350250244 12.8778295517
23.0703163147 46.2117004395 12.7059898376
23.1061782837 46.2805252075 12.5320281982
23.1339759827 46.3340225220 12.3538084030
23.1510677338 46.3671913147 12.1698770523
23.1578998566 46.3808631897 11.9804296494
23.1585807800 46.3828468323 11.7876577377
23.1591758728 46.3846702576 11.5948371887
23.1649093628 46.3962593079 11.4048156738
23.1784915924 46.4227523804 11.2190914154
23.2002220154 46.4647293091 11.0378627777
23.2285709381 46.5192794800 10.8603191376
23.2602577209 46.5801658630 10.6846809387
23.2907829285 46.6388473511 10.5084800720
23.3163318634 46.6880760193 10.3296012878
23.3357582092 46.7256698608 10.1473903656
23.3507595062 46.7548599243 9.9627676010
23.3641071320 46.7809104919 9.7772569656
23.3775005341 46.8070449829 9.5918025970
23.3906593323 46.8327369690 9.4062480927
23.4021453857 46.8552474976 9.2197837830
23.4110183716 46.8727989197 9.0318765640
23.4179935455 46.8867416382 8.8429183960
23.4254627228 46.9016227722 8.6542520523
23.4365329742 46.9233436584 8.4676380157
23.4533786774 46.9560394287 8.2843255997
23.4757843018 46.9992904663 8.1042108536
23.5011920929 47.0482482910 7.9258608818
23.5263042450 47.0966453552 7.7474036217
23.5484142303 47.1393394470 7.5672879219
23.5652408600 47.1719932556 7.3841943741
23.5743751526 47.1900367737 7.1967163086
23.5737304688 47.1895027161 7.0036220551
23.5628452301 47.1695213318 6.8046083450
23.5439090729 47.1342391968 6.6009001732
23.5216732025 47.0926971436 6.3952255249
23.5022907257 47.0565681458 6.1911463737
23.4914531708 47.0366744995 5.9919924736
23.4924716949 47.0393028259 5.7997303009
23.5048351288 47.0634803772 5.6141057014
23.5241127014 47.1007919312 5.4325652122
23.5437622070 47.1388053894 5.2512869835
23.5580272675 47.1665954590 5.0668840408
23.5640354156 47.1787033081 4.8776373863
23.5620594025 47.1756439209 4.6836771965
23.5547904968 47.1625251770 4.4865670204
23.5464420319 47.1473579407 4.2887921333
23.5414142609 47.1385040283 4.0929694176
23.5425319672 47.1413192749 3.9007983208
23.5502700806 47.1567115784 3.7125852108
23.5640392303 47.1835556030 3.5280034542
23.5843257904 47.2227859497 3.3473689556
23.6132736206 47.2784614563 3.1719970703
23.6528835297 47.3543930054 3.0031304359
23.7025833130 47.4494895935 2.8404631615
23.7584629059 47.5563240051 2.6816656590
23.8147258759 47.6638870239 2.5232410431
23.8660430908 47.7620544434 2.3619468212
23.9092502594 47.8448181152 2.1958348751
23.9436016083 47.9107551575 2.0244169235
23.9697170258 47.9610557556 1.8480398655
23.9882946014 47.9970321655 1.6670981646
23.9997749329 48.0195312500 1.4818350077
24.0050411224 48.0302238464 1.2927663326
24.0059928894 48.0327186584 1.1010404825
24.0052680969 48.0320320129 0.9082758427
24.0056705475 48.0334892273 0.7162039876
24.0098743439 48.0421638489 0.5264914036
24.0202312469 48.0625267029 0.3406179249
24.0381507874 48.0972557068 0.1594868600
59.8310432434 -4.5460152626 79.5736770630
59.8546371460 -4.5481457710 79.3907775879
59.8954124451 -4.5518779755 79.2088775635
59.9454345703 -4.5564723015 79.0275421143
59.9921684265 -4.5607600212 78.8460845947
60.0233802795 -4.5636005402 78.6637725830
60.0331573486 -4.5644431114 78.4802398682
60.0238380432 -4.5635051727 78.2955780029
60.0023956299 -4.5614371300 78.1101760864
59.9752769470 -4.5588397980 77.9243927002
59.9463233948 -4.5560712814 77.7384643555
59.9188003540 -4.5534362793 77.5525817871
59.8981132507 -4.5514383316 77.3670883179
59.8908653259 -4.5506935120 77.1824111938
59.9003791809 -4.5515112877 76.9987869263
59.9237556458 -4.5536217690 76.8160629272
59.9539680481 -4.5563693047 76.6338043213
59.9839096069 -4.5590910912 76.4515609741
60.0082702637 -4.5612931252 76.2689819336
60.0234985352 -4.5626440048 76.0858230591
60.0278587341 -4.5629816055 75.9019393921
60.0218925476 -4.5623559952 75.7173538208
60.0082283020 -4.5610127449 75.5322341919
59.9902114868 -4.5592641830 75.3467788696
59.9700889587 -4.5573186874 75.1611557007
59.9483108521 -4.5552191734 74.9753875732
59.9248542786 -4.5529632568 74.7894592285
59.9010505676 -4.5506744385 74.6034774780
59.8795356750 -4.5485997200 74.4176254272
59.8625068665 -4.5469427109 74.2320709229
59.8504409790 -4.5457487106 74.0468521118
59.8424606323 -4.5449352264 73.8619232178
59.8372955322 -4.5443844795 73.6771926880
59.8337249756 -4.5439825058 73.4925613403
59.8303184509 -4.5435957909 73.3079376221
59.8244934082 -4.5429835320 73.1231231689
59.8113784790 -4.5416913033 72.9377288818
59.7841529846 -4.5390834808 72.7512054443
59.7377014160 -4.5346837044 72.5631332397
59.6737594604 -4.5286531448 72.3736114502
59.6020126343 -4.5218939781 72.1833724976
59.5345420837 -4.5155344009 71.9933929443
59.4789772034 -4.5102844238 71.8042831421
59.4367904663 -4.5062813759 71.6161956787
59.4061088562 -4.5033516884 71.4290008545
59.3837089539 -4.5011940002 71.2424545288
59.3650703430 -4.4993867874 71.0561904907
59.3456077576 -4.4975028038 70.8698272705
59.3242149353 -4.4954385757 70.6832656860
59.3055992126 -4.4936337471 70.4969177246
59.2977142334 -4.4928293228 70.3114624023
59.3052711487 -4.4934644699 70.1273422241
59.3254165649 -4.4952735901 69.9443206787
59.3500900269 -4.4975042343 69.7617263794
59.3722076416 -4.4994974136 69.5789260864
59.3891906738 -4.5010113716 69.3956909180
59.4016304016 -4.5021018982 69.2120590210
59.4104347229 -4.5028538704 69.0281143188
59.4155540466 -4.5032615662 68.8438339233
59.4161720276 -4.5032496452 68.6591491699
59.4111747742 -4.5027141571 68.4739303589
59.3994102478 -4.5015482903 68.2880783081
59.3804321289 -4.4997096062 68.1015243530
59.3557739258 -4.4973406792 67.9144058228
59.3294754028 -4.4948191643 67.7270965576
59.3066253662 -4.4926190376 67.5400772095
59.2908172607 -4.4910759926 67.3537063599
59.2828598022 -4.4902644157 67.1680679321
59.2814407349 -4.4900627136 66.9830551147
59.2845001221 -4.4902787209 66.7984771729
59.2901229858 -4.4907336235 66.6141510010
59.2967681885 -4.4912838936 66.4299240112
59.3032379150 -4.4918179512 66.2456893921
59.3084602356 -4.4922351837 66.0613327026
59.3111801147 -4.4924197197 65.8767166138
59.3094711304 -4.4921908379 65.6916580200
59.3001976013 -4.4912567139 65.5058059692
59.2791900635 -4.4892282486 65.3187332153
59.2427864075 -4.4857645035 65.1300201416
59.1905288696 -4.4808220863 64.9396057129
59.1274528503 -4.4748711586 64.7479782104
59.0635986328 -4.4688477516 64.5561904907
59.0097198486 -4.4637541771 64.3653793335
58.9720764160 -4.4601750374 64.1762313843
58.9510917664 -4.4581484795 63.9888191223
58.9440383911 -4.4574213028 63.8028907776
58.9472579956 -4.4576516151 63.6180686951
58.9556694031 -4.4583668709 63.4338111877
58.9623374939 -4.4589190483 63.2493705750
58.9604072571 -4.4586696625 63.0639762878
58.9457550049 -4.4572339058 62.8771591187
58.9176979065 -4.4545478821 62.6888198853
58.8787460327 -4.4508461952 62.4992065430
58.8357849121 -4.4467706680 62.3090858459
58.8007545471 -4.4434347153 62.1198120117
58.7861900330 -4.4420065880 61.9328346252
58.7967491150 -4.4429216385 61.7487297058
58.8250198364 -4.4454884529 61.5666847229
58.8565483093 -4.4483590126 61.3850479126
58.8785743713 -4.4503431320 61.2023353577
58.8838195801 -4.4507632256 61.0176696777
58.8679656982 -4.4492149353 60.8305091858
58.8265914917 -4.4452872276 60.6402816772
58.7563896179 -4.4386711121 60.4465522766
58.6597595215 -4.4295911789 60.2495498657
58.5480804443 -4.4191069603 60.0506019592
58.4395828247 -4.4089202881 59.8518981934
58.3527336121 -4.4007515907 59.6556930542
58.2994728088 -4.3957152367 59.4635009766
58.2817611694 -4.3939938545 59.2756233215
58.2917747498 -4.3948578835 59.0911560059
58.3152847290 -4.3969807625 58.9083786011
58.3373527527 -4.3989686966 58.7254486084
58.3473815918 -4.3998341560 58.5410232544
58.3404388428 -4.3991169930 58.3544578552
58.3159866333 -4.3967671394 58.1656532288
58.2776184082 -4.3931198120 57.9750328064
58.2334594727 -4.3889317513 57.7836151123
58.1936988831 -4.3851542473 57.5927047729
58.1657142639 -4.3824748993 57.4032669067
58.1512756348 -4.3810582161 57.2155532837
58.1474647522 -4.3806333542 57.0292129517
58.1489944458 -4.3807063103 56.8435630798
58.1505546570 -4.3807821274 56.6579132080
58.1493606567 -4.3806009293 56.4718971252
58.1461296082 -4.3802299500 56.2855987549
58.1431312561 -4.3798804283 56.0993270874
58.1414985657 -4.3796582222 55.9132270813
58.1407165527 -4.3795156479 55.7272377014
58.1397361755 -4.3793544769 55.5412139893
58.1376419067 -4.3790893555 55.3550300598
58.1333389282 -4.3786182404 55.1685409546
58.1260986328 -4.3778734207 54.9816322327
58.1182098389 -4.3770680428 54.7946205139
58.1169509888 -4.3768806458 54.6085166931
58.1306076050 -4.3780841827 54.4244918823
58.1597671509 -4.3807339668 54.2426567078
58.1940956116 -4.3838653564 54.0615806580
58.2192649841 -4.3861432076 53.8792457581
58.2252311707 -4.3866295815 53.6942062378
58.2077026367 -4.3849253654 53.5058097839
58.1663398743 -4.3809976578 53.3139648438
58.1049118042 -4.3751993179 53.1191711426
58.0314750671 -4.3682808876 52.9225540161
57.9559249878 -4.3611650467 52.7255325317
57.8880310059 -4.3547635078 52.5295333862
57.8380432129 -4.3500318527 52.3360671997
57.8153953552 -4.3478498459 52.1465606689
57.8230285645 -4.3484916687 51.9615020752
57.8532066345 -4.3512363434 51.7797966003
57.8909606934 -4.3546872139 51.5992584229
57.9219779968 -4.3575100899 51.4177513123
57.9370498657 -4.3588461876 51.2338790894
57.9314460754 -4.3582534790 51.0468978882
57.9038276672 -4.3556075096 50.8565635681
57.8577308655 -4.3512387276 50.6633720398
57.8026390076 -4.3460307121 50.4687423706
57.7506752014 -4.3411145210 50.2745170593
57.7105827332 -4.3373055458 50.0820579529
57.6846694946 -4.3348188400 49.8917350769
57.6706771851 -4.3334441185 49.7032279968
57.6653823853 -4.3328800201 49.5160598755
57.6665458679 -4.3329186440 49.3298912048
57.6732101440 -4.3334703445 49.1445846558
57.6856918335 -4.3345642090 48.9602012634
57.7054939270 -4.3363413811 48.7769927979
57.7338676453 -4.3389172554 48.5951652527
57.7685966492 -4.3420867920 48.4143905640
57.8014984131 -4.3450851440 48.2333564758
57.8196830750 -4.3467111588 48.0499877930
57.8102569580 -4.3457622528 47.8621711731
57.7659530640 -4.3415603638 47.6686668396
57.6901741028 -4.3344225883 47.4699745178
57.5986480713 -4.3258161545 47.2686004639
57.5132904053 -4.3177852631 47.0681190491
57.4506454468 -4.3118724823 46.8712730408
57.4147377014 -4.3084535599 46.6787719727
57.3999404907 -4.3070034981 46.4897308350
57.3984947205 -4.3067984581 46.3028907776
57.4046707153 -4.3073043823 46.1173248291
57.4139900208 -4.3081035614 45.9322891235
57.4214401245 -4.3087282181 45.7469406128
57.4220581055 -4.3087162971 45.5604438782
57.4126739502 -4.3077707291 45.3722419739
57.3922462463 -4.3057951927 45.1821365356
57.3608322144 -4.3027954102 44.9901199341
57.3196868896 -4.2988877296 44.7963867188
57.2732963562 -4.2944903374 44.6016921997
57.2304916382 -4.2904281616 44.4075508118
57.2018051147 -4.2876825333 44.2158088684
57.1946830750 -4.2869482040 44.0277862549
57.2103500366 -4.2883391380 43.8437385559
57.2433280945 -4.2913451195 43.6627464294
57.2829666138 -4.2949719429 43.4829673767
57.3170509338 -4.2980809212 43.3022499084
57.3361206055 -4.2997894287 43.1189041138
57.3353347778 -4.2996463776 42.9320373535
57.3140220642 -4.2975883484 42.7414970398
57.2758598328 -4.2939586639 42.5478973389
57.2293701172 -4.2895522118 42.3527450562
57.1853446960 -4.2853755951 42.1579742432
57.1516532898 -4.2821631432 41.9650192261
57.1300506592 -4.2800779343 41.7742156982
57.1169929504 -4.2787899971 41.5849418640
57.1059265137 -4.2776875496 41.3960113525
57.0891609192 -4.2760534286 41.2060127258
57.0603370667 -4.2732944489 41.0137634277
57.0181045532 -4.2692852020 40.8189926147
56.9680557251 -4.2645468712 40.6227073669
56.9197311401 -4.2599692345 40.4266777039
56.8806495667 -4.2562532425 40.2323112488
56.8529586792 -4.2536001205 40.0400276184
56.8348617554 -4.2518424988 39.8495101929
56.8237113953 -4.2507319450 39.6602783203
56.8174171448 -4.2500743866 39.4719467163
56.8139991760 -4.2496852875 39.2841529846
56.8105316162 -4.2492914200 39.0963363647
56.8023910522 -4.2484622002 38.9076156616
56.7833518982 -4.2466158867 38.7167892456
56.7473220825 -4.2431845665 38.5226593018
56.6915893555 -4.2379159927 38.3246650696
56.6190261841 -4.2310767174 38.1233367920
56.5368995667 -4.2233457565 37.9200439453
56.4541702271 -4.2155590057 37.7165298462
56.3799476624 -4.2085652351 37.5145721436
56.3220138550 -4.2030906677 37.3157157898
56.2840347290 -4.1994776726 37.1207160950
56.2640075684 -4.1975393295 36.9292106628
56.2559852600 -4.1967206001 36.7400627136
56.2532920837 -4.1963987350 36.5519561768
56.2504882813 -4.1960668564 36.3638191223
56.2438240051 -4.1953749657 36.1749000549
56.2310943604 -4.1941165924 35.9847526550
56.2113418579 -4.1922039986 35.7931632996
56.1841697693 -4.1895990372 35.6000480652
56.1485328674 -4.1862039566 35.4051742554
56.1021308899 -4.1818051338 35.2080650330
56.0430984497 -4.1762280464 35.0083084106
55.9732170105 -4.1696391106 34.8062553406
55.8995666504 -4.1626982689 34.6033325195
55.8325729370 -4.1563782692 34.4016838074
55.7815170288 -4.1515450478 34.2032394409
55.7506179810 -4.1485919952 34.0089035034
55.7381134033 -4.1473550797 33.8183441162
55.7379798889 -4.1472721100 33.6303482056
55.7421531677 -4.1475906372 33.4432449341
55.7425804138 -4.1475601196 33.2553558350
55.7333221436 -4.1466255188 33.0654258728
55.7113533020 -4.1445059776 32.8727951050
55.6754188538 -4.1410832405 32.6771774292
55.6255149841 -4.1363573074 32.4785423279
55.5650749207 -4.1306486130 32.2775955200
55.5027122498 -4.1247606277 32.0761566162
55.4493026733 -4.1197075844 31.8765544891
55.4119987488 -4.1161570549 31.6803379059
55.3910675049 -4.1141338348 31.4875965118
55.3818092346 -4.1131992340 31.2973480225
55.3783836365 -4.1128087044 31.1083450317
55.3761329651 -4.1125283241 30.9195880890
55.3719062805 -4.1120634079 30.7303924561
55.3632698059 -4.1111869812 30.5402240753
55.3476333618 -4.1096572876 30.3485031128
55.3223915100 -4.1072320938 30.1546478271
55.2867088318 -4.1038327217 29.9584522247
55.2435913086 -4.0997395515 29.7605609894
55.1994476318 -4.0955510139 29.5623836517
55.1604919434 -4.0918459892 29.3652992249
55.1293067932 -4.0888657570 29.1698951721
55.1051368713 -4.0865402222 28.9760150909
55.0866546631 -4.0847454071 28.7833747864
55.0731430054 -4.0834140778 28.5918235779
55.0626029968 -4.0823602676 28.4009227753
55.0498771667 -4.0811018944 28.2095069885
55.0282058716 -4.0790100098 28.0160427094
54.9935798645 -4.0757083893 27.8195972443
54.9480018616 -4.0713858604 27.6206073761
54.8985900879 -4.0667052269 27.4206771851
54.8528633118 -4.0623683929 27.2215251923
54.8141708374 -4.0586881638 27.0239276886
54.7804298401 -4.0554695129 26.8274173737
54.7459220886 -4.0521793365 26.6306838989
54.7048912048 -4.0482802391 26.4323883057
54.6557769775 -4.0436277390 26.2321567535
54.6034011841 -4.0386705399 26.0310974121
54.5560188293 -4.0341792107 25.8311328888
54.5194015503 -4.0306916237 25.6336288452
54.4938392639 -4.0282363892 25.4386711121
54.4761047363 -4.0265107155 25.2455215454
54.4627609253 -4.0251951218 25.0533809662
54.4516143799 -4.0240840912 24.8617401123
54.4412345886 -4.0230445862 24.6702632904
54.4298324585 -4.0219101906 24.4785232544
54.4143333435 -4.0203928947 24.2857837677
54.3906402588 -4.0181117058 24.0910606384
54.3558807373 -4.0147976875 23.8936443329
54.3111686707 -4.0105552673 23.6937828064
54.2617912292 -4.0058774948 23.4927349091
54.2139129639 -4.0013399124 23.2919807434
54.1710853577 -3.9972729683 23.0923881531
54.1333618164 -3.9936823845 22.8939762115
54.0981292725 -3.9903244972 22.6961212158
54.0613708496 -3.9868237972 22.4978408813
54.0197486877 -3.9828693867 22.2983188629
53.9726104736 -3.9784004688 22.0973815918
53.9214668274 -3.9735577106 21.8953952789
53.8674926758 -3.9684507847 21.6926383972
53.8105163574 -3.9630641937 21.4890651703
53.7507972717 -3.9574213028 21.2847328186
53.6908874512 -3.9517605305 21.0802726746
53.6348075867 -3.9464573860 20.8766880035
53.5846138000 -3.9417030811 20.6744995117
53.5375671387 -3.9372422695 20.4730319977
53.4876098633 -3.9325101376 20.2707691193
53.4308929443 -3.9271471500 20.0667343140
53.3697128296 -3.9213678837 19.8614940643
53.3098106384 -3.9157075882 19.6564941406
53.2537727356 -3.9104080200 19.4523944855
53.1987609863 -3.9052040577 19.2484836578
53.1413078308 -3.8997721672 19.0438709259
53.0827484131 -3.8942370415 18.8388996124
53.0284385681 -3.8890988827 18.6349391937
52.9822425842 -3.8847172260 18.4329910278
52.9433555603 -3.8810176849 18.2328643799
52.9081840515 -3.8776645660 18.0336437225
52.8732528687 -3.8743340969 17.8344364166
52.8357048035 -3.8707594872 17.6344985962
52.7924079895 -3.8666481972 17.4330120087
52.7402992249 -3.8617148399 17.2291679382
52.6782035828 -3.8558497429 17.0226383209
52.6088218689 -3.8493044376 16.8141136169
52.5389633179 -3.8427150249 16.6053733826
52.4763298035 -3.8367998600 16.3984413147
52.4244651794 -3.8318889141 16.1942710876
52.3807525635 -3.8277387619 15.9921865463
52.3396949768 -3.8238365650 15.7907476425
52.2980575562 -3.8198797703 15.5890970230
52.2573089600 -3.8160064220 15.3876266479
52.2222938538 -3.8126676083 15.1876316071
52.1980285645 -3.8103318214 14.9904670715
52.1868705750 -3.8092191219 14.7967863083
52.1868934631 -3.8091497421 14.6060981750
52.1923561096 -3.8095879555 14.4168720245
52.1963462830 -3.8098886013 14.2272491455
52.1938095093 -3.8095803261 14.0358572006
52.1830406189 -3.8085038662 13.8422203064
52.1656799316 -3.8068122864 13.6467685699
52.1456756592 -3.8048739433 13.4505681992
52.1268539429 -3.8030464649 13.2546615601
52.1098136902 -3.8013846874 13.0592145920
52.0903930664 -3.7995009422 12.8630867004
52.0610351563 -3.7966902256 12.6641912460
52.0141410828 -3.7922427654 12.4604101181
51.9456443787 -3.7857797146 12.2505855560
51.8565864563 -3.7773981094 12.0349645615
51.7517471313 -3.7675437927 11.8148374557
51.6373214722 -3.7567951679 11.5919008255
51.5199851990 -3.7457745075 11.3680009842
51.4068794250 -3.7351489067 11.1451330185
51.3058242798 -3.7256474495 10.9254970551
51.2256927490 -3.7180984020 10.7116127014
51.1754646301 -3.7133400440 10.5060510635
51.1610183716 -3.7119200230 10.3105278015
51.1819305420 -3.7137994766 10.1249933243
51.2305870056 -3.7182679176 9.9473533630
51.2942314148 -3.7241346836 9.7740306854
51.3600921631 -3.7302086353 9.6014175415
51.4209480286 -3.7358155251 9.4274520874
51.4760055542 -3.7408812046 9.2518978119
51.5265312195 -3.7455241680 9.0751094818
51.5715065002 -3.7496490479 8.8967819214
51.6076850891 -3.7529530525 8.7159729004
51.6324806213 -3.7551951408 8.5319166183
51.6455459595 -3.7563426495 8.3444910049
51.6476936340 -3.7564711571 8.1539087296
51.6394119263 -3.7556266785 7.9602937698
51.6212425232 -3.7538592815 7.7637810707
51.5957565308 -3.7514092922 7.5651044846
51.5689163208 -3.7488327026 7.3659934998
51.5487670898 -3.7468807697 7.1688065529
51.5419845581 -3.7461760044 6.9755167961
51.5503921509 -3.7468888760 6.7866878510
51.5692405701 -3.7485756874 6.6009459496
51.5882377625 -3.7502768040 6.4152679443
51.5956764221 -3.7508990765 6.2261815071
51.5837821960 -3.7497174740 6.0313568115
51.5518035889 -3.7466614246 5.8305325508
51.5048179626 -3.7422051430 5.6251859665
51.4494247437 -3.7369639874 5.4172596931
51.3892898560 -3.7312805653 5.2078394890
51.3240394592 -3.7251195908 4.9968008995
51.2525596619 -3.7183773518 4.7838010788
51.1771659851 -3.7112696171 4.5695238113
51.1037178040 -3.7043435574 4.3557348251
51.0386238098 -3.6981973648 4.1443777084
50.9871864319 -3.6933250427 3.9370758533
50.9540176392 -3.6901578903 3.7352583408
50.9429244995 -3.6890509129 3.5401201248
50.9555969238 -3.6901614666 3.3522179127
50.9907302856 -3.6933679581 3.1711981297
51.0445251465 -3.6983163357 2.9959406853
51.1119499207 -3.7045361996 2.8249316216
51.1868782043 -3.7114567757 2.6563143730
51.2607803345 -3.7182815075 2.4874699116
51.3224411011 -3.7239639759 2.3149306774
51.3612174988 -3.7275106907 2.1353757381
51.3717575073 -3.7284224033 1.9471005201
51.3563499451 -3.7269127369 1.7507642508
51.3238868713 -3.7238109112 1.5490864515
51.2869224548 -3.7202897072 1.3459588289
51.2585792542 -3.7175726891 1.1454761028
51.2496185303 -3.7166645527 0.9510296583
51.2655334473 -3.7180776596 0.7643824220
51.3040428162 -3.7215995789 0.5848634243
51.3552398682 -3.7263052464 0.4093901813
51.4061203003 -3.7309820652 0.2338781506
51.4471130371 -3.7347354889 0.0552924350
24.1998043060 35.9522247314 79.1435775757
24.1979408264 35.9501571655 78.9469604492
24.1960773468 35.9480895996 78.7503356934
24.1942157745 35.9460220337 78.5537109375
24.1923618317 35.9439697266 78.3570709229
24.1905612946 35.9419860840 78.1604232788
24.1889743805 35.9403114319 77.9637908936
24.1881256104 35.9396781921 77.7672042847
24.1892337799 35.9418144226 77.5707702637
24.1942901611 35.9495429993 77.3746490479
24.2051620483 35.9654998779 77.1790161133
24.2217712402 35.9895782471 76.9838790894
24.2409915924 36.0173492432 76.7889938354
24.2580413818 36.0420494080 76.5939483643
24.2694797516 36.0588073730 76.3984603882
24.2748661041 36.0670013428 76.2024536133
24.2759113312 36.0690498352 76.0060729980
24.2746353149 36.0678138733 75.8094787598
24.2722339630 36.0649833679 75.6127853394
24.2687835693 36.0606689453 75.4159774780
24.2632503510 36.0534057617 75.2189636230
24.2537670135 36.0405540466 75.0215682983
24.2387027740 36.0198020935 74.8236160278
24.2184219360 35.9916687012 74.6251296997
24.1961650848 35.9607353210 74.4264068604
24.1765155792 35.9334983826 74.2278900146
24.1626415253 35.9144325256 74.0298919678
24.1551647186 35.9044189453 73.8325042725
24.1536102295 35.9027862549 73.6356887817
24.1584033966 35.9101409912 73.4395141602
24.1711921692 35.9288101196 73.2441711426
24.1931915283 35.9605140686 73.0498046875
24.2232265472 36.0035934448 72.8563156128
24.2574462891 36.0525970459 72.6633377075
24.2910060883 36.1006584167 72.4703521729
24.3198719025 36.1420860291 72.2769241333
24.3411159515 36.1727180481 72.0827178955
24.3524341583 36.1893081665 71.8874511719
24.3530044556 36.1906814575 71.6910171509
24.3451404572 36.1801223755 71.4936294556
24.3338050842 36.1646499634 71.2958297729
24.3236064911 36.1507873535 71.0981292725
24.3164997101 36.1412963867 70.9007568359
24.3121089935 36.1356544495 70.7036819458
24.3093376160 36.1323013306 70.5067825317
24.3073101044 36.1300010681 70.3099670410
24.3054981232 36.1280021667 70.1131591797
24.3628997803 36.2143669128 68.3510360718
24.3805789948 36.2399559021 68.1567535400
24.4135627747 36.2872047424 67.9645080566
24.4556255341 36.3473052979 67.7735214233
24.5006370544 36.4115715027 67.5830154419
24.5429611206 36.4720382690 67.3922271729
24.5772380829 36.5211181641 67.2004394531
24.5994548798 36.5531311035 67.0070800781
24.6093730927 36.5677337646 66.8120727539
24.6111145020 36.5707664490 66.6159515381
24.6072425842 36.5709800720 64.6515045166
24.6139488220 36.5810356140 64.4560928345
24.6258144379 36.5984001160 64.2614669800
24.6401462555 36.6192474365 64.0672302246
24.6578216553 36.6448326111 63.8735275269
24.6818447113 36.6793975830 63.6808357239
24.7140140533 36.7254905701 63.4894485474
24.7533512115 36.7817268372 63.2992401123
24.7967395782 36.8436965942 63.1097450256
24.8399848938 36.9054641724 62.9203109741
24.8783607483 36.9603385925 62.7301864624
24.9073696136 37.0019569397 62.5386390686
24.9244537354 37.0267028809 62.3452301025
24.9307041168 37.0361137390 62.1500968933
24.9304924011 37.0363845825 61.9539146423
24.9285850525 37.0342559814 61.7574501038
24.9268836975 37.0324134827 61.5610122681
24.9232807159 37.0278854370 61.3642463684
24.9135322571 37.0146598816 61.1664466858
24.8950119019 36.9890174866 60.9671401978
24.8695278168 36.9535255432 60.7666168213
24.8426818848 36.9161033630 60.5657997131
24.8202915192 36.8849868774 60.3656883240
24.8051204681 36.8640861511 60.1667671204
24.7964210510 36.8523445129 59.9689331055
24.7917842865 36.8463516235 59.7717857361
24.7890396118 36.8430366516 59.5749549866
24.7869720459 36.8406791687 59.3782348633
25.2641315460 37.5221481323 57.3076438904
25.2644424438 37.5231552124 57.1117782593
25.2642097473 37.5233917236 56.9158096313
25.2616691589 37.5203666687 56.7193908691
25.2582530975 37.5160980225 56.5227966309
25.1556625366 37.3726310730 55.9149093628
25.1653423309 37.3868942261 55.7207412720
25.1858024597 37.4164161682 55.5287132263
25.2143325806 37.4573554993 55.3383216858
25.2457485199 37.5023803711 55.1485633850
25.2738456726 37.5427017212 54.9581985474
25.2937679291 37.5714607239 54.7662429810
25.3034191132 37.5856857300 54.5722427368
25.3030700684 37.5857582092 54.3762207031
25.2943439484 37.5739784241 54.1784782410
25.2801666260 37.5544853210 53.9795951843
25.2653064728 37.5340270996 53.7805366516
25.2557220459 37.5210304260 53.5825386047
25.2563381195 37.5224723816 53.3866424561
25.2690029144 37.5409622192 53.1932716370
25.2921142578 37.5742301941 53.0021209717
25.3219356537 37.6169967651 52.8124389648
25.3545589447 37.6637229919 52.6234092712
25.3871650696 37.7104301453 52.4344367981
25.4178771973 37.7544555664 52.2451210022
25.4449748993 37.7933654785 52.0550842285
25.4672489166 37.8254508972 51.8640518188
25.4854965210 37.8518371582 51.6721801758
25.5028553009 37.8769683838 51.4801521301
25.5228652954 37.9058456421 51.2887344360
25.5472984314 37.9409866333 51.0983352661
25.5760746002 37.9822731018 50.9089431763
25.6085395813 38.0287742615 50.7204322815
25.6441097260 38.0796699524 50.5326766968
25.6822204590 38.1341629028 50.3455657959
25.7225456238 38.1917877197 50.1590309143
25.7648582458 38.2522239685 49.9730262756
25.8075962067 38.3132629395 49.7872009277
25.8468704224 38.3694000244 49.6006660461
25.8783874512 38.4145622253 49.4124183655
25.9006195068 38.4465827942 49.2220802307
25.9150581360 38.4675788879 49.0299720764
25.9238243103 38.4805488586 48.8365669250
25.9282512665 38.4873771667 48.6421508789
25.9292259216 38.4893226624 48.4469299316
26.6600685120 39.5403366089 42.7761840820
26.6653881073 39.5484275818 42.5827674866
26.6756172180 39.5634651184 42.3906784058
26.6878910065 39.5813941956 42.1991539001
26.6998844147 39.5989265442 42.0075759888
26.7101974487 39.6140823364 41.8155632019
26.7188930511 39.6269493103 41.6231231689
26.7281036377 39.6405448914 41.4308395386
26.7413902283 39.6599044800 41.2396888733
26.7619400024 39.6895446777 41.0505714417
26.7912330627 39.7315521240 40.8639106750
26.8287010193 39.7851257324 40.6795845032
26.8713378906 39.8460121155 40.4967765808
26.9133090973 39.9059600830 40.3138656616
26.9476680756 39.9551315308 40.1288948059
26.9697532654 39.9869422913 39.9405212402
26.9788532257 40.0003776550 39.7485084534
26.9767284393 39.9979362488 39.5533142090
26.9659690857 39.9832763672 39.3556442261
26.9504528046 39.9618911743 39.1565856934
26.9363746643 39.9425392151 38.9579048157
26.9309368134 39.9354095459 38.7616806030
26.9391040802 39.9475250244 38.5693855286
26.9616127014 39.9799346924 38.3812713623
26.9957313538 40.0287666321 38.1965866089
27.0367374420 40.0873451233 38.0139884949
27.0788002014 40.1474151611 37.8317794800
27.1164894104 40.2013015747 37.6483650208
27.1469554901 40.2449645996 37.4628829956
27.1704235077 40.2787322998 37.2753829956
27.1884689331 40.3048248291 37.0863113403
27.2020759583 40.3246383667 36.8959426880
27.2110977173 40.3379631042 36.7042198181
27.2154655457 40.3447074890 36.5111122131
27.2173595428 40.3479499817 36.3172607422
27.2217369080 40.3547058105 36.1241607666
27.2334880829 40.3718948364 35.9333076477
27.2537937164 40.4011840820 35.7450866699
27.2796878815 40.4383811951 35.5586166382
27.3069705963 40.4775390625 35.3726234436
27.3329010010 40.5147857666 35.1862640381
27.3561077118 40.5481796265 34.9991111755
27.3749351501 40.5753784180 34.8106422424
27.3870849609 40.5931282043 34.6201248169
27.3911552429 40.5994529724 34.4271049500
27.3884544373 40.5961914063 34.2319602966
27.3836345673 40.5899391174 34.0361404419
27.3836593628 40.5905380249 33.8418350220
27.3951549530 40.6073608398 33.6511573792
27.4216156006 40.6453590393 33.4652595520
27.4626064301 40.7039070129 33.2840423584
27.5150585175 40.7786750793 33.1065750122
27.5749340057 40.8639411926 32.9315948486
27.6378250122 40.9534759521 32.7577056885
27.6987133026 41.0401725769 32.5832977295
27.7520370483 41.1161689758 32.4065589905
27.7929954529 41.1746749878 32.2259025574
27.8194007874 41.2125930786 32.0405807495
27.8325042725 41.2316894531 31.8509559631
27.8360042572 41.2372055054 31.6582012177
27.8341197968 41.2350997925 31.4636745453
27.8303318024 41.2303009033 31.2685127258
27.8275890350 41.2269821167 31.0736808777
27.8291549683 41.2297592163 30.8802738190
27.8384704590 41.2434997559 30.6894493103
27.8574581146 41.2709236145 30.5018749237
27.8849449158 41.3103675842 30.3171863556
27.9168872833 41.3561172485 30.1340503693
27.9480953217 41.4008255005 29.9507293701
27.9739933014 41.4380226135 29.7656688690
27.9916362762 41.4635429382 29.5778541565
27.9999008179 41.4757957458 29.3868732452
27.9990711212 41.4751815796 29.1927986145
27.9906482697 41.4638290405 28.9961109161
27.9778652191 41.4463043213 28.7979030609
27.9659652710 41.4300346375 28.5999679565
27.9607124329 41.4231681824 28.4043025970
27.9657211304 41.4308128357 28.2121829987
27.9813175201 41.4534378052 28.0237560272
28.0061454773 41.4891204834 27.8385772705
28.0390434265 41.5362167358 27.6562728882
28.0785903931 41.5927238464 27.4763660431
28.1215000153 41.6539840698 27.2977237701
28.1627864838 41.7129478455 27.1185894012
28.1977672577 41.7629890442 26.9373035431
28.2234897614 41.7999382019 26.7527961731
28.2388362885 41.8222084045 26.5646381378
28.2443580627 41.8305778503 26.3729953766
28.2425441742 41.8285751343 26.1787300110
28.2381458282 41.8229141235 25.9835262299
28.2376556396 41.8227806091 25.7897186279
28.2471618652 41.8367881775 25.5995197296
28.2695255280 41.8689842224 25.4139995575
28.3029556274 41.9168357849 25.2325439453
28.3418083191 41.9723548889 25.0531330109
28.3786125183 42.0249748230 24.8730487823
28.4062557220 42.0646400452 24.6896762848
28.4198474884 42.0844268799 24.5011844635
28.4182491302 42.0827255249 24.3071155548
28.4049129486 42.0644226074 24.1086940765
28.3868236542 42.0393943787 23.9084758759
28.3716201782 42.0184516907 23.7092895508
28.3651161194 42.0098114014 23.5133132935
28.3705863953 42.0181083679 23.3217964172
28.3889160156 42.0445976257 23.1351127625
28.4185924530 42.0871353149 22.9527320862
28.4559879303 42.1405944824 22.7733192444
28.4962291718 42.1980743408 22.5950565338
28.5342311859 42.2523880005 22.4160232544
28.5656490326 42.2973899841 22.2345600128
28.5878715515 42.3293838501 22.0496482849
28.6006584167 42.3480300903 21.8611717224
28.6057968140 42.3558578491 21.6697807312
28.6058902740 42.3565483093 21.4764575958
28.6032676697 42.3534011841 21.2820835114
28.5996475220 42.3488426208 21.0873107910
28.5963268280 42.3447036743 20.8926429749
28.5944671631 42.3426361084 20.6985321045
28.5952167511 42.3442535400 20.5054283142
28.5996990204 42.3511543274 20.3137817383
28.6089324951 42.3647766113 20.1239986420
28.6234436035 42.3858604431 19.9363059998
28.6425228119 42.4134101868 19.7504386902
28.6635150909 42.4436607361 19.5653610229
28.6820011139 42.4703674316 19.3793296814
28.6933135986 42.4869308472 19.1904830933
28.6947402954 42.4895057678 18.9977207184
28.6869068146 42.4789886475 18.8012599945
28.6734428406 42.4605064392 18.6025238037
28.6595134735 42.4413604736 18.4035682678
28.6503314972 42.4289321899 18.2064876556
28.6495704651 42.4284172058 18.0127811432
28.6577606201 42.4405632019 17.8226871490
28.6719608307 42.4612121582 17.6350421906
28.6874217987 42.4836349487 17.4479351044
28.6999320984 42.5018920898 17.2596530914
28.7071304321 42.5126342773 17.0692214966
28.7082633972 42.5147972107 16.8763141632
28.7035007477 42.5086212158 16.6809864044
28.6939735413 42.4957046509 16.4836807251
28.6821899414 42.4795989990 16.2854194641
28.6717319489 42.4653701782 16.0876770020
28.6661319733 42.4580078125 15.8919219971
28.6679267883 42.4611053467 15.6992273331
28.6784400940 42.4765357971 15.5101661682
28.6981277466 42.5049438477 15.3249559402
28.7271938324 42.5466156006 15.1437120438
28.7656402588 42.6015548706 14.9664640427
28.8119678497 42.6676368713 14.7926092148
28.8614082336 42.7381248474 14.6201620102
28.9059677124 42.8017082214 14.4457454681
28.9372081757 42.8464546204 14.2657690048
28.9499874115 42.8650894165 14.0780010223
28.9444484711 42.8578147888 13.8824462891
28.9258499146 42.8320693970 13.6812934875
28.9031391144 42.8005065918 13.4783353806
28.8863239288 42.7772865295 13.2778577805
28.8826103210 42.7725906372 13.0829792023
28.8932933807 42.7882614136 12.8943014145
28.9139156342 42.8179893494 12.7099399567
28.9374103546 42.8517799377 12.5268630981
28.9577465057 42.8810997009 12.3424558640
28.9719314575 42.9017219543 12.1554079056
28.9798812866 42.9135246277 11.9656600952
28.9830894470 42.9186248779 11.7738494873
28.9834861755 42.9197425842 11.5808057785
28.9831390381 42.9198112488 11.3874320984
28.9845733643 42.9224014282 11.1948375702
28.9910449982 42.9321136475 11.0044679642
29.0060043335 42.9538307190 10.8178663254
29.0315265656 42.9904861450 10.6359825134
29.0666389465 43.0407066345 10.4584159851
29.1072196960 43.0986595154 10.2833566666
29.1477870941 43.1565971375 10.1083717346
29.1837253571 43.2079811096 9.9313917160
29.2124805450 43.2492103577 9.7512540817
29.2334918976 43.2794837952 9.5676851273
29.2473354340 43.2996215820 9.3809204102
29.2547473907 43.3106651306 9.1912698746
29.2562141418 43.3133010864 8.9989347458
29.2523174286 43.3083457947 8.8041582108
29.2442798615 43.2975387573 8.6074838638
29.2341346741 43.2837486267 8.4098253250
29.2242507935 43.2703285217 8.2122602463
29.2166290283 43.2601089478 8.0157070160
29.2123870850 43.2546691895 7.8206872940
29.2116508484 43.2541885376 7.6272683144
29.2137184143 43.2576713562 7.4351387024
29.2173995972 43.2634391785 7.2437553406
29.2214107513 43.2696685791 7.0525279045
29.2247276306 43.2749214172 6.8609809875
29.2268238068 43.2784423828 6.6688671112
29.2277832031 43.2803573608 6.4762220383
29.2283420563 43.2817115784 6.2833871841
29.2299156189 43.2844963074 6.0910243988
29.2344875336 43.2915191650 5.9000692368
29.2441291809 43.3057136536 5.7115082741
29.2600479126 43.3287849426 5.5259270668
29.2816619873 43.3599128723 5.3430695534
29.3065280914 43.3956375122 5.1617951393
29.3313522339 43.4313049316 4.9805479050
29.3533535004 43.4629783630 4.7980031967
29.3708057404 43.4882202148 4.6133270264
29.3823108673 43.5050468445 4.4258365631
