-39.0933265686 5.6322865486 32.8420219421
-39.1173858643 5.6387848854 32.6480026245
-39.1398773193 5.6450066566 32.4536628723
-39.1584548950 5.6505403519 32.2584838867
-39.1724510193 5.6552677155 32.0623207092
-39.1828651428 5.6593651772 31.8653755188
-39.1905326843 5.6629781723 31.6678276062
-39.1951179504 5.6660504341 31.4695987701
-39.1964378357 5.6685476303 31.2706413269
-39.1958389282 5.6707081795 31.0712471008
-39.1956825256 5.6729464531 30.8719387054
-39.1978149414 5.6755871773 30.6731243134
-39.2031707764 5.6787948608 30.4750213623
-39.2124977112 5.6827011108 30.2778015137
-39.2270240784 5.6875214577 30.0817470551
-39.2483062744 5.6935305595 29.8872222900
-39.2770767212 5.7008547783 29.6944007874
-39.3114585876 5.7091670036 29.5028762817
-39.3462638855 5.7175521851 29.3114795685
-39.3747978210 5.7248344421 29.1186828613
-39.3927192688 5.7302513123 28.9234867096
-39.4012756348 5.7340216637 28.7261543274
-39.4074592590 5.7373738289 28.5282745361
-39.4205131531 5.7419347763 28.3319721222
-39.4466400146 5.7487936020 28.1386947632
-39.4859046936 5.7579612732 27.9484844208
-39.5337524414 5.7686367035 27.7603034973
-39.5847473145 5.7798652649 27.5729045868
-39.6351737976 5.7909932137 27.3854255676
-39.6835632324 5.8017625809 27.1975231171
-39.7294998169 5.8121004105 27.0090923309
-39.7713546753 5.8217201233 26.8197441101
-39.8057174683 5.8300232887 26.6286697388
-39.8298301697 5.8365240097 26.4351959229
-39.8438987732 5.8412613869 26.2393550873
-39.8504066467 5.8446693420 26.0417175293
-39.8519248962 5.8472003937 25.8428840637
-39.8504219055 5.8492016792 25.6433162689
-39.8480911255 5.8510570526 25.4435329437
-39.8474197388 5.8532042503 25.2441349030
-39.8498535156 5.8558974266 25.0454711914
-39.8549575806 5.8590593338 24.8474445343
-39.8616523743 5.8625011444 24.6497974396
-39.8701019287 5.8662505150 24.4525718689
-39.8821601868 5.8706336021 24.2562236786
-39.9003257751 5.8760900497 24.0613746643
-39.9262580872 5.8829097748 23.8684387207
-39.9596405029 5.8910379410 23.6773567200
-39.9984054565 5.9001111984 23.4876327515
-40.0405883789 5.9097843170 23.2987899780
-40.0859985352 5.9200229645 23.1107864380
-40.1355285645 5.9309844971 22.9238548279
-40.1889610291 5.9426307678 22.7379455566
-40.2440376282 5.9545650482 22.5525035858
-40.2974624634 5.9662089348 22.3667049408
-40.3462333679 5.9770345688 22.1797943115
-40.3880462646 5.9866390228 21.9911804199
-40.4206924438 5.9946336746 21.8002948761
-40.4411773682 6.0004925728 21.6063594818
-40.4465255737 6.0036954880 21.4085998535
-40.4371871948 6.0043201447 21.2070941925
-40.4201774597 6.0035996437 21.0036106110
-40.4078407288 6.0036988258 20.8012847900
-40.4114151001 6.0065913200 20.6030082703
-40.4340324402 6.0128245354 20.4096145630
-40.4690399170 6.0212326050 20.2194309235
-40.5053863525 6.0298748016 20.0296230316
-40.5349922180 6.0373339653 19.8381042480
-40.5559043884 6.0432677269 19.6443557739
-40.5703887939 6.0480737686 19.4489479065
-40.5818290710 6.0523452759 19.2527503967
-40.5933952332 6.0566387177 19.0565891266
-40.6079864502 6.0614628792 18.8612213135
-40.6277275085 6.0671911240 18.6672134399
-40.6525688171 6.0738134384 18.4745597839
-40.6795463562 6.0808095932 18.2824916840
-40.7044067383 6.0874347687 18.0898818970
-40.7249183655 6.0932965279 17.8961391449
-40.7431411743 6.0987572670 17.7017993927
-40.7645339966 6.1047739983 17.5083160400
-40.7940444946 6.1122136116 17.3170185089
-40.8322296143 6.1211743355 17.1280689240
-40.8753738403 6.1310043335 16.9404869080
-40.9195365906 6.1410117149 16.7532234192
-40.9636497498 6.1510109901 16.5659904480
-41.0085182190 6.1611418724 16.3790054321
-41.0542716980 6.1714272499 16.1923046112
-41.1001014709 6.1817250252 16.0056705475
-41.1458930969 6.1920161247 15.8190736771
-41.1928710938 6.2025146484 15.6328458786
-41.2427482605 6.2135205269 15.4474601746
-41.2969398499 6.2252826691 15.2633094788
-41.3557586670 6.2378544807 15.0804882050
-41.4169616699 6.2508435249 14.8983879089
-41.4753417969 6.2633380890 14.7155742645
-41.5250854492 6.2743172646 14.5304298401
-41.5630836487 6.2832379341 14.3420753479
-41.5901412964 6.2902402878 14.1507110596
-41.6096725464 6.2959246635 13.9572706223
-41.6258926392 6.3010277748 13.7629146576
-41.6427955627 6.3062505722 13.5687580109
-41.6635818481 6.3121542931 13.3757019043
-41.6898422241 6.3190169334 13.1842012405
-41.7211570740 6.3267641068 12.9941463470
-41.7562332153 6.3351707458 12.8051843643
-41.7949333191 6.3442111015 12.6172819138
-41.8386802673 6.3541355133 12.4308500290
-41.8884811401 6.3651194572 12.2461853027
-41.9424819946 6.3768386841 12.0627727509
-41.9956932068 6.3884191513 11.8791894913
-42.0422210693 6.3988285065 11.6937475204
-42.0783424377 6.4074144363 11.5053596497
-42.1040916443 6.4141840935 11.3140192032
-42.1225395203 6.4196743965 11.1205892563
-42.1377449036 6.4245967865 10.9262332916
-42.1533088684 6.4295821190 10.7319869995
-42.1720542908 6.4351239204 10.5386724472
-42.1959075928 6.4415607452 10.3468570709
-42.2252540588 6.4489579201 10.1566629410
-42.2584800720 6.4570355415 9.9676294327
-42.2931213379 6.4653592110 9.7790403366
-42.3279037476 6.4737081528 9.5905256271
-42.3635253906 6.4822034836 9.4022884369
-42.4011383057 6.4910469055 9.2146739960
-42.4406089783 6.5002150536 9.0276441574
-42.4804649353 6.5094504356 8.8407659531
-42.5189819336 6.5184507370 8.6535291672
-42.5549659729 6.5270075798 8.4655752182
-42.5885772705 6.5351486206 8.2769451141
-42.6224708557 6.5433387756 8.0884313583
-42.6616249084 6.5524487495 7.9015245438
-42.7107276917 6.5632996559 7.7176446915
-42.7710189819 6.5761079788 7.5371837616
-42.8392791748 6.5903091431 7.3591918945
-42.9094161987 6.6048383713 7.1818432808
-42.9748268127 6.6185398102 7.0031414032
-43.0301017761 6.6304674149 6.8214330673
-43.0719642639 6.6400475502 6.6357011795
-43.0995216370 6.6471242905 6.4456477165
-43.1136054993 6.6518445015 6.2515001297
-43.1157035828 6.6544680595 6.0536861420
-43.1076660156 6.6553182602 5.8527503014
-43.0925369263 6.6549286842 5.6496100426
-43.0751533508 6.6541452408 5.4457426071
-43.0610580444 6.6539373398 5.2428541183
-43.0545425415 6.6550550461 5.0422806740
-43.0578536987 6.6578922272 4.8447337151
-43.0717468262 6.6625795364 4.6504664421
-43.0958862305 6.6690583229 4.4593958855
-43.1287078857 6.6770548820 4.2710528374
-43.1676445007 6.6861209869 4.0846519470
-43.2098960876 6.6957654953 3.8993277550
-43.2532386780 6.7056012154 3.7143890858
-43.2972221375 6.7155480385 3.5296938419
-43.3442039490 6.7260179520 3.3459885120
-43.3980369568 6.7376861572 3.1644978523
-43.4599227905 6.7507605553 2.9856123924
-43.5252914429 6.7644429207 2.8078999519
-43.5857849121 6.7772727013 2.6287097931
-43.6346092224 6.7880625725 2.4458673000
-43.6699485779 6.7964940071 2.2587680817
-43.6942825317 6.8030023575 2.0681822300
-43.7121162415 6.8083739281 1.8755289316
-43.7283020020 6.8134584427 1.6823583841
-43.7468719482 6.8189587593 1.4899619818
-43.7694702148 6.8251624107 1.2988752127
-43.7946166992 6.8318119049 1.1086299419
-43.8193359375 6.8383865356 0.9182650447
-43.8423538208 6.8446631432 0.7273665071
-43.8661880493 6.8510828018 0.5367511511
-43.8964920044 6.8586320877 0.3482611179
-43.9394378662 6.8683896065 0.1639238000
-33.5040969849 15.7979478836 80.5252304077
-33.4912071228 15.7935781479 80.3268432617
-33.4721755981 15.7859334946 80.1279983521
-33.4526748657 15.7780370712 79.9290847778
-33.4342041016 15.7706928253 79.7302017212
-33.4135818481 15.7622013092 79.5311279297
-33.3872299194 15.7506542206 79.3316040039
-33.3558692932 15.7364339828 79.1316604614
-33.3251075745 15.7225360870 78.9317092896
-33.3020401001 15.7127408981 78.7322692871
-33.2916145325 15.7096900940 78.5337295532
-33.2956237793 15.7143383026 78.3362655640
-33.3132209778 15.7262334824 78.1398239136
-33.3407287598 15.7434139252 77.9441680908
-33.3710098267 15.7620735168 77.7487487793
-33.3951416016 15.7774524689 77.5528793335
-33.4069709778 15.7862701416 77.3560562134
-33.4068222046 15.7887001038 77.1582794189
-33.4006118774 15.7878980637 76.9600067139
-33.3955612183 15.7877149582 76.7618026733
-33.3968505859 15.7909135818 76.5641021729
-33.4068679810 15.7987642288 76.3671112061
-33.4254570007 15.8111867905 76.1708374023
-33.4500122070 15.8267908096 75.9750823975
-33.4757575989 15.8430299759 75.7794570923
-33.4965209961 15.8566112518 75.5834197998
-33.5059967041 15.8641738892 75.3864288330
-33.4998130798 15.8633871078 75.1880798340
-33.4775085449 15.8540058136 74.9882888794
-33.4424514771 15.8378238678 74.7873306274
-33.3998336792 15.8176136017 74.5856399536
-33.3551139832 15.7962837219 74.3836822510
-33.3137321472 15.7767324448 74.1819534302
-33.2809295654 15.7617578506 73.9809341431
-33.2606849670 15.7534780502 73.7810134888
-33.2541732788 15.7525196075 73.5823287964
-33.2589950562 15.7576036453 73.3846817017
-33.2700538635 15.7660140991 73.1876068115
-33.2819786072 15.7748851776 72.9906311035
-33.2915039063 15.7824773788 72.7934188843
-33.2981071472 15.7885103226 72.5959320068
-33.3028182983 15.7935371399 72.3982620239
-33.3067436218 15.7981424332 72.2005081177
-33.3103866577 15.8025989532 72.0027160645
-33.3138465881 15.8069581985 71.8049011230
-33.3172111511 15.8112668991 71.6070709229
-33.3208465576 15.8157196045 71.4092559814
-33.3253936768 15.8206586838 71.2115325928
-33.3314514160 15.8264017105 71.0139541626
-33.3391761780 15.8330335617 70.8165435791
-33.3481369019 15.8403263092 70.6192626953
-33.3574981689 15.8478307724 70.4220199585
-33.3664779663 15.8551321030 70.2247390747
-33.3749275208 15.8621511459 70.0274047852
-33.3836174011 15.8692970276 69.8301010132
-33.3936500549 15.8771591187 69.6329345703
-33.4051437378 15.8858013153 69.4359283447
-33.4164466858 15.8943395615 69.2389068604
-33.4250793457 15.9014568329 69.0415954590
-33.4297332764 15.9064521790 68.8438491821
-33.4311943054 15.9097461700 68.6457443237
-33.4315490723 15.9124526978 68.4475021362
-33.4328422546 15.9156579971 68.2493591309
-33.4363632202 15.9200506210 68.0514602661
-33.4426498413 15.9259176254 67.8538589478
-33.4517517090 15.9332828522 67.6565780640
-33.4635086060 15.9420642853 67.4596099854
-33.4779129028 15.9522562027 67.2629394531
-33.4952850342 15.9640293121 67.0666351318
-33.5157661438 15.9774580002 66.8706970215
-33.5381851196 15.9919214249 66.6750106812
-33.5594406128 16.0057601929 66.4792022705
-33.5755653381 16.0168704987 66.2827987671
-33.5838508606 16.0238018036 66.0854721069
-33.5841331482 16.0264682770 65.8871765137
-33.5788421631 16.0261669159 65.6882019043
-33.5723609924 16.0252304077 65.4890594482
-33.5694084167 16.0261745453 65.2903289795
-33.5722007751 16.0301799774 65.0922851563
-33.5785102844 16.0360603333 64.8946762085
-33.5831604004 16.0410537720 64.6968536377
-33.5819435120 16.0429229736 64.4982910156
-33.5741157532 16.0412712097 64.2988739014
-33.5615653992 16.0371036530 64.0988464355
-33.5463638306 16.0315246582 63.8984451294
-33.5293312073 16.0249710083 63.6977729797
-33.5104141235 16.0174140930 63.4968261719
-33.4901008606 16.0091133118 63.2956581116
-33.4704704285 16.0011768341 63.0945358276
-33.4546699524 15.9952821732 62.8938789368
-33.4453811646 15.9928541183 62.6940422058
-33.4440841675 15.9946842194 62.4952392578
-33.4515724182 16.0011940002 62.2975959778
-33.4681205750 16.0125274658 62.1011619568
-33.4925346375 16.0280494690 61.9057960510
-33.5215835571 16.0460433960 61.7110824585
-33.5513305664 16.0644054413 61.5164947510
-33.5793304443 16.0818386078 61.3216972351
-33.6051979065 16.0981349945 61.1266326904
-33.6288032532 16.1132259369 60.9312820435
-33.6483306885 16.1261444092 60.7353858948
-33.6606101990 16.1352043152 60.5384941101
-33.6634292603 16.1392250061 60.3402786255
-33.6576232910 16.1386547089 60.1408386230
-33.6470642090 16.1355533600 59.9407081604
-33.6364631653 16.1324291229 59.7405395508
-33.6288719177 16.1309089661 59.5407791138
-33.6248512268 16.1312885284 59.3415069580
-33.6235809326 16.1331329346 59.1426124573
-33.6244010925 16.1360931396 58.9440116882
-33.6273727417 16.1401958466 58.7457122803
-33.6324234009 16.1454086304 58.5477104187
-33.6380081177 16.1509037018 58.3497848511
-33.6410369873 16.1550388336 58.1514739990
-33.6391830444 16.1565723419 57.9524269104
-33.6332015991 16.1559104919 57.7527503967
-33.6264152527 16.1548213959 57.5529289246
-33.6221923828 16.1550960541 57.3534736633
-33.6224822998 16.1577739716 57.1546859741
-33.6275749207 16.1630077362 56.9566192627
-33.6357345581 16.1698760986 56.7590179443
-33.6436042786 16.1765899658 56.5613708496
-33.6482124329 16.1815643311 56.3632164001
-33.6487159729 16.1843566895 56.1644210815
-33.6462593079 16.1855735779 55.9651527405
-33.6426773071 16.1861896515 55.7656936646
-33.6395301819 16.1870403290 55.5662841797
-33.6377906799 16.1886367798 55.3670806885
-33.6378135681 16.1911754608 55.1681404114
-33.6395339966 16.1946163177 54.9694633484
-33.6427917480 16.1988735199 54.7710189819
-33.6478080750 16.2040691376 54.5728530884
-33.6554260254 16.2106494904 54.3750991821
-33.6664657593 16.2190494537 54.1779022217
-33.6805038452 16.2290458679 53.9811973572
-33.6955909729 16.2396011353 53.7846717834
-33.7097473145 16.2496604919 53.5880050659
-33.7225151062 16.2589817047 53.3911170959
-33.7346382141 16.2679576874 53.1941223145
-33.7467651367 16.2769355774 52.9971389771
-33.7587852478 16.2858600616 52.8001403809
-33.7695503235 16.2941131592 52.6029357910
-33.7770690918 16.3006401062 52.4051895142
-33.7799339294 16.3046894073 52.2066497803
-33.7787475586 16.3065853119 52.0074119568
-33.7759513855 16.3076229095 51.8078880310
-33.7742309570 16.3092327118 51.6085281372
-33.7751960754 16.3122749329 51.4096183777
-33.7791709900 16.3169136047 51.2112197876
-33.7857513428 16.3229427338 51.0132675171
-33.7946586609 16.3302097321 50.8157196045
-33.8063278198 16.3389453888 50.6186561584
-33.8218574524 16.3497333527 50.4222717285
-33.8420982361 16.3630294800 50.2267341614
-33.8662338257 16.3783988953 50.0319061279
-33.8912239075 16.3942203522 49.8372497559
-33.9131546021 16.4084148407 49.6420707703
-33.9295310974 16.4196529388 49.4459114075
-33.9402961731 16.4279079437 49.2487525940
-33.9470787048 16.4340419769 49.0508804321
-33.9520263672 16.4391994476 48.8526687622
-33.9573059082 16.4445362091 48.6545104980
-33.9650726318 16.4511947632 48.4568061829
-33.9770431519 16.4600887299 48.2598724365
-33.9935073853 16.4713745117 48.0637741089
-34.0128135681 16.4841728210 47.8682136536
-34.0323905945 16.4971122742 47.6727180481
-34.0506210327 16.5093364716 47.4769859314
-34.0677833557 16.5209941864 47.2810668945
-34.0853843689 16.5328826904 47.0852470398
-34.1046371460 16.5456504822 46.8897476196
-34.1251373291 16.5590820313 46.6945037842
-34.1447410583 16.5720348358 46.4991035461
-34.1617393494 16.5836029053 46.3032226563
-34.1778373718 16.5946922302 46.1071815491
-34.1979293823 16.6079044342 45.9119186401
-34.2251396179 16.6249046326 45.7180480957
-34.2560195923 16.6438541412 45.5249176025
-34.2821578979 16.6602821350 45.3308944702
-34.2967491150 16.6705684662 45.1346397400
-34.2986259460 16.6740913391 44.9359054565
-34.2905387878 16.6723175049 44.7351989746
-34.2757873535 16.6669998169 44.5331535339
-34.2572669983 16.6596794128 44.3303298950
-34.2382774353 16.6521091461 44.1273727417
-34.2223129272 16.6461467743 43.9249763489
-34.2115516663 16.6429519653 43.7235908508
-34.2060661316 16.6425647736 43.5232391357
-34.2046241760 16.6443252563 43.3236808777
-34.2058906555 16.6475296021 43.1246604919
-34.2089042664 16.6516609192 42.9259796143
-34.2128906250 16.6563091278 42.7274932861
-34.2170715332 16.6610603333 42.5290374756
-34.2208099365 16.6655769348 42.3304862976
-34.2240219116 16.6698150635 42.1318168640
-34.2276802063 16.6742916107 41.9332351685
-34.2338714600 16.6801109314 41.7351722717
-34.2449531555 16.6885318756 41.5381202698
-34.2620811462 16.7001686096 41.3423385620
-34.2844505310 16.7145919800 41.1476669312
-34.3105812073 16.7310142517 40.9538078308
-34.3404846191 16.7494392395 40.7607650757
-34.3760681152 16.7708854675 40.5689620972
-34.4190063477 16.7962417603 40.3787574768
-34.4681282043 16.8248844147 40.1899185181
-34.5188369751 16.8543682098 40.0014801025
-34.5649490356 16.8814086914 39.8121147156
-34.6015777588 16.9034080505 39.6207618713
-34.6270446777 16.9194736481 39.4270362854
-34.6426887512 16.9303169250 39.2312049866
-34.6512603760 16.9374027252 39.0338478088
-34.6555137634 16.9421901703 38.8355484009
-34.6576423645 16.9458503723 38.6367759705
-34.6592445374 16.9492301941 38.4378814697
-34.6613197327 16.9528617859 38.2390785217
-34.6642341614 16.9569396973 38.0404548645
-34.6677932739 16.9613609314 37.8419647217
-34.6714553833 16.9658355713 37.6434898376
-34.6746788025 16.9700756073 37.4449081421
-34.6773071289 16.9740028381 37.2461891174
-34.6797752380 16.9778442383 37.0474243164
-34.6829490662 16.9820594788 36.8488082886
-34.6876335144 16.9870796204 36.6505279541
-34.6941070557 16.9930496216 36.4526481628
-34.7019386292 16.9997425079 36.2550773621
-34.7101898193 17.0066566467 36.0575981140
-34.7178192139 17.0132389069 35.8599739075
-34.7240753174 17.0190944672 35.6620368958
-34.7286491394 17.0240554810 35.4637069702
-34.7315025330 17.0281009674 35.2649726868
-34.7326469421 17.0312404633 35.0658340454
-34.7320747375 17.0334663391 34.8662872314
-34.7298240662 17.0348014832 34.6663360596
-34.7261848450 17.0353984833 34.4660453796
-34.7219848633 17.0356979370 34.2656059265
-34.7190170288 17.0366516113 34.0654335022
-34.7203674316 17.0399017334 33.8662681580
-34.7301597595 17.0476360321 33.6690940857
-34.7520523071 17.0617980957 33.4747924805
-34.7867774963 17.0827789307 33.2835693359
-34.8304176331 17.1084957123 33.0945129395
-34.8751907349 17.1348114014 32.9057807922
-34.9125556946 17.1571941376 32.7153205872
-34.9365844727 17.1724891663 32.5216827393
-34.9460983276 17.1800727844 32.3245582581
-34.9453277588 17.1821956635 32.1249389648
-34.9425010681 17.1832237244 31.9248065948
-34.9459190369 17.1875705719 31.7261829376
-34.9599800110 17.1975708008 31.5301551819
-34.9845085144 17.2131309509 31.3367061615
-35.0170440674 17.2329444885 31.1452522278
-35.0544433594 17.2553405762 30.9550323486
-35.0926933289 17.2781887054 30.7650642395
-35.1272773743 17.2990894318 30.5742282867
-35.1550865173 17.3163909912 30.3817443848
-35.1759948730 17.3300266266 30.1875629425
-35.1926002502 17.3413753510 29.9923210144
-35.2086830139 17.3524475098 29.7969608307
-35.2273216248 17.3648757935 29.6022529602
-35.2492523193 17.3790550232 29.4083957672
-35.2724304199 17.3938941956 29.2148704529
-35.2934761047 17.4076004028 29.0208244324
-35.3100547791 17.4189357758 28.8256587982
-35.3220252991 17.4278240204 28.6293277740
-35.3307571411 17.4349899292 28.4321708679
-35.3377647400 17.4412422180 28.2345733643
-35.3440246582 17.4470958710 28.0367794037
-35.3499565125 17.4527778625 27.8388977051
-35.3557167053 17.4583663940 27.6409664154
-35.3614196777 17.4639244080 27.4430179596
-35.3673019409 17.4695796967 27.2451114655
-35.3739166260 17.4756221771 27.0473918915
-35.3823890686 17.4826526642 26.8501586914
-35.3945884705 17.4916610718 26.6539020538
-35.4127693176 17.5038452148 26.4592285156
-35.4386138916 17.5200996399 26.2665939331
-35.4724769592 17.5406093597 26.0761070251
-35.5135154724 17.5649280548 25.8875617981
-35.5600509644 17.5921649933 25.7005290985
-35.6092643738 17.6208229065 25.5142650604
-35.6566009521 17.6484851837 25.3275585175
-35.6959877014 17.6719264984 25.1387729645
-35.7215003967 17.6879997253 24.9462947845
-35.7304496765 17.6952781677 24.7493705750
-35.7259063721 17.6953983307 24.5487976074
-35.7158241272 17.6925754547 24.3467006683
-35.7089576721 17.6914596558 24.1454524994
-35.7112770081 17.6952228546 23.9466896057
-35.7249221802 17.7049961090 23.7510128021
-35.7487144470 17.7201557159 23.5581283569
-35.7791786194 17.7388553619 23.3671016693
-35.8120536804 17.7588367462 23.1767692566
-35.8435859680 17.7781047821 22.9861011505
-35.8708343506 17.7950954437 22.7942790985
-35.8917961121 17.8087539673 22.6007385254
-35.9061393738 17.8188953400 22.4053707123
-35.9155235291 17.8264064789 22.2086257935
-35.9227409363 17.8327674866 22.0112781525
-35.9302406311 17.8392791748 21.8140048981
-35.9391937256 17.8465595245 21.6171398163
-35.9494361877 17.8545265198 21.4206409454
-35.9601402283 17.8627376556 21.2242736816
-35.9708366394 17.8709430695 21.0279083252
-35.9823722839 17.8795948029 20.8317832947
-35.9971733093 17.8899822235 20.6365947723
-36.0183448792 17.9037475586 20.4432353973
-36.0480575562 17.9220447540 20.2523422241
-36.0866889954 17.9450740814 20.0640411377
-36.1336402893 17.9725189209 19.8781795502
-36.1884536743 18.0041351318 19.6946411133
-36.2501373291 18.0393962860 19.5131607056
-36.3157615662 18.0767459869 19.3328971863
-36.3810081482 18.1138935089 19.1526069641
-36.4423217773 18.1489543915 18.9712524414
-36.4975776672 18.1808032990 18.7882061005
-36.5447387695 18.2083530426 18.6028518677
-36.5808906555 18.2300605774 18.4143218994
-36.6031494141 18.2443981171 18.2217407227
-36.6104774475 18.2508106232 18.0247707367
-36.6047058105 18.2502765656 17.8239250183
-36.5898437500 18.2449188232 17.6203613281
-36.5699081421 18.2368698120 17.4152545929
-36.5473060608 18.2274093628 17.2093143463
-36.5236511230 18.2173881531 17.0030136108
-36.5018424988 18.2083454132 16.7972202301
-36.4867134094 18.2028484344 16.5933876038
-36.4836463928 18.2037525177 16.3931503296
-36.4970207214 18.2133750916 16.1978569031
-36.5291938782 18.2329711914 16.0082550049
-36.5793724060 18.2621173859 15.8241443634
-36.6425895691 18.2981815338 15.6440563202
-36.7106819153 18.3368282318 15.4655313492
-36.7756996155 18.3738441467 15.2861537933
-36.8334617615 18.4070091248 15.1046380997
-36.8838539124 18.4362640381 14.9209327698
-36.9279556274 18.4621829987 14.7353544235
-36.9654159546 18.4845771790 14.5477800369
-36.9947090149 18.5026397705 14.3577251434
-37.0152320862 18.5160522461 14.1649866104
-37.0284423828 18.5255851746 13.9699945450
-37.0371780396 18.5327434540 13.7736177444
-37.0445404053 18.5391769409 13.5768136978
-37.0535888672 18.5465011597 13.3805351257
-37.0676803589 18.5565013885 13.1858358383
-37.0902404785 18.5709896088 12.9938030243
-37.1230354309 18.5909099579 12.8050127029
-37.1642799377 18.6153087616 12.6189222336
-37.2092437744 18.6416759491 12.4340534210
-37.2539939880 18.6679344177 12.2491712570
-37.2987365723 18.6941852570 12.0643377304
-37.3468170166 18.7222042084 11.8806200027
-37.4002647400 18.7530708313 11.6986713409
-37.4566612244 18.7854995728 11.5177307129
-37.5107765198 18.8167171478 11.3361282349
-37.5589561462 18.8447895050 11.1526870728
-37.6012573242 18.8697414398 10.9674091339
-37.6393775940 18.8924770355 10.7808322906
-37.6735649109 18.9131259918 10.5930261612
-37.7021751404 18.9308185577 10.4034500122
-37.7237243652 18.9447669983 10.2116098404
-37.7385864258 18.9551696777 10.0176115036
-37.7488937378 18.9631557465 9.8221359253
-37.7576103210 18.9703025818 9.6261444092
-37.7680664063 18.9783687592 9.4307222366
-37.7838134766 18.9892387390 9.2370405197
-37.8079795837 19.0045719147 9.0461406708
-37.8420104980 19.0251369476 8.8585176468
-37.8849258423 19.0504093170 8.6738681793
-37.9340858459 19.0789928436 8.4913387299
-37.9866752625 19.1093921661 8.3100061417
-38.0404853821 19.1404380798 8.1291427612
-38.0942001343 19.1714324951 7.9483137131
-38.1478996277 19.2024173737 7.7675447464
-38.2033996582 19.2343559265 7.5874457359
-38.2635536194 19.2687606812 7.4089756012
-38.3303909302 19.3067073822 7.2328290939
-38.4031333923 19.3477840424 7.0587582588
-38.4772491455 19.3895835876 6.8852429390
-38.5455398560 19.4282970428 6.7098517418
-38.6011085510 19.4602680206 6.5302314758
-38.6400985718 19.4834499359 6.3450422287
-38.6623306274 19.4977512360 6.1541881561
-38.6702957153 19.5044898987 5.9584817886
-38.6680145264 19.5057983398 5.7592692375
-38.6603813171 19.5042724609 5.5582070351
-38.6525039673 19.5026168823 5.3570370674
-38.6487159729 19.5031261444 5.1572499275
-38.6516036987 19.5071754456 4.9597506523
-38.6618576050 19.5151290894 4.7647900581
-38.6791381836 19.5268058777 4.5722665787
-38.7030372620 19.5419883728 4.3820538521
-38.7328720093 19.5603160858 4.1939301491
-38.7666282654 19.5807209015 4.0072035789
-38.8004760742 19.6011753082 3.8205463886
-38.8297691345 19.6192150116 3.6323306561
-38.8508796692 19.6329174042 3.4412739277
-38.8627624512 19.6417312622 3.2469921112
-38.8674240112 19.6467208862 3.0501718521
-38.8692321777 19.6501979828 2.8523371220
-38.8736267090 19.6550445557 2.6554088593
-38.8859634399 19.6641006470 2.4612901211
-38.9105453491 19.6796417236 2.2715260983
-38.9493522644 19.7027187347 2.0868484974
-39.0001296997 19.7321376801 1.9064851999
-39.0552597046 19.7638626099 1.7277387381
-39.1038513184 19.7921237946 1.5467190742
-39.1372299194 19.8123226166 1.3602974415
-39.1540565491 19.8237533569 1.1679614782
-39.1608886719 19.8298892975 0.9720354080
-39.1676483154 19.8359870911 0.7760818601
-39.1819343567 19.8460731506 0.5828486681
-39.2066841125 19.8617019653 0.3934175074
-39.2423210144 19.8830947876 0.2079626471
-39.2899932861 19.9108638763 0.0269280858
-26.6765270233 25.0604248047 80.4988021851
-26.6786270142 25.0657978058 80.3012771606
-26.6832447052 25.0737838745 80.1039657593
-26.6889801025 25.0829315186 79.9067535400
-26.6962070465 25.0936279297 79.7096710205
-26.7062416077 25.1072387695 79.5128479004
-26.7192230225 25.1239089966 79.3162994385
-26.7330608368 25.1414680481 79.1198501587
-26.7443675995 25.1563987732 78.9231719971
-26.7499599457 25.1653976440 78.7259674072
-26.7477264404 25.1662712097 78.5280151367
-26.7372455597 25.1585845947 78.3292541504
-26.7206707001 25.1445693970 78.1298751831
-26.7029476166 25.1293640137 77.9303359985
-26.6904182434 25.1195526123 77.7312698364
-26.6884040833 25.1206550598 77.5332260132
-26.6990451813 25.1348972321 77.3364410400
-26.7200450897 25.1598911285 77.1407165527
-26.7451095581 25.1891040802 76.9454345703
-26.7669582367 25.2149772644 76.7498550415
-26.7812442780 25.2330017090 76.5535202026
-26.7879962921 25.2432041168 76.3563995361
-26.7898120880 25.2482833862 76.1587600708
-26.7893657684 25.2510147095 75.9608688354
-26.7883205414 25.2531242371 75.7629013062
-26.7874965668 25.2554626465 75.5649490356
-26.7872619629 25.2584152222 75.3670501709
-26.7876262665 25.2619876862 75.1692047119
-26.7880954742 25.2656707764 74.9713592529
-26.7875289917 25.2682781219 74.7733840942
-26.7842426300 25.2680625916 74.5750961304
-26.7766056061 25.2633323669 74.3762893677
-26.7645111084 25.2539768219 74.1769485474
-26.7509632111 25.2431125641 73.9774017334
-26.7414188385 25.2364025116 73.7782897949
-26.7399673462 25.2380943298 73.5801086426
-26.7458324432 25.2473773956 73.3827819824
-26.7543334961 25.2593975067 73.1857681274
-26.7610092163 25.2695236206 72.9885406494
-26.7642040253 25.2760353088 72.7908859253
-26.7644977570 25.2795391083 72.5928802490
-26.7630672455 25.2812519073 72.3946456909
-26.7608509064 25.2821502686 72.1963043213
-26.7585849762 25.2829971313 71.9979400635
-26.7569580078 25.2845077515 71.7996368408
-26.7565803528 25.2873153687 71.6014862061
-26.7577018738 25.2916774750 71.4035110474
-26.7599906921 25.2972507477 71.2056808472
-26.7625732422 25.3031291962 71.0078811646
-26.7643203735 25.3081417084 70.8099594116
-26.7641849518 25.3111991882 70.6117935181
-26.7613544464 25.3114624023 70.4132537842
-26.7551383972 25.3082122803 70.2142486572
-26.7447490692 25.3006343842 70.0146636963
-26.7296028137 25.2881183624 69.8144073486
-26.7102737427 25.2712669373 69.6135406494
-26.6891365051 25.2525367737 69.4123840332
-26.6694545746 25.2353191376 69.2113723755
-26.6535663605 25.2220363617 69.0108489990
-26.6420001984 25.2132415771 68.8108825684
-26.6341571808 25.2083072662 68.6114120483
-26.6293735504 25.2065467834 68.4123458862
-26.6273231506 25.2076244354 68.2136535645
-26.6277809143 25.2113018036 68.0153045654
-26.6302795410 25.2170982361 67.8172378540
-26.6340503693 25.2242145538 67.6193542480
-26.6382026672 25.2317256927 67.4215164185
-26.6419677734 25.2388343811 67.2236251831
-26.6448497772 25.2450294495 67.0255889893
-26.6466426849 25.2500934601 66.8273925781
-26.6474189758 25.2541027069 66.6290359497
-26.6476116180 25.2575092316 66.4305877686
-26.6481246948 25.2612438202 66.2321701050
-26.6504116058 25.2668209076 66.0340118408
-26.6563053131 25.2761402130 65.8364028931
-26.6672229767 25.2906684875 65.6395645142
-26.6829109192 25.3101463318 65.4434814453
-26.7006893158 25.3317928314 65.2477340698
-26.7162246704 25.3511104584 65.0516586304
-26.7256393433 25.3640785217 64.8546371460
-26.7276821136 25.3694019318 64.6564559937
-26.7243328094 25.3691368103 64.4574050903
-26.7191257477 25.3669395447 64.2580337524
-26.7145900726 25.3654422760 64.0587615967
-26.7113170624 25.3652553558 63.8596687317
-26.7089843750 25.3660411835 63.6607131958
-26.7076435089 25.3678550720 63.4619064331
-26.7081813812 25.3716201782 63.2633934021
-26.7121543884 25.3789482117 63.0654449463
-26.7210884094 25.3914203644 62.8683166504
-26.7353572845 25.4094219208 62.6720886230
-26.7535228729 25.4314670563 62.4765281677
-26.7731647491 25.4550437927 62.2812461853
-26.7926082611 25.4784107208 62.0859527588
-26.8118419647 25.5015640259 61.8906478882
-26.8317451477 25.5254077911 61.6954803467
-26.8523197174 25.5499496460 61.5004577637
-26.8715763092 25.5731220245 61.3052291870
-26.8860340118 25.5913200378 61.1091880798
-26.8924160004 25.6011428833 60.9117431641
-26.8891410828 25.6009521484 60.7125930786
-26.8770484924 25.5916213989 60.5118598938
-26.8592472076 25.5763702393 60.3100776672
-26.8399658203 25.5595855713 60.1079864502
-26.8228969574 25.5450973511 59.9062461853
-26.8103485107 25.5352954865 59.7052879333
-26.8035297394 25.5314350128 59.5053367615
-26.8029937744 25.5340862274 59.3065109253
-26.8086681366 25.5431785583 59.1088142395
-26.8198471069 25.5579776764 58.9121360779
-26.8351554871 25.5770568848 58.7162361145
-26.8522281647 25.5979652405 58.5206794739
-26.8676033020 25.6171131134 58.3248252869
-26.8777065277 25.6307964325 58.1279945374
-26.8803157806 25.6367092133 57.9297523499
-26.8750362396 25.6344451904 57.7300033569
-26.8628311157 25.6250019073 57.5289154053
-26.8458404541 25.6105995178 57.3268699646
-26.8275547028 25.5948543549 57.1245384216
-26.8122806549 25.5822315216 56.9227447510
-26.8037300110 25.5765800476 56.7222213745
-26.8038063049 25.5798683167 56.5233573914
-26.8121986389 25.5917797089 56.3261184692
-26.8269214630 25.6102504730 56.1301345825
-26.8456802368 25.6329059601 55.9349670410
-26.8672466278 25.6584701538 55.7403831482
-26.8913116455 25.6866245270 55.5463256836
-26.9169368744 25.7163963318 55.3526153564
-26.9415702820 25.7451381683 55.1587409973
-26.9620361328 25.7695598602 54.9640541077
-26.9764881134 25.7877483368 54.7681694031
-26.9852905273 25.8000831604 54.5711441040
-26.9902343750 25.8084163666 54.3733291626
-26.9931011200 25.8145980835 54.1750831604
-26.9946784973 25.8194408417 53.9765663147
-26.9944782257 25.8224468231 53.7776718140
-26.9911575317 25.8222160339 53.5781097412
-26.9837665558 25.8177661896 53.3776779175
-26.9733390808 25.8101730347 53.1765823364
-26.9631881714 25.8028640747 52.9755134583
-26.9569244385 25.7995872498 52.7752456665
-26.9561519623 25.8019981384 52.5761260986
-26.9602928162 25.8095016479 52.3780517578
-26.9675502777 25.8202342987 52.1806449890
-26.9746170044 25.8307704926 51.9831962585
-26.9764499664 25.8358821869 51.7846145630
-26.9691429138 25.8315219879 51.5840301514
-26.9541091919 25.8191585541 51.3817291260
-26.9382457733 25.8059349060 51.1792068481
-26.9293575287 25.7999401093 50.9781875610
-26.9319591522 25.8058509827 50.7796897888
-26.9467029572 25.8243389130 50.5838928223
-26.9718494415 25.8536090851 50.3904380798
-27.0045852661 25.8907394409 50.1987228394
-27.0415344238 25.9322357178 50.0080070496
-27.0788021088 25.9740619659 49.8174209595
-27.1120414734 26.0117111206 49.6259727478
-27.1371574402 26.0409450531 49.4327201843
-27.1515083313 26.0590248108 49.2370376587
-27.1547355652 26.0655822754 49.0388107300
-27.1489009857 26.0627498627 48.8384857178
-27.1382637024 26.0549430847 48.6370239258
-27.1284580231 26.0479984283 48.4357261658
-27.1244087219 26.0470180511 48.2357482910
-27.1277732849 26.0537166595 48.0374870300
-27.1362628937 26.0657253265 47.8404312134
-27.1458072662 26.0788249969 47.6436309814
-27.1534366608 26.0899429321 47.4463806152
-27.1583766937 26.0982742310 47.2484893799
-27.1611862183 26.1043987274 47.0500907898
-27.1626548767 26.1091346741 46.8513641357
-27.1635074615 26.1132316589 46.6524810791
-27.1646633148 26.1176452637 46.4536628723
-27.1674079895 26.1237010956 46.2552185059
-27.1731357574 26.1328487396 46.0574989319
-27.1828231812 26.1460990906 45.8607482910
-27.1963977814 26.1633739471 45.6649551392
-27.2122612000 26.1830196381 45.4697418213
-27.2274990082 26.2020168304 45.2743911743
-27.2391872406 26.2173366547 45.0781745911
-27.2459297180 26.2275352478 44.8807411194
-27.2481040955 26.2330017090 44.6821632385
-27.2466373444 26.2346992493 44.4826660156
-27.2417869568 26.2328891754 44.2823028564
-27.2332859039 26.2273006439 44.0809936523
-27.2217864990 26.2186088562 43.8789024353
-27.2101726532 26.2097988129 43.6767501831
-27.2032260895 26.2058200836 43.4757575989
-27.2056159973 26.2115116119 43.2771339417
-27.2196445465 26.2292575836 43.0815010071
-27.2442417145 26.2579441071 42.8886108398
-27.2755298615 26.2935619354 42.6974906921
-27.3081588745 26.3305664063 42.5067634583
-27.3364505768 26.3630790710 42.3149528503
-27.3557510376 26.3862781525 42.1208267212
-27.3644962311 26.3985519409 41.9239540100
-27.3655757904 26.4028835297 41.7250633240
-27.3647403717 26.4052352905 41.5256576538
-27.3669681549 26.4107589722 41.3270530701
-27.3740024567 26.4212589264 41.1297225952
-27.3843193054 26.4351558685 40.9332733154
-27.3941020966 26.4485034943 40.7366867065
-27.3986988068 26.4564781189 40.5387115479
-27.3951015472 26.4559707642 40.3385200500
-27.3842372894 26.4479389191 40.1363449097
-27.3705196381 26.4369544983 39.9333610535
-27.3587989807 26.4280357361 39.7308845520
-27.3517742157 26.4239826202 39.5296669006
-27.3497714996 26.4251270294 39.3297996521
-27.3520164490 26.4306697845 39.1310920715
-27.3579387665 26.4400177002 38.9333915710
-27.3677635193 26.4534091949 38.7367744446
-27.3820495605 26.4714183807 38.5414047241
-27.4002189636 26.4934444427 38.3471336365
-27.4193038940 26.5164184570 38.1531448364
-27.4345188141 26.5353870392 37.9580879211
-27.4417362213 26.5460777283 37.7607955933
-27.4400787354 26.5475788116 37.5609970093
-27.4324760437 26.5429286957 37.3594970703
-27.4236507416 26.5370140076 37.1576271057
-27.4173011780 26.5336589813 36.9564323425
-27.4149761200 26.5344715118 36.7563705444
-27.4172019958 26.5399971008 36.5576019287
-27.4250068665 26.5512943268 36.3604354858
-27.4399490356 26.5699806213 36.1653327942
-27.4625091553 26.5965499878 35.9724578857
-27.4904861450 26.6287269592 35.7811927795
-27.5192508698 26.6617183685 35.5901947021
-27.5438728333 26.6904201508 35.3980255127
-27.5614032745 26.7117824554 35.2038078308
-27.5717563629 26.7257156372 35.0074958801
-27.5769901276 26.7343521118 34.8096771240
-27.5799942017 26.7406806946 34.6111984253
-27.5836143494 26.7476444244 34.4128990173
-27.5904045105 26.7578926086 34.2155380249
-27.6023120880 26.7734355927 34.0197143555
-27.6197910309 26.7947406769 33.8255691528
-27.6410942078 26.8200073242 33.6325988770
-27.6629714966 26.8458652496 33.4398269653
-27.6824645996 26.8692569733 33.2463645935
-27.6982822418 26.8888454437 33.0518074036
-27.7109222412 26.9051437378 32.8563041687
-27.7223014832 26.9201354980 32.6604270935
-27.7354412079 26.9369525909 32.4650955200
-27.7533912659 26.9587459564 32.2712593079
-27.7769851685 26.9863777161 32.0791854858
-27.8034000397 27.0169277191 31.8880157471
-27.8277931213 27.0453853607 31.6962566376
-27.8469047546 27.0683784485 31.5028877258
-27.8609657288 27.0861454010 31.3079662323
-27.8726158142 27.1014156342 31.1123065948
-27.8847713470 27.1172122955 30.9168167114
-27.8992900848 27.1354522705 30.7220802307
-27.9164447784 27.1564178467 30.5281925201
-27.9351596832 27.1789989471 30.3348197937
-27.9541778564 27.2018909454 30.1415653229
-27.9734382629 27.2250366211 29.9484119415
-27.9943027496 27.2498397827 29.7557945251
-28.0182094574 27.2777881622 29.5641803741
-28.0449695587 27.3086891174 29.3735122681
-28.0723838806 27.3402690887 29.1830959320
-28.0977859497 27.3697643280 28.9920673370
-28.1200981140 27.3960609436 28.8000736237
-28.1402091980 27.4200820923 28.6073970795
-28.1593513489 27.4430999756 28.4144287109
-28.1775856018 27.4651794434 28.2211894989
-28.1942996979 27.4856853485 28.0274734497
-28.2098312378 27.5049667358 27.8333892822
-28.2258720398 27.5247764587 27.6394920349
-28.2438659668 27.5466041565 27.4462566376
-28.2633743286 27.5699996948 27.2535457611
-28.2823657990 27.5928592682 27.0606861115
-28.2989196777 27.6131973267 26.8670406342
-28.3123016357 27.6302528381 26.6723556519
-28.3226642609 27.6441860199 26.4766712189
-28.3303146362 27.6553153992 26.2800865173
-28.3354854584 27.6638793945 26.0826702118
-28.3385391235 27.6702537537 25.8845386505
-28.3400878906 27.6750698090 25.6858901978
-28.3408470154 27.6790714264 25.4869689941
-28.3413772583 27.6828365326 25.2879581451
-28.3419151306 27.6866092682 25.0889415741
-28.3423309326 27.6902561188 24.8898715973
-28.3420982361 27.6932315826 24.6905708313
-28.3403797150 27.6946697235 24.4907474518
-28.3364028931 27.6937751770 24.2901306152
-28.3300228119 27.6903934479 24.0886650085
-28.3220863342 27.6854057312 23.8866386414
-28.3143653870 27.6806373596 23.6846618652
-28.3092136383 27.6785297394 23.4835548401
-28.3091926575 27.6817264557 23.2842197418
-28.3165702820 27.6925735474 23.0874652863
-28.3325328827 27.7122974396 22.8937301636
-28.3563003540 27.7400932312 22.7027606964
-28.3850669861 27.7730579376 22.5135879517
-28.4154815674 27.8077220917 22.3250408173
-28.4458904266 27.8423824310 22.1365375519
-28.4771900177 27.8779640198 21.9483966827
-28.5111522675 27.9162960052 21.7612495422
-28.5478973389 27.9575061798 21.5751514435
-28.5853366852 27.9994316101 21.3893566132
-28.6210823059 28.0396060944 21.2030105591
-28.6542263031 28.0770912170 21.0157833099
-28.6848354340 28.1119518280 20.8276882172
-28.7124214172 28.1436882019 20.6385459900
-28.7358951569 28.1711692810 20.4479465485
-28.7550487518 28.1941871643 20.2558097839
-28.7714519501 28.2143611908 20.0626926422
-28.7874603271 28.2341251373 19.8694496155
-28.8042755127 28.2547225952 19.6765213013
-28.8209495544 28.2751750946 19.4835624695
-28.8353118896 28.2932357788 19.2897701263
-28.8458309174 28.3073234558 19.0945720673
-28.8526115417 28.3175468445 18.8979988098
-28.8571605682 28.3254642487 18.7005977631
-28.8616485596 28.3333187103 18.5031719208
-28.8678493500 28.3429431915 18.3063831329
-28.8759346008 28.3545150757 18.1103000641
-28.8844051361 28.3664875031 17.9143657684
-28.8919162750 28.3774642944 17.7180728912
-28.8991737366 28.3881816864 17.5216903687
-28.9086399078 28.4011802673 17.3261432648
-28.9222545624 28.4184684753 17.1321735382
-28.9396400452 28.4396514893 16.9396495819
-28.9585990906 28.4624633789 16.7477455139
-28.9772205353 28.4849224091 16.5557365417
-28.9953670502 28.5068950653 16.3635692596
-29.0145225525 28.5299053192 16.1718101501
-29.0365047455 28.5558395386 15.9811620712
-29.0621471405 28.5855560303 15.7919530869
-29.0908184052 28.6184005737 15.6039485931
-29.1211242676 28.6529350281 15.4166193008
-29.1519260406 28.6879825592 15.2295274734
-29.1826534271 28.7229499817 15.0424509048
-29.2130947113 28.7576198578 14.8553085327
-29.2431430817 28.7918872833 14.6680583954
-29.2722110748 28.8251380920 14.4804677963
-29.2986125946 28.8556327820 14.2918739319
-29.3201389313 28.8810901642 14.1014003754
-29.3356494904 28.9003295898 13.9085836411
-29.3460388184 28.9142780304 13.7137613297
-29.3538608551 28.9255733490 13.5179300308
-29.3625926971 28.9378070831 13.3224630356
-29.3763542175 28.9552383423 13.1290035248
-29.3994197845 28.9822826385 12.9392681122
-29.4345016479 29.0217437744 12.7543678284
-29.4804210663 29.0724029541 12.5738639832
-29.5314083099 29.1282939911 12.3954668045
-29.5794906616 29.1811828613 12.2159843445
-29.6184577942 29.2246532440 12.0329017639
-29.6462783813 29.2566089630 11.8453741074
-29.6645984650 29.2787456512 11.6540355682
-29.6765861511 29.2943401337 11.4601478577
-29.6851615906 29.3064079285 11.2648830414
-29.6924667358 29.3171653748 11.0691041946
-29.7003707886 29.3285408020 10.8735742569
-29.7112331390 29.3429718018 10.6792593002
-29.7279434204 29.3634433746 10.4873552322
-29.7528285980 29.3923606873 10.2988357544
-29.7861347198 29.4299774170 10.1138277054
-29.8254680634 29.4738197327 9.9313602448
-29.8667888641 29.5197124481 9.7497787476
-29.9061679840 29.5635986328 9.5674552917
-29.9408645630 29.6026477814 9.3832435608
-29.9693317413 29.6352615356 9.1964874268
-29.9910202026 29.6608715057 9.0069379807
-30.0065555573 29.6801261902 8.8148393631
-30.0176868439 29.6948299408 8.6209096909
-30.0266036987 29.7072467804 8.4260568619
-30.0352745056 29.7194099426 8.2311067581
-30.0454216003 29.7330989838 8.0367851257
-30.0588684082 29.7501926422 7.8438692093
-30.0774784088 29.7726211548 7.6531591415
-30.1023082733 29.8014736176 7.4651184082
-30.1325263977 29.8358898163 7.2794098854
-30.1651878357 29.8728294373 7.0947895050
-30.1962738037 29.9081420898 6.9095444679
-30.2223834991 29.9383125305 6.7222099304
-30.2421092987 29.9618911743 6.5321683884
-30.2564811707 29.9799404144 6.3398442268
-30.2683181763 29.9953689575 6.1464409828
-30.2808017731 30.0114669800 5.9533286095
-30.2958755493 30.0302391052 5.7613515854
-30.3134307861 30.0515727997 5.5704698563
-30.3320064545 30.0739612579 5.3800544739
-30.3502979279 30.0960540771 5.1895375252
-30.3680229187 30.1175632477 4.9987959862
-30.3857822418 30.1391067505 4.8080916405
-30.4048690796 30.1620197296 4.6179919243
-30.4273452759 30.1884365082 4.4294090271
-30.4553813934 30.2205886841 4.2433080673
-30.4893531799 30.2588710785 4.0598707199
-30.5265998840 30.3005352020 3.8779361248
-30.5629997253 30.3413238525 3.6956834793
-30.5960941315 30.3786983490 3.5120167732
-30.6260604858 30.4128398895 3.3270053864
-30.6535587311 30.4444351196 3.1409373283
-30.6775436401 30.4724044800 2.9533367157
-30.6957092285 30.4943618774 2.7631597519
-30.7066402435 30.5088481903 2.5697543621
-30.7110157013 30.5165672302 2.3734073639
-30.7109889984 30.5197429657 2.1750719547
-30.7089080811 30.5207958221 1.9757958651
-30.7065315247 30.5215454102 1.7763721943
-30.7049465179 30.5231132507 1.5772929192
-30.7047996521 30.5261631012 1.3788534403
-30.7066364288 30.5312633514 1.1813068390
-30.7112293243 30.5392074585 0.9850113392
-30.7198638916 30.5513248444 0.7905638218
-30.7345581055 30.5696964264 0.5988990664
-30.7580413818 30.5971431732 0.4112890363
-30.7932987213 30.6367416382 0.2291311622
-30.8426132202 30.6908512115 0.0535119809
-17.5025978088 31.8168106079 80.6795196533
-17.5087852478 31.8346099854 80.4826278687
-17.5188846588 31.8604564667 80.2862854004
-17.5272693634 31.8827762604 80.0897216797
-17.5309810638 31.8954811096 79.8925170898
-17.5305652618 31.8996944427 79.6947250366
-17.5284309387 31.9003753662 79.4966735840
-17.5270137787 31.9025306702 79.2987136841
-17.5280418396 31.9097175598 79.1011047363
-17.5323486328 31.9236450195 78.9039764404
-17.5394821167 31.9433879852 78.7072753906
-17.5475444794 31.9650421143 78.5107269287
-17.5540542603 31.9835052490 78.3139572144
-17.5574760437 31.9956111908 78.1167221069
-17.5580215454 32.0018043518 77.9190444946
-17.5571613312 32.0051078796 77.7211303711
-17.5564975739 32.0088119507 77.5232467651
-17.5569324493 32.0147781372 77.3255233765
-17.5584220886 32.0229110718 77.1279678345
-17.5602664948 32.0317764282 76.9304656982
-17.5617275238 32.0398521423 76.7328948975
-17.5626506805 32.0468254089 76.5352325439
-17.5636768341 32.0540046692 76.3375854492
-17.5658130646 32.0634689331 76.1401138306
-17.5695819855 32.0762939453 75.9429244995
-17.5744400024 32.0913581848 75.7459182739
-17.5791435242 32.1060981750 75.5488967896
-17.5827045441 32.1184921265 75.3516845703
-17.5849418640 32.1281700134 75.1542358398
-17.5861968994 32.1358184814 74.9566116333
-17.5867309570 32.1419906616 74.7588577271
-17.5865249634 32.1466407776 74.5609664917
-17.5856227875 32.1498603821 74.3629379272
-17.5846042633 32.1528396606 74.1648788452
-17.5844116211 32.1575164795 73.9669570923
-17.5854969025 32.1648216248 73.7692642212
-17.5873107910 32.1736221313 73.5717086792
-17.5888252258 32.1818084717 73.3740921021
-17.5893878937 32.1880416870 73.1762847900
-17.5889625549 32.1922416687 72.9782943726
-17.5877914429 32.1949081421 72.7801437378
-17.5860939026 32.1964950562 72.5818786621
-17.5840206146 32.1973037720 72.3835296631
-17.5817089081 32.1976280212 72.1851196289
-17.5793552399 32.1978645325 71.9866867065
-17.5772285461 32.1985702515 71.7882843018
-17.5756931305 32.2004890442 71.5899810791
-17.5752620697 32.2046775818 71.3918991089
-17.5766048431 32.2125167847 71.1941680908
-17.5802936554 32.2251739502 70.9969100952
-17.5861873627 32.2423667908 70.8001174927
-17.5930976868 32.2616462708 70.6035461426
-17.5992927551 32.2794570923 70.4068298340
-17.6035747528 32.2933349609 70.2097244263
-17.6057872772 32.3029594421 70.0121841431
-17.6064453125 32.3093910217 69.8143081665
-17.6061096191 32.3137779236 69.6162109375
-17.6051044464 32.3167877197 69.4179534912
-17.6035728455 32.3187179565 69.2195816040
-17.6015930176 32.3197250366 69.0210952759
-17.5991954803 32.3198738098 68.8224945068
-17.5963668823 32.3191413879 68.6237945557
-17.5930805206 32.3174667358 68.4249725342
-17.5893669128 32.3149147034 68.2260360718
-17.5853557587 32.3117523193 68.0270080566
-17.5812606812 32.3084144592 67.8279495239
-17.5773067474 32.3053703308 67.6288986206
-17.5736885071 32.3030166626 67.4299087524
-17.5705204010 32.3015823364 67.2310104370
-17.5678100586 32.3010940552 67.0321960449
-17.5654869080 32.3014068604 66.8334579468
-17.5634765625 32.3023529053 66.6347808838
-17.5617580414 32.3039093018 66.4361572266
-17.5603961945 32.3061904907 66.2376098633
-17.5594863892 32.3094024658 66.0391616821
-17.5591011047 32.3136940002 65.8408203125
-17.5592422485 32.3190650940 65.6426086426
-17.5598278046 32.3253517151 65.4444961548
-17.5606632233 32.3321533203 65.2464370728
-17.5614337921 32.3388175964 65.0483627319
-17.5617313385 32.3445129395 64.8501586914
-17.5611610413 32.3484230042 64.6517257690
-17.5594482422 32.3499908447 64.4530029297
-17.5565452576 32.3491134644 64.2539596558
-17.5526752472 32.3462448120 64.0546569824
-17.5482826233 32.3423080444 63.8551940918
-17.5439300537 32.3384475708 63.6557273865
-17.5401306152 32.3357315063 63.4563789368
-17.5372562408 32.3349113464 63.2572593689
-17.5355415344 32.3364791870 63.0584259033
-17.5352039337 32.3408699036 62.8599433899
-17.5365467072 32.3487167358 62.6618995667
-17.5399150848 32.3607215881 62.4643898010
-17.5453224182 32.3769149780 62.2674331665
-17.5518493652 32.3954048157 62.0707855225
-17.5576019287 32.4123077393 61.8739356995
-17.5608444214 32.4240570068 61.6764144897
-17.5613632202 32.4302062988 61.4781417847
-17.5604686737 32.4334564209 61.2794761658
-17.5596065521 32.4367752075 61.0808105469
-17.5592689514 32.4411659241 60.8822784424
-17.5591316223 32.4459724426 60.6837959290
-17.5589122772 32.4506149292 60.4852790833
-17.5589408875 32.4557571411 60.2868270874
-17.5599899292 32.4630012512 60.0886535645
-17.5625095367 32.4732627869 59.8908996582
-17.5659713745 32.4854621887 59.6934127808
-17.5691108704 32.4969978333 59.4958343506
-17.5708084106 32.5055694580 59.2978401184
-17.5706596375 32.5103530884 59.0993041992
-17.5687942505 32.5116157532 58.9002609253
-17.5653514862 32.5096359253 58.7007369995
-17.5601425171 32.5040283203 58.5006713867
-17.5527629852 32.4939651489 58.2999382019
-17.5431480408 32.4793167114 58.0985107422
-17.5323390961 32.4622154236 57.8966865540
-17.5228328705 32.4477882385 57.6952171326
-17.5178871155 32.4427299500 57.4950981140
-17.5199871063 32.4521331787 57.2970962524
-17.5295410156 32.4768371582 57.1013755798
-17.5446968079 32.5130462646 56.9073944092
-17.5621089935 32.5538825989 56.7141456604
-17.5777568817 32.5911026001 56.5203933716
-17.5875949860 32.6163864136 56.3248634338
