40.9471511841 -20.4521465302 66.9939804077
41.0408134460 -20.5021648407 66.8122177124
41.1289672852 -20.5492420197 66.6299133301
41.2167472839 -20.5961170197 66.4476852417
41.3134727478 -20.6477737427 66.2666625977
41.4225234985 -20.7060146332 66.0872955322
41.5335121155 -20.7652950287 65.9083175659
41.6275253296 -20.8155002594 65.7273635864
41.6902923584 -20.8490104675 65.5426177979
41.7182960510 -20.8639431000 65.3535537720
41.7131195068 -20.8611431122 65.1603012085
41.6745681763 -20.8405113220 64.9627761841
41.6024551392 -20.8019447327 64.7608718872
41.5046081543 -20.7496223450 64.5555343628
41.4004402161 -20.6939258575 64.3492279053
41.3145561218 -20.6479988098 64.1451568604
41.2652168274 -20.6216011047 63.9457511902
41.2576255798 -20.6175136566 63.7517776489
41.2871513367 -20.6332588196 63.5627136230
41.3479957581 -20.6657409668 63.3778610229
41.4375457764 -20.7135620117 63.1969375610
41.5533790588 -20.7754287720 63.0196762085
41.6894187927 -20.8480949402 62.8453102112
41.8365135193 -20.9266662598 62.6726341248
41.9853744507 -21.0061836243 62.5004043579
42.1279792786 -21.0823574066 62.3275146484
42.2570800781 -21.1513156891 62.1529464722
42.3666572571 -21.2098388672 61.9758415222
42.4548950195 -21.2569599152 61.7958984375
42.5278816223 -21.2959327698 61.6139297485
42.5993919373 -21.3341121674 61.4318466187
42.6837081909 -21.3791389465 61.2516746521
42.7846679688 -21.4330577850 61.0739898682
42.8904037476 -21.4895286560 60.8971252441
42.9807090759 -21.5377540588 60.7181777954
43.0407943726 -21.5698318481 60.5349731445
43.0673484802 -21.5839900970 60.3469696045
43.0632972717 -21.5817928314 60.1545181274
43.0312728882 -21.5646476746 59.9579429626
42.9746780396 -21.5343742371 59.7576866150
42.9041175842 -21.4966335297 59.5552673340
42.8405570984 -21.4626369476 59.3537826538
42.8092956543 -21.4458999634 59.1570396423
42.8263053894 -21.4549579620 58.9675064087
42.8867149353 -21.4872074127 58.7845497131
42.9678688049 -21.5305423737 58.6048240662
43.0477790833 -21.5732135773 58.4250144958
43.1226806641 -21.6132068634 58.2445449829
43.2055702209 -21.6574707031 58.0653991699
43.3066787720 -21.7114696503 57.8891868591
43.4164199829 -21.7700824738 57.7144470215
43.5090026855 -21.8195247650 57.5371780396
43.5619964600 -21.8478126526 57.3538208008
43.5710372925 -21.8526115417 57.1636047363
43.5477828979 -21.8401527405 56.9682807922
43.5093002319 -21.8195571899 56.7704925537
43.4716911316 -21.7994270325 56.5727806091
43.4495925903 -21.7875862122 56.3774948120
43.4557228088 -21.7908306122 56.1867218018
43.4969406128 -21.8128261566 56.0016250610
43.5680465698 -21.8507919312 55.8214378357
43.6494216919 -21.8942451477 55.6430206299
43.7151145935 -21.9293193817 55.4621391296
43.7478141785 -21.9467620850 55.2759094238
43.7472114563 -21.9464073181 55.0842094421
43.7250900269 -21.9345550537 54.8889236450
43.6949501038 -21.9184169769 54.6922607422
43.6667213440 -21.9032993317 54.4958648682
43.6471176147 -21.8927917480 54.3008766174
43.6400642395 -21.8889904022 54.1079673767
43.6460647583 -21.8921642303 53.9172554016
43.6634483337 -21.9014225006 53.7284889221
43.6917686462 -21.9165248871 53.5416030884
43.7350921631 -21.9396438599 53.3573303223
43.8029594421 -21.9758796692 53.1773452759
43.9060516357 -22.0309391022 53.0035514832
44.0458335876 -22.1056060791 52.8362770081
44.2059898376 -22.1911602020 52.6727523804
44.3572998047 -22.2719841003 52.5078964233
44.4747924805 -22.3347396851 52.3372955322
44.5509147644 -22.3753871918 52.1595344543
44.5935173035 -22.3981227875 51.9759254456
44.6149902344 -22.4095649719 51.7886009216
44.6242599487 -22.4144859314 51.5991172791
44.6250419617 -22.4148731232 51.4081115723
44.6168251038 -22.4104518890 51.2154769897
44.5959739685 -22.3992767334 51.0205345154
44.5578842163 -22.3788890839 50.8224182129
44.5006446838 -22.3482685089 50.6207466125
44.4271736145 -22.3089771271 50.4160118103
44.3430900574 -22.2640094757 50.2092094421
44.2544555664 -22.2166137695 50.0014419556
44.1714515686 -22.1722259521 49.7945785522
44.1159744263 -22.1425476074 49.5927162170
44.1221923828 -22.1458377838 49.4022865295
44.2203788757 -22.1982765198 49.2290992737
44.4098587036 -22.2994995117 49.0732231140
44.6469726563 -22.4261798859 48.9266128540
44.8682060242 -22.5443744659 48.7773170471
45.0303230286 -22.6309757233 48.6170768738
45.1286392212 -22.6834831238 48.4448699951
45.1828842163 -22.7124404907 48.2643432617
45.2143478394 -22.7292213440 48.0795021057
45.2352638245 -22.7403678894 47.8926582336
45.2499656677 -22.7481918335 47.7046318054
45.2586135864 -22.7527828217 47.5154380798
45.2583694458 -22.7526206970 47.3245124817
45.2427635193 -22.7442493439 47.1305694580
45.2019691467 -22.7224159241 46.9316368103
45.1266822815 -22.6821517944 46.7258262634
45.0149383545 -22.6224060059 46.5126762390
44.8772735596 -22.5488071442 46.2942047119
44.7343025208 -22.4723739624 46.0744667053
44.6061286926 -22.4038448334 45.8574829102
44.5037536621 -22.3491058350 45.6454925537
44.4332313538 -22.3113880157 45.4397773743
44.4064598083 -22.2970485687 45.2428054810
44.4405326843 -22.3152236938 45.0581512451
44.5421829224 -22.3695144653 44.8873138428
44.6958770752 -22.4516143799 44.7272605896
44.8708381653 -22.5450820923 44.5717887878
45.0400161743 -22.6354579926 44.4153594971
45.1920051575 -22.7166481018 44.2556152344
45.3274230957 -22.7889823914 44.0926399231
45.4479064941 -22.8533363342 43.9267387390
45.5505485535 -22.9081554413 43.7572784424
45.6309432983 -22.9510879517 43.5832901001
45.6883811951 -22.9817485809 43.4045829773
45.7268600464 -23.0022811890 43.2219467163
45.7519454956 -23.0156555176 43.0365219116
45.7676467896 -23.0240135193 42.8491325378
45.7757835388 -23.0283298492 42.6601409912
45.7771759033 -23.0290431976 42.4697151184
45.7728157043 -23.0266819000 42.2780456543
45.7642173767 -23.0220546722 42.0854492188
45.7531242371 -23.0160942078 41.8922920227
45.7410736084 -23.0096225739 41.6989059448
45.7288818359 -23.0030765533 41.5054626465
45.7155570984 -22.9959239960 41.3117485046
45.6965484619 -22.9857330322 41.1167602539
45.6632499695 -22.9679088593 40.9185981750
45.6077537537 -22.9382190704 40.7154922485
45.5329818726 -22.8982295990 40.5080375671
45.4597396851 -22.8590564728 40.3008079529
45.4198303223 -22.8376998901 40.1008796692
45.4368400574 -22.8467559814 39.9135856628
45.5098228455 -22.8857269287 39.7388381958
45.6136665344 -22.9411888123 39.5711174011
45.7159004211 -22.9957904816 39.4031715393
45.7964744568 -23.0388164520 39.2304725647
45.8557395935 -23.0704574585 39.0530471802
45.9084777832 -23.0986080170 38.8742103577
45.9720573425 -23.1325531006 38.6979179382
46.0555839539 -23.1771583557 38.5262718201
46.1536445618 -23.2295284271 38.3580741882
46.2490081787 -23.2804584503 38.1893844604
46.3240699768 -23.3205413818 38.0161361694
46.3718490601 -23.3460426331 37.8366622925
46.3977127075 -23.3598327637 37.6521568298
46.4137954712 -23.3683948517 37.4654006958
46.4328842163 -23.3785648346 37.2793579102
46.4641189575 -23.3952255249 37.0961875916
46.5090751648 -23.4192180634 36.9162788391
46.5603218079 -23.4465732574 36.7379112244
46.6061744690 -23.4710445404 36.5583343506
46.6389732361 -23.4885406494 36.3757133484
46.6592674255 -23.4993534088 36.1901512146
46.6734848022 -23.5069198608 36.0031585693
46.6899032593 -23.5156612396 35.8167076111
46.7173919678 -23.5303211212 35.6329307556
46.7656173706 -23.5560588837 35.4541816711
46.8412094116 -23.5964241028 35.2821083069
46.9387435913 -23.6485157013 35.1154518127
47.0345420837 -23.6996784210 34.9485092163
47.0943794250 -23.7316265106 34.7729225159
47.0937957764 -23.7312812805 34.5826377869
47.0352783203 -23.6999778748 34.3781318665
46.9470138550 -23.6527786255 34.1662139893
46.8630332947 -23.6078662872 33.9552230835
46.8021545410 -23.5753021240 33.7498168945
46.7642402649 -23.5550079346 33.5500144958
46.7432518005 -23.5437602997 33.3543624878
46.7401885986 -23.5420932770 33.1631431580
46.7631797791 -23.5543460846 32.9784355164
46.8172760010 -23.5832252502 32.8015594482
46.8954391479 -23.6249618530 32.6308097839
46.9797210693 -23.6699714661 32.4617080688
47.0508117676 -23.7079315186 32.2893791199
47.0942649841 -23.7311210632 32.1101264954
47.0972518921 -23.7326850891 31.9206275940
47.0463943481 -23.7054748535 31.7173786163
46.9386405945 -23.6478614807 31.4994812012
46.7962989807 -23.5717620850 31.2725410461
46.6633949280 -23.5007057190 31.0478191376
46.5791130066 -23.4556331635 30.8354492188
46.5530471802 -23.4416732788 30.6380233765
46.5666084290 -23.4488868713 30.4508380890
46.5945205688 -23.4637718201 30.2673988342
46.6223907471 -23.4786338806 30.0839805603
46.6490898132 -23.4928722382 29.9002876282
46.6812400818 -23.5100193024 29.7180538177
46.7277030945 -23.5348186493 29.5396270752
46.7934799194 -23.5699386597 29.3663520813
46.8719062805 -23.6118164063 29.1965122223
46.9427947998 -23.6496696472 29.0247764587
46.9835472107 -23.6714172363 28.8451156616
46.9846687317 -23.6719837189 28.6549320221
46.9526634216 -23.6548480988 28.4558830261
46.8993377686 -23.6263198853 28.2510623932
46.8317604065 -23.5901737213 28.0423240662
46.7506790161 -23.5468120575 27.8298397064
46.6546058655 -23.4954395294 27.6131782532
46.5488433838 -23.4388866425 27.3937454224
46.4538497925 -23.3880901337 27.1770782471
46.3981361389 -23.3582839966 26.9709701538
46.3960800171 -23.3571548462 26.7794322968
46.4370841980 -23.3790359497 26.5996780396
46.4996414185 -23.4124355316 26.4258937836
46.5694732666 -23.4497222900 26.2541923523
46.6423797607 -23.4886512756 26.0834312439
46.7181167603 -23.5290946960 25.9135513306
46.7962760925 -23.5708293915 25.7444419861
46.8753128052 -23.6130371094 25.5756816864
46.9545974731 -23.6553745270 25.4070949554
47.0373153687 -23.6995487213 25.2395725250
47.1277008057 -23.7478199005 25.0743122101
47.2231559753 -23.7987995148 24.9105949402
47.3113021851 -23.8458747864 24.7449493408
47.3767700195 -23.8808288574 24.5730133057
47.4086151123 -23.8978157043 24.3916397095
47.4003143311 -23.8933486938 24.1989059448
47.3472328186 -23.8649482727 23.9934043884
47.2506065369 -23.8132801056 23.7753906250
47.1245765686 -23.7458972931 23.5488204956
46.9932823181 -23.6756992340 23.3205490112
46.8763847351 -23.6131973267 23.0962200165
46.7784118652 -23.5608081818 22.8771724701
46.6934547424 -23.5153751373 22.6617355347
46.6169319153 -23.4744491577 22.4486122131
46.5501899719 -23.4387493134 22.2382106781
46.4970703125 -23.4103317261 22.0316715240
46.4607582092 -23.3908939362 21.8299503326
46.4422302246 -23.3809604645 21.6333732605
46.4377326965 -23.3785247803 21.4408740997
46.4389038086 -23.3791198730 21.2500286102
46.4393539429 -23.3793296814 21.0589618683
46.4407615662 -23.3800487518 20.8681716919
46.4505310059 -23.3852367401 20.6798496246
46.4741821289 -23.3978462219 20.4956569672
46.5112915039 -23.4176464081 20.3154907227
46.5577239990 -23.4424266815 20.1381511688
46.6096191406 -23.4701271057 19.9625053406
46.6634140015 -23.4988460541 19.7874927521
46.7126579285 -23.5251293182 19.6111831665
46.7475395203 -23.5437412262 19.4306106567
46.7590293884 -23.5498485565 19.2430171967
46.7432937622 -23.5414066315 19.0471935272
46.7032394409 -23.5199699402 18.8439655304
46.6472511292 -23.4900188446 18.6358261108
46.5858535767 -23.4571743011 18.4259490967
46.5278434753 -23.4261417389 18.2170104980
46.4791259766 -23.4000759125 18.0108261108
46.4457130432 -23.3821868896 17.8092594147
46.4386787415 -23.3783950806 17.6157512665
46.4741783142 -23.3973350525 17.4353389740
46.5628967285 -23.4447154999 17.2714138031
46.6956176758 -23.5156116486 17.1212406158
46.8417510986 -23.5936756134 16.9754104614
46.9665908813 -23.6603603363 16.8231582642
47.0517387390 -23.7058296204 16.6586933136
47.0999450684 -23.7315616608 16.4827957153
47.1247253418 -23.7447738647 16.2996177673
47.1385726929 -23.7521419525 16.1130352020
47.1484718323 -23.7573986053 15.9252185822
47.1570892334 -23.7619724274 15.7370042801
47.1650314331 -23.7661857605 15.5485811234
47.1721992493 -23.7699832916 15.3599147797
47.1782226563 -23.7731704712 15.1708869934
47.1822891235 -23.7753143311 14.9812374115
47.1826019287 -23.7754497528 14.7903871536
47.1754074097 -23.7715721130 14.5971269608
47.1541633606 -23.7601871490 14.3993453979
47.1101417542 -23.7366294861 14.1942071915
47.0358009338 -23.6968688965 13.9792366028
46.9306602478 -23.6406497955 13.7542123795
46.8060417175 -23.5740203857 13.5227298737
46.6834487915 -23.5084724426 13.2917156219
46.5850715637 -23.4558658600 13.0683832169
46.5232009888 -23.4227695465 12.8567857742
46.4982109070 -23.4093818665 12.6571235657
46.5055770874 -23.4132881165 12.4679985046
46.5424613953 -23.4329662323 12.2885475159
46.6069450378 -23.4673976898 12.1182079315
46.6929283142 -23.5133171082 11.9550275803
46.7878570557 -23.5640163422 11.7949123383
46.8763351440 -23.6112670898 11.6327924728
46.9466438293 -23.6488113403 11.4647741318
46.9951820374 -23.6747188568 11.2896184921
47.0257301331 -23.6910114288 11.1085376740
47.0452270508 -23.7013988495 10.9238080978
47.0601844788 -23.7093601227 10.7375812531
47.0760765076 -23.7178230286 10.5516805649
47.0981178284 -23.7295703888 10.3678579330
47.1303634644 -23.7467689514 10.1874895096
47.1724243164 -23.7692165375 10.0104684830
47.2176284790 -23.7933425903 9.8345613480
47.2565155029 -23.8140926361 9.6565723419
47.2834281921 -23.8284435272 9.4745683670
47.2995071411 -23.8370037079 9.2889127731
47.3100090027 -23.8425846100 9.1013717651
47.3200798035 -23.8479366302 8.9136915207
47.3331680298 -23.8548984528 8.7270479202
47.3522033691 -23.8650398254 8.5424537659
47.3819046021 -23.8808803558 8.3615427017
47.4297981262 -23.9064445496 8.1869287491
47.5030136108 -23.9455394745 8.0211095810
47.6011276245 -23.9979400635 7.8639950752
47.7124443054 -24.0573997498 7.7115869522
47.8211822510 -24.1154785156 7.5584344864
47.9204330444 -24.1684894562 7.4021315575
48.0163879395 -24.2197360992 7.2448124886
48.1183166504 -24.2741775513 7.0897111893
48.2255172729 -24.3314361572 6.9365916252
48.3250312805 -24.3845863342 6.7809233665
48.4012603760 -24.4252910614 6.6172060966
48.4457473755 -24.4490356445 6.4424123764
48.4579658508 -24.4555339813 6.2562880516
48.4402236938 -24.4460201263 6.0595779419
48.3951759338 -24.4219131470 5.8531594276
48.3280982971 -24.3860359192 5.6388478279
48.2485466003 -24.3434906006 5.4199910164
48.1667327881 -24.2997360229 5.2002067566
48.0856475830 -24.2563705444 4.9805555344
47.9959487915 -24.2084007263 4.7576966286
47.8827209473 -24.1478595734 4.5262632370
47.7438316345 -24.0736026764 4.2854347229
47.6035842896 -23.9986190796 4.0439100266
47.5048027039 -23.9457988739 3.8171358109
47.4837532043 -23.9345169067 3.6183109283
47.5491485596 -23.9694328308 3.4507608414
47.6783561707 -24.0384521484 3.3064577579
47.8295783997 -24.1192359924 3.1703386307
47.9618797302 -24.1899089813 3.0275335312
48.0503921509 -24.2371807098 2.8689236641
48.0884208679 -24.2574729919 2.6919634342
48.0824623108 -24.2542572021 2.4989264011
48.0489044189 -24.2362899780 2.2957353592
48.0093803406 -24.2151355743 2.0902919769
47.9808311462 -24.1998481750 1.8888306618
47.9679336548 -24.1929244995 1.6931020021
47.9651947021 -24.1914272308 1.5011057854
47.9643745422 -24.1909561157 1.3098086119
47.9592475891 -24.1881847382 1.1169021130
47.9456939697 -24.1809101105 0.9208429456
47.9195632935 -24.1669139862 0.7200630307
47.8750724792 -24.1431045532 0.5123755336
47.8054046631 -24.1058425903 0.2951875925
47.7059288025 -24.0526485443 0.0667065158
22.9018402100 13.7617063522 88.1577911377
22.9034633636 13.7641067505 87.9529876709
22.9216995239 13.7770748138 87.7486114502
22.9715595245 13.8101606369 87.5451126099
23.0628776550 13.8696184158 87.3428192139
23.1876258850 13.9503421783 87.1416015625
23.3173389435 14.0342226028 86.9406967163
23.4170970917 14.0990476608 86.7390747070
23.4657211304 14.1313428879 86.5360183716
23.4654636383 14.1325445175 86.3314895630
23.4359283447 14.1151227951 86.1260147095
23.3997383118 14.0934677124 85.9202651978
23.3708496094 14.0764560699 85.7147064209
23.3519687653 14.0658121109 85.5094375610
23.3396034241 14.0593128204 85.3043594360
23.3302135468 14.0547056198 85.0993652344
23.3236312866 14.0518856049 84.8944473267
23.3251819611 14.0542373657 84.6898117065
23.3495979309 14.0711345673 84.4860305786
23.4251804352 14.1205768585 84.2842407227
23.5899162292 14.2267246246 84.0860290527
23.8719863892 14.4075040817 83.8927078247
24.2632293701 14.6577196121 83.7042007446
24.7106418610 14.9436588287 83.5185546875
25.1408443451 15.2186460495 83.3328094482
25.4996223450 15.4482011795 83.1446151733
25.7736091614 15.6238241196 82.9532470703
25.9817695618 15.7575750351 82.7593612671
26.1528244019 15.8677253723 82.5641021729
26.3082523346 15.9679346085 82.3683624268
26.4546146393 16.0623760223 82.1724166870
26.5805835724 16.1438465118 81.9757156372
26.6609706879 16.1963253021 81.7770156860
26.6730442047 16.2053546906 81.5751190186
26.6170616150 16.1711025238 81.3699035645
26.5205631256 16.1110820770 81.1625823975
26.4195384979 16.0481834412 80.9548950195
26.3347148895 15.9955902100 80.7478713989
26.2646713257 15.9523973465 80.5414962769
26.1972064972 15.9108448029 80.3351440430
26.1246395111 15.8660497665 80.1284179688
26.0502738953 15.8201093674 79.9214782715
25.9829177856 15.7786293030 79.7148132324
25.9257621765 15.7436361313 79.5086059570
25.8690185547 15.7089052200 79.3023300171
25.7918834686 15.6612071991 79.0948104858
25.6747684479 15.5880851746 78.8848724365
25.5171985626 15.4892377853 78.6724090576
25.3475761414 15.3827276230 78.4590072632
25.2121791840 15.2979850769 78.2473907471
25.1521854401 15.2611913681 78.0401229858
25.1893825531 15.2862062454 77.8386917114
25.3241958618 15.3732957840 77.6433258057
25.5361595154 15.5094432831 77.4529571533
25.7909584045 15.6728286743 77.2655792236
26.0609416962 15.8458681107 77.0795211792
26.3394603729 16.0243320465 76.8943939209
26.6249389648 16.2072200775 76.7101058960
26.8924121857 16.3786544800 76.5250167847
27.0946063995 16.5085773468 76.3359527588
27.1962509155 16.5745601654 76.1403961182
27.2024555206 16.5798587799 75.9384689331
27.1557540894 16.5515117645 75.7329101563
27.1144485474 16.5265979767 75.5276489258
27.1381111145 16.5429973602 75.3268814087
27.2846984863 16.6375560760 75.1348495483
27.5968837738 16.8374080658 74.9548797607
28.0653934479 17.1366539001 74.7866516113
28.6072368622 17.4825267792 74.6244277954
29.1055698395 17.8007259369 74.4597549438
29.4847049713 18.0431327820 74.2869033813
29.7422542572 18.2082290649 74.1054458618
29.9162044525 18.3201694489 73.9180068970
30.0396747589 18.4000110626 73.7269363403
30.1280288696 18.4575252533 73.5333175659
30.1904315948 18.4985389709 73.3377914429
30.2388305664 18.5306491852 73.1412429810
30.2844886780 18.5610141754 72.9445343018
30.3291988373 18.5907783508 72.7478103638
30.3623695374 18.6132049561 72.5502014160
30.3705978394 18.6197738647 72.3506011963
30.3521671295 18.6093921661 72.1488189697
30.3209877014 18.5909061432 71.9459381104
30.2966442108 18.5767669678 71.7435760498
30.2945632935 18.5767803192 71.5430450439
30.3259181976 18.5980510712 71.3453521729
30.3998069763 18.6463642120 71.1513366699
30.5180721283 18.7228889465 70.9612655640
30.6681652069 18.8196449280 70.7741241455
30.8273143768 18.9221591949 70.5879745483
30.9775600433 19.0190105438 70.4012603760
31.1159286499 19.1083087921 70.2136917114
31.2505893707 19.1952495575 70.0259704590
31.3897552490 19.2850532532 69.8388442993
31.5329036713 19.3773880005 69.6522750854
31.6685619354 19.4649600983 69.4652023315
31.7807636261 19.5376186371 69.2761383057
31.8600502014 19.5893516541 69.0841445923
31.9085845947 19.6215362549 68.8893508911
31.9352970123 19.6398468018 68.6925506592
31.9483146667 19.6494522095 68.4944686890
31.9518394470 19.6530246735 68.2954788208
31.9473190308 19.6514797211 68.0957031250
31.9355506897 19.6453304291 67.8952026367
31.9179439545 19.6354694366 67.6940994263
31.8968315125 19.6233787537 67.4926223755
31.8751831055 19.6109504700 67.2910461426
31.8561439514 19.6001796722 67.0896987915
31.8428936005 19.5930881500 66.8889007568
31.8394374847 19.5922222137 66.6890716553
31.8525733948 19.6019039154 66.4909362793
31.8934593201 19.6292228699 66.2956848145
31.9753360748 19.6825981140 66.1047515869
32.1057319641 19.7668113708 65.9190139771
32.2780570984 19.8776760101 65.7378921509
32.4711494446 20.0017375946 65.5592041016
32.6596565247 20.1228828430 65.3802947998
32.8280754089 20.2312602997 65.1994781494
32.9761810303 20.3267230988 65.0166854858
33.1103248596 20.4133110046 64.8325805664
33.2304420471 20.4909839630 64.6471023560
33.3279418945 20.5542793274 64.4592971802
33.3950195313 20.5982360840 64.2682266235
33.4317817688 20.6229267120 64.0738525391
33.4435882568 20.6317558289 63.8767051697
33.4340133667 20.6269950867 63.6771392822
33.4016456604 20.6077461243 63.4749526978
33.3439254761 20.5723896027 63.2697982788
33.2657241821 20.5240116119 63.0621871948
33.1851615906 20.4741382599 62.8541831970
33.1303825378 20.4406490326 62.6490707397
33.1302528381 20.4418926239 62.4503021240
33.2068939209 20.4919281006 62.2606163025
33.3705520630 20.5972652435 62.0813941956
33.6136970520 20.7531147003 61.9119224548
33.9084663391 20.9417705536 61.7490081787
34.2149314880 21.1378593445 61.5879211426
34.4979438782 21.3190364838 61.4244041443
34.7401618958 21.4742889404 61.2562713623
34.9413490295 21.6034622192 61.0834159851
35.1073265076 21.7102584839 60.9064674377
35.2415771484 21.7968921661 60.7257843018
35.3449249268 21.8638858795 60.5414085388
35.4180374146 21.9116649628 60.3533515930
35.4641532898 21.9422874451 60.1619682312
35.4924049377 21.9615554810 59.9683570862
35.5162544250 21.9780292511 59.7742118835
35.5434608459 21.9966335297 59.5805282593
35.5677146912 22.0133609772 59.3864898682
35.5729637146 22.0180110931 59.1899986267
35.5465431213 22.0025405884 58.9893493652
35.4900016785 21.9679279327 58.7846832275
35.4218330383 21.9259262085 58.5783882141
35.3701362610 21.8943939209 58.3741798401
35.3584785461 21.8883037567 58.1752586365
35.3950309753 21.9128475189 57.9828071594
35.4741516113 21.9644393921 57.7961616516
35.5882606506 22.0382633209 57.6143875122
35.7370071411 22.1340961456 57.4375076294
35.9228591919 22.2535037994 57.2659339905
36.1381988525 22.3916454315 57.0986976624
36.3594970703 22.5335712433 56.9325828552
36.5546150208 22.6588611603 56.7631187439
36.6967163086 22.7504634857 56.5864791870
36.7758445740 22.8020515442 56.4011421204
36.8018341064 22.8198757172 56.2083740234
36.7969169617 22.8180618286 56.0112266541
36.7831535339 22.8106288910 55.8127975464
36.7731552124 22.8055877686 55.6148796082
36.7687187195 22.8040790558 55.4177474976
36.7653198242 22.8032321930 55.2207489014
36.7571563721 22.7993583679 55.0230407715
36.7398185730 22.7896537781 54.8239669800
36.7116203308 22.7730522156 54.6232566833
36.6762275696 22.7518787384 54.4214286804
36.6450119019 22.7333564758 54.2201690674
36.6341667175 22.7277793884 54.0219001770
36.6560859680 22.7430171967 53.8285369873
36.7134590149 22.7807788849 53.6405525208
36.8024559021 22.8386344910 53.4574432373
36.9200248718 22.9146385193 53.2788085938
37.0668182373 23.0092086792 53.1048126221
37.2429351807 23.1224060059 52.9355278015
37.4397888184 23.2487754822 52.7696952820
37.6370735168 23.3754158020 52.6041984558
37.8119087219 23.4877967834 52.4354705811
37.9526062012 23.5784835815 52.2616310120
38.0614929199 23.6489639282 52.0829734802
38.1454963684 23.7036361694 51.9005241394
38.2081527710 23.7447471619 51.7147941589
38.2504539490 23.7729225159 51.5258979797
38.2745437622 23.7895317078 51.3341293335
38.2842521667 23.7970046997 51.1400718689
38.2833862305 23.7977600098 50.9443092346
38.2746810913 23.7935371399 50.7472648621
38.2596130371 23.7852706909 50.5491561890
38.2382698059 23.7730197906 50.3499946594
38.2097511292 23.7562103271 50.1496086121
38.1750907898 23.7354984283 49.9481582642
38.1429328918 23.7163791656 49.7470703125
38.1327819824 23.7112369537 49.5495910645
38.1687088013 23.7353668213 49.3598098755
38.2651824951 23.7979526520 49.1802520752
38.4165840149 23.8954277039 49.0101013184
38.6001701355 24.0133476257 48.8456153870
38.7901954651 24.1353530884 48.6824760437
38.9709587097 24.2514762878 48.5180206299
39.1378631592 24.3587932587 48.3514289856
39.2895164490 24.4564208984 48.1824378967
39.4238548279 24.5430526733 48.0106582642
39.5411224365 24.6188354492 47.8360900879
39.6442184448 24.6856193542 47.6592102051
39.7337875366 24.7438106537 47.4800949097
39.8055877686 24.7907161713 47.2979698181
39.8533515930 24.8223514557 47.1116943359
39.8731346130 24.8362159729 46.9205093384
39.8666381836 24.8333911896 46.7246665955
39.8422508240 24.8192005157 46.5256042480
39.8120574951 24.8013229370 46.3254547119
39.7865753174 24.7864379883 46.1261024475
39.7721824646 24.7785987854 45.9287147522
39.7723999023 24.7800369263 45.7339515686
39.7889289856 24.7918338776 45.5421562195
39.8195877075 24.8126068115 45.3529624939
39.8564033508 24.8372859955 45.1649360657
39.8889884949 24.8592834473 44.9761772156
39.9134635925 24.8761253357 44.7859497070
39.9400138855 24.8942890167 44.5961341858
39.9905815125 24.9277019501 44.4108314514
40.0846214294 24.9887237549 44.2337417603
40.2237701416 25.0783920288 44.0652656555
40.3896598816 25.1850433350 43.9020271301
40.5550231934 25.2913551331 43.7389144897
40.6954383850 25.3818244934 43.5712852478
40.7956275940 25.4467468262 43.3961677551
40.8531646729 25.4845790863 43.2130050659
40.8788146973 25.5021667480 43.0237808228
40.8899269104 25.5105171204 42.8317756653
40.9003639221 25.5184421539 42.6396484375
40.9149208069 25.5289802551 42.4483299255
40.9304199219 25.5401210785 42.2572059631
40.9402770996 25.5476760864 42.0649909973
40.9392509460 25.5483207703 41.8706436157
40.9265365601 25.5415420532 41.6739730835
40.9057350159 25.5296306610 41.4756774902
40.8826904297 25.5162925720 41.2768974304
40.8639259338 25.5056743622 41.0789299011
40.8571853638 25.5026912689 40.8833351135
40.8719062805 25.5133342743 40.6920356750
40.9160881042 25.5426864624 40.5066909790
40.9893722534 25.5905170441 40.3272895813
41.0790863037 25.6487770081 40.1513214111
41.1663818359 25.7055034637 39.9749794006
41.2388534546 25.7528152466 39.7957229614
41.2978134155 25.7915458679 39.6137847900
41.3551750183 25.8292636871 39.4315986633
41.4249763489 25.8748779297 39.2520523071
41.5156135559 25.9337196350 39.0769195557
41.6264953613 26.0054168701 38.9061203003
41.7509613037 26.0857391357 38.7383117676
41.8816642761 26.1700191498 38.5719757080
42.0106124878 26.2531833649 38.4054489136
42.1244354248 26.3267440796 38.2359046936
42.2047080994 26.3790016174 38.0594177246
42.2362899780 26.4003429413 37.8726921082
42.2154998779 26.3884353638 37.6748428345
42.1517677307 26.3492641449 37.4677734375
42.0629844666 26.2941875458 37.2552299500
41.9665298462 26.2342414856 37.0409011841
41.8711662292 26.1749897003 36.8266601563
41.7770500183 26.1165313721 36.6125488281
41.6841049194 26.0588169098 36.3985443115
41.5997619629 26.0065612793 36.1862754822
41.5379524231 25.9686164856 35.9788093567
41.5114021301 25.9530563354 35.7789878845
41.5249786377 25.9629707336 35.5879554749
41.5741691589 25.9954929352 35.4048042297
41.6484680176 26.0439567566 35.2272834778
41.7388496399 26.1026287079 35.0534324646
41.8433685303 26.1702766418 34.8828582764
41.9641761780 26.2482604980 34.7160720825
42.0991401672 26.3352336884 34.5526275635
42.2382545471 26.4248390198 34.3903007507
42.3664665222 26.5075206757 34.2257041931
42.4677124023 26.5730857849 34.0551681519
42.5294036865 26.6135387421 33.8757743835
42.5482864380 26.6268157959 33.6866912842
42.5337142944 26.6188564301 33.4899749756
42.5038185120 26.6011695862 33.2897148132
42.4764900208 26.5851135254 33.0899887085
42.4626922607 26.5776462555 32.8933448792
42.4666671753 26.5814628601 32.7007865906
42.4888572693 26.5968379974 32.5124626160
42.5257606506 26.6215553284 32.3275871277
42.5685577393 26.6500129700 32.1441383362
42.6062126160 26.6752052307 31.9595336914
42.6322402954 26.6930179596 31.7722396851
42.6479644775 26.7042884827 31.5825424194
42.6597366333 26.7130527496 31.3919258118
42.6744079590 26.7236557007 31.2020034790
42.6973037720 26.7394790649 31.0140533447
42.7326889038 26.7632312775 30.8291110992
42.7840805054 26.7971401215 30.6480445862
42.8526229858 26.8419361115 30.4711627960
42.9346923828 26.8953170776 30.2976303101
43.0215072632 26.9517097473 30.1253547668
43.1020812988 27.0041408539 29.9516830444
43.1677894592 27.0471343994 29.7745018005
43.2156333923 27.0787906647 29.5930500031
43.2483596802 27.1008510590 29.4079627991
43.2718849182 27.1170711517 29.2206573486
43.2920989990 27.1311893463 29.0325603485
43.3125801086 27.1454772949 28.8445510864
43.3333587646 27.1599540710 28.6566371918
43.3509674072 27.1724185944 28.4679565430
43.3601951599 27.1795616150 28.2772064209
43.3570251465 27.1788387299 28.0833683014
43.3411865234 27.1700744629 27.8863468170
43.3165969849 27.1557579041 27.6870975494
43.2889595032 27.1395092010 27.4870376587
43.2608909607 27.1229839325 27.2868194580
43.2282905579 27.1035842896 27.0854053497
43.1839752197 27.0767498016 26.8809623718
43.1281433105 27.0426063538 26.6735172272
43.0736618042 27.0093212128 26.4663257599
43.0369033813 26.9872856140 26.2635879517
43.0248870850 26.9809494019 26.0671386719
43.0344581604 26.9883136749 25.8762226105
43.0603332520 27.0060272217 25.6895198822
43.0981597900 27.0313205719 25.5059394836
43.1412963867 27.0599861145 25.3237838745
43.1798896790 27.0857677460 25.1404991150
43.2048683167 27.1029090881 24.9537067413
43.2123451233 27.1089439392 24.7623615265
43.2051124573 27.1056442261 24.5671558380
43.1911735535 27.0980911255 24.3701686859
43.1794433594 27.0919361115 24.1737365723
43.1747932434 27.0902748108 23.9791507721
43.1762733459 27.0925045013 23.7861766815
43.1793899536 27.0957736969 23.5936317444
43.1793785095 27.0970573425 23.4002475739
43.1729621887 27.0942783356 23.2051429749
43.1585273743 27.0864105225 23.0078697205
43.1354942322 27.0730857849 22.8082561493
43.1027832031 27.0536212921 22.6059913635
43.0569076538 27.0258026123 22.4001102448
42.9925231934 26.9862422943 22.1891403198
42.9077987671 26.9337749481 21.9725399017
42.8102531433 26.8731746674 21.7523174286
42.7153549194 26.8142547607 21.5326690674
42.6381683350 26.7665729523 21.3177299500
42.5869369507 26.7353610992 21.1097965240
42.5635032654 26.7217884064 20.9094390869
42.5672378540 26.7254524231 20.7165374756
42.5974769592 26.7459316254 20.5309677124
42.6526412964 26.7822265625 20.3523521423
42.7276115417 26.8310871124 20.1793155670
42.8128395081 26.8864555359 20.0092411041
42.8970336914 26.9411678314 19.8389892578
42.9716949463 26.9898281097 19.6661777496
43.0335464478 27.0303630829 19.4898643494
43.0830421448 27.0630588531 19.3101501465
43.1208801270 27.0883560181 19.1272029877
43.1464576721 27.1058769226 18.9408302307
43.1593666077 27.1153583527 18.7508869171
43.1614952087 27.1180019379 18.5578861237
43.1571388245 27.1165313721 18.3630294800
43.1503677368 27.1135272980 18.1674652100
43.1419868469 27.1095027924 17.9714221954
43.1293983459 27.1028079987 17.7741489410
43.1093521118 27.0913848877 17.5746994019
43.0804138184 27.0743198395 17.3726425171
43.0440826416 27.0525646210 17.1683959961
43.0063934326 27.0299472809 16.9636917114
42.9786682129 27.0136528015 16.7618255615
42.9734382629 27.0116291046 16.5664787292
42.9966049194 27.0276184082 16.3794212341
43.0437278748 27.0588054657 16.1994152069
43.1048316956 27.0988616943 16.0235805511
43.1717262268 27.1425895691 15.8495292664
43.2398681641 27.1871089935 15.6759347916
43.3055915833 27.2300949097 15.5017147064
43.3654975891 27.2693862915 15.3258504868
43.4192237854 27.3047599792 15.1482267380
43.4701423645 27.3383522034 14.9698343277
43.5211830139 27.3720188141 14.7915420532
43.5703964233 27.4045295715 14.6127681732
43.6116027832 27.4319591522 14.4316492081
43.6388397217 27.4505271912 14.2463741302
43.6493225098 27.4584693909 14.0560722351
43.6425819397 27.4554824829 13.8605632782
43.6182746887 27.4413566589 13.6597089767
43.5757560730 27.4156799316 13.4532737732
43.5154113770 27.3786964417 13.2413358688
43.4392929077 27.3317089081 13.0244846344
43.3502082825 27.2764949799 12.8035440445
43.2520332336 27.2155189514 12.5796785355
43.1530685425 27.1540412903 12.3554182053
43.0680885315 27.1014347076 12.1353206635
43.0145149231 27.0687522888 11.9248008728
43.0048027039 27.0638847351 11.7277822495
43.0405921936 27.0878791809 11.5448703766
43.1121101379 27.1345348358 11.3731222153
43.2035903931 27.1938495636 11.2076950073
43.3020019531 27.2575626373 11.0445585251
43.4020919800 27.3223361969 10.8820800781
43.5034675598 27.3879241943 10.7201404572
43.6040229797 27.4529914856 10.5580806732
43.6968002319 27.5131263733 10.3937025070
43.7726440430 27.5625190735 10.2240934372
43.8256607056 27.5974330902 10.0473480225
43.8563919067 27.6182174683 9.8635931015
43.8701820374 27.6282520294 9.6744766235
43.8729324341 27.6312904358 9.4818496704
43.8681564331 27.6295509338 9.2868089676
43.8562011719 27.6232624054 9.0894536972
43.8347358704 27.6109409332 8.8890161514
43.8003234863 27.5904102325 8.6843700409
43.7521171570 27.5611305237 8.4752140045
43.6960716248 27.5268821716 8.2634449005
43.6457138062 27.4962406158 8.0534305573
43.6173133850 27.4795207977 7.8504681587
43.6225814819 27.4841556549 7.6584200859
43.6632843018 27.5112628937 7.4779348373
43.7299842834 27.5548515320 7.3060002327
43.8062553406 27.6045131683 7.1372923851
43.8774375916 27.6509437561 6.9670124054
43.9380226135 27.6906547546 6.7933382988
43.9919509888 27.7261447906 6.6175465584
44.0465278625 27.7620429993 6.4420380592
44.1058845520 27.8009757996 6.2681837082
44.1688728333 27.8422088623 6.0956120491
44.2318115234 27.8834095001 5.9231061935
44.2920341492 27.9228858948 5.7497754097
44.3476676941 27.9594554901 5.5749907494
44.3946838379 27.9905567169 5.3973903656
44.4261207581 28.0117797852 5.2146186829
44.4352035522 28.0188312531 5.0243649483
44.4190826416 28.0098991394 4.8256182671
44.3802032471 27.9865360260 4.6191515923
44.3247337341 27.9526557922 4.4070038795
44.2587738037 27.9121246338 4.1912078857
44.1850318909 27.8666591644 3.9726631641
44.1034431458 27.8162193298 3.7513308525
44.0152473450 27.7615928650 3.5276160240
43.9259338379 27.7062587738 3.3033840656
43.8438415527 27.6555004120 3.0814895630
43.7758674622 27.6136970520 2.8643207550
43.7243232727 27.5823097229 2.6527009010
43.6872749329 27.5601139069 2.4460010529
43.6613540649 27.5449752808 2.2430863380
43.6439361572 27.5352268219 2.0430724621
43.6332435608 27.5297431946 1.8453598022
43.6272506714 27.5272388458 1.6492580175
43.6228752136 27.5257587433 1.4537028074
43.6158790588 27.5226192474 1.2572171688
43.6009178162 27.5144290924 1.0579253435
43.5716667175 27.4971809387 0.8535896540
43.5221290588 27.4670696259 0.6420723200
43.4502639771 27.4228057861 0.4226114452
43.3616333008 27.3679122925 0.1971200556
28.5231132507 -41.4838562012 93.0787048340
28.5501995087 -41.5253868103 92.8907241821
28.5921993256 -41.5898094177 92.7034225464
28.6356639862 -41.6564788818 92.5162658691
28.6700534821 -41.7092170715 92.3287963867
28.6923046112 -41.7433242798 92.1408538818
28.7071113586 -41.7660026550 91.9526138306
28.7237854004 -41.7915458679 91.7644805908
28.7517681122 -41.8344535828 91.5769271851
28.7947406769 -41.9003715515 91.3901748657
28.8441257477 -41.9761276245 91.2038421631
28.8801269531 -42.0313453674 91.0169219971
28.8868637085 -42.0416336060 90.8285064697
28.8706665039 -42.0167198181 90.6388626099
28.8596420288 -41.9997444153 90.4494552612
28.8813953400 -42.0330886841 90.2618713379
28.9412937164 -42.1249847412 90.0765304565
29.0217552185 -42.2484474182 89.8925323486
29.0980319977 -42.3654899597 89.7084579468
29.1512680054 -42.4471626282 89.5231399536
29.1706066132 -42.4767951965 89.3358154297
29.1513347626 -42.4471626282 89.1460800171
29.0959358215 -42.3620719910 88.9539642334
29.0180644989 -42.2424812317 88.7602310181
28.9435501099 -42.1280441284 88.5665359497
28.9012489319 -42.0630569458 88.3748550415
28.9073772430 -42.0724143982 88.1864166260
28.9573917389 -42.1491394043 88.0010757446
29.0315494537 -42.2629280090 87.8175582886
29.1071453094 -42.3789253235 87.6343154907
29.1686191559 -42.4732398987 87.4501876831
29.2119216919 -42.5396614075 87.2648391724
29.2425956726 -42.5867004395 87.0786132813
29.2701835632 -42.6289978027 86.8922119141
29.3025493622 -42.6786346436 86.7062454224
29.3420314789 -42.7391891479 86.5209045410
29.3846321106 -42.8045349121 86.3358993530
29.4233036041 -42.8638496399 86.1506576538
29.4530353546 -42.9094390869 85.9647598267
29.4731998444 -42.9403419495 85.7781219482
29.4859275818 -42.9598312378 85.5908813477
29.4934368134 -42.9713096619 85.4032135010
29.4968280792 -42.9764595032 85.2151947021
29.4960613251 -42.9752349854 85.0268020630
29.4898738861 -42.9656829834 84.8379211426
29.4754638672 -42.9435157776 84.6482696533
29.4492359161 -42.9032020569 84.4574813843
29.4093685150 -42.8419494629 84.2653656006
29.3593978882 -42.7651901245 84.0721893311
29.3105049133 -42.6900825500 83.8789978027
29.2813549042 -42.6452865601 83.6875915527
29.2941799164 -42.6649246216 83.5002136230
29.3647174835 -42.7731552124 83.3185577393
29.4882736206 -42.9627723694 83.1423645020
29.6348667145 -43.1877593994 82.9687652588
29.7647438049 -43.3870811462 82.7937927246
29.8533172607 -43.5229949951 82.6148300171
29.9009742737 -43.5961074829 82.4317855835
29.9221343994 -43.6285362244 82.2460403442
29.9312000275 -43.6424064636 82.0590438843
29.9377441406 -43.6523971558 81.8717880249
29.9459056854 -43.6648788452 81.6847076416
29.9535274506 -43.6765289307 81.4975891113
29.9551486969 -43.6789665222 81.3098068237
29.9487762451 -43.6691322327 81.1211166382
29.9383525848 -43.6530799866 80.9319458008
29.9294090271 -43.6393013000 80.7429122925
29.9244422913 -43.6316261292 80.5543136597
29.9231185913 -43.6295433044 80.3661193848
29.9252910614 -43.6328277588 80.1783294678
29.9328041077 -43.6443138123 79.9911727905
29.9483242035 -43.6680870056 79.8049926758
29.9721260071 -43.7045745850 79.6198501587
30.0000724792 -43.7474250793 79.4352569580
30.0256519318 -43.7866401672 79.2504272461
30.0445594788 -43.8156166077 79.0648117065
30.0573425293 -43.8351860046 78.8784637451
30.0684127808 -43.8521308899 78.6919097900
30.0833053589 -43.8749427795 78.5058746338
30.1055622101 -43.9090576172 78.3208084106
30.1336669922 -43.9521522522 78.1365585327
30.1610507965 -43.9941368103 77.9522705078
30.1823158264 -44.0267333984 77.7672195435
30.2009963989 -44.0553588867 77.5818557739
30.2276153564 -44.0961685181 77.3976135254
30.2672138214 -44.1569061279 77.2151870728
30.3123893738 -44.2262077332 77.0336151123
30.3536128998 -44.2894363403 76.8515853882
30.3943634033 -44.3519439697 76.6695785522
30.4500026703 -44.4373054504 76.4897613525
30.5300216675 -44.5600929260 76.3135299683
30.6247730255 -44.7054939270 76.1395874023
30.7120437622 -44.8394126892 75.9647674561
30.7747440338 -44.9356155396 75.7865676880
30.8103427887 -44.9902114868 75.6045150757
30.8263492584 -45.0147361755 75.4196395874
30.8314990997 -45.0225906372 75.2331695557
30.8314094543 -45.0223999023 75.0459136963
30.8287563324 -45.0182762146 74.8582687378
30.8240604401 -45.0110206604 74.6702880859
30.8147792816 -44.9967231750 74.4815902710
30.7933330536 -44.9637489319 74.2909774780
30.7481727600 -44.8943710327 74.0966110229
30.6739082336 -44.7803192139 73.8975524902
30.5871467590 -44.6470794678 73.6963424683
30.5281677246 -44.5564918518 73.4993515015
30.5338306427 -44.5651359558 73.3125991821
30.6042633057 -44.6732063293 73.1363296509
30.7032890320 -44.8251686096 72.9648742676
30.7927131653 -44.9623947144 72.7920608521
30.8601341248 -45.0658454895 72.6158065796
30.9162445068 -45.1519317627 72.4378204346
30.9752616882 -45.2424774170 72.2604370117
31.0407886505 -45.3430175781 72.0842819214
31.1053848267 -45.4421310425 71.9081039429
31.1590347290 -45.5244369507 71.7302017212
31.1971263885 -45.5828628540 71.5497360229
31.2216720581 -45.6204910278 71.3670043945
31.2374305725 -45.6446342468 71.1827850342
31.2482185364 -45.6611442566 70.9977264404
31.2558689117 -45.6728401184 70.8121261597
31.2609386444 -45.6805686951 70.6260757446
31.2635993958 -45.6846046448 70.4396057129
31.2641201019 -45.6853561401 70.2527389526
31.2629718781 -45.6835403442 70.0655670166
31.2607688904 -45.6801109314 69.8781890869
31.2581787109 -45.6760826111 69.6907272339
31.2557849884 -45.6723556519 69.5032882690
31.2540035248 -45.6695709229 69.3159484863
31.2530250549 -45.6680183411 69.1287536621
31.2528266907 -45.6676673889 68.9416885376
31.2531509399 -45.6681175232 68.7547149658
31.2533969879 -45.6684417725 68.5677185059
31.2524719238 -45.6669731140 68.3804855347
31.2491188049 -45.6617736816 68.1927795410
31.2430305481 -45.6523780823 68.0045242310
31.2357292175 -45.6411170959 67.8160171509
31.2291469574 -45.6309661865 67.6276245117
31.2229843140 -45.6214523315 67.4392852783
31.2150669098 -45.6092491150 67.2505798340
31.2052230835 -45.5940856934 67.0614624023
31.1969318390 -45.5813102722 66.8726272583
31.1940441132 -45.5768280029 66.6848526001
31.1971702576 -45.5815773010 66.4982833862
31.2039012909 -45.5918579102 66.3124542236
31.2112846375 -45.6031417847 66.1267623901
31.2175483704 -45.6127090454 65.9408493042
31.2225570679 -45.6203460693 65.7546844482
31.2279205322 -45.6285285950 65.5685958862
31.2367973328 -45.6421051025 65.3832473755
31.2524051666 -45.6660156250 65.1993255615
31.2751865387 -45.7009353638 65.0169601440
31.3010807037 -45.7406387329 64.8353042603
31.3236465454 -45.7752265930 64.6529846191
31.3383579254 -45.7977638245 64.4690093994
31.3446159363 -45.8073196411 64.2832336426
31.3439254761 -45.8062095642 64.0959472656
31.3370685577 -45.7956314087 63.9072990417
31.3227691650 -45.7736320496 63.7169914246
31.2966995239 -45.7335586548 63.5240364075
31.2495994568 -45.6612052917 63.3263320923
31.1690311432 -45.5374717712 63.1210289001
31.0502090454 -45.3550148010 62.9069290161
30.9082107544 -45.1369819641 62.6873168945
30.7743473053 -44.9314346313 62.4692153931
30.6758117676 -44.7801208496 62.2588615417
30.6196804047 -44.6938972473 62.0579986572
30.5956344604 -44.6569366455 61.8643989563
30.5889091492 -44.6465606689 61.6747474670
30.5890102386 -44.6466636658 61.4866600037
30.5907802582 -44.6493301392 61.2989578247
30.5922489166 -44.6515350342 61.1111793518
30.5929279327 -44.6525268555 60.9232063293
30.5933170319 -44.6530761719 60.7351608276
30.5951938629 -44.6559066772 60.5474624634
30.6015110016 -44.6655502319 60.3608245850
30.6144485474 -44.6853599548 60.1757888794
30.6315078735 -44.7115020752 59.9917716980
30.6431770325 -44.7293624878 59.8064727783
30.6373786926 -44.7204132080 59.6169242859
30.6102352142 -44.6786918640 59.4221191406
30.5734558105 -44.6221809387 59.2248649597
30.5486335754 -44.5840263367 59.0304794312
30.5525283813 -44.5899543762 58.8431777954
30.5889511108 -44.6458168030 58.6640090942
30.6533317566 -44.7445983887 58.4919395447
30.7396736145 -44.8770942688 58.3255500793
30.8416748047 -45.0336303711 58.1633224487
30.9516735077 -45.2024421692 58.0033569336
31.0609149933 -45.3700904846 57.8434448242
31.1602020264 -45.5224609375 57.6812133789
31.2425441742 -45.6488151550 57.5148315430
31.3088493347 -45.7505531311 57.3444709778
31.3705577850 -45.8452339172 57.1730613708
31.4423561096 -45.9554023743 57.0044212341
31.5280933380 -46.0869712830 56.8395996094
31.6120738983 -46.2158432007 56.6745033264
31.6658744812 -46.2983818054 56.5015945435
31.6670150757 -46.3000869751 56.3147888184
31.6141681671 -46.2189102173 56.1135444641
31.5264148712 -46.0841407776 55.9027976990
31.4280757904 -45.9331321716 55.6889915466
31.3339023590 -45.7885093689 55.4760742188
31.2482910156 -45.6570358276 55.2652626038
31.1743106842 -45.5434150696 55.0574226379
31.1165504456 -45.4546928406 54.8538513184
31.0743408203 -45.3898468018 54.6544189453
31.0389900208 -45.3355255127 54.4567794800
31.0038166046 -45.2814788818 54.2590980530
30.9771957397 -45.2405624390 54.0637130737
30.9819831848 -45.2478599548 53.8770523071
31.0377902985 -45.3334846497 53.7047348022
31.1412830353 -45.4923095703 53.5459938049
31.2644233704 -45.6812973022 53.3930511475
31.3732948303 -45.8483772278 53.2363243103
31.4491291046 -45.9647445679 53.0704040527
31.4935569763 -46.0328979492 52.8956375122
31.5194797516 -46.0726432800 52.7156372070
31.5410232544 -46.1056632996 52.5344200134
31.5693817139 -46.1491508484 52.3552246094
31.6106224060 -46.2124061584 52.1798400879
31.6613655090 -46.2902565002 52.0073242188
31.7066574097 -46.3597335815 51.8333129883
31.7274303436 -46.3915748596 51.6521682739
31.7147064209 -46.3719902039 51.4611473083
31.6769676208 -46.3140068054 51.2626533508
31.6323738098 -46.2454986572 51.0620193481
31.5936756134 -46.1860389709 50.8630409241
31.5595111847 -46.1335449219 50.6653289795
31.5168018341 -46.0679283142 50.4649505615
31.4503459930 -45.9658584595 50.2572708130
31.3536739349 -45.8174018860 50.0402412415
31.2342739105 -45.6340560913 49.8160400391
31.1091213226 -45.4418754578 49.5897979736
30.9965438843 -45.2690048218 49.3671226501
30.9127025604 -45.1402435303 49.1530532837
30.8705883026 -45.0755424500 48.9517135620
30.8753356934 -45.0827789307 48.7648429871
30.9188880920 -45.1495857239 48.5900840759
30.9814510345 -45.2455825806 48.4213790894
31.0407505035 -45.3365631104 48.2517814636
31.0833263397 -45.4018745422 48.0770301819
31.1101837158 -45.4430541992 47.8973960876
31.1338596344 -45.4793472290 47.7168006897
31.1705818176 -45.5356750488 47.5404129028
31.2319087982 -45.6297683716 47.3719825745
31.3170757294 -45.7604598999 47.2113456726
31.4100151062 -45.9030876160 47.0534057617
31.4862766266 -46.0201110840 46.8902702332
31.5255222321 -46.0803070068 46.7152824402
31.5189399719 -46.0701522827 46.5254325867
31.4694671631 -45.9941558838 46.3215332031
31.3906154633 -45.8730545044 46.1078643799
31.3037128448 -45.7395935059 45.8913497925
31.2298202515 -45.6261062622 45.6789321899
31.1804695129 -45.5502967834 45.4744758606
31.1560535431 -45.5127639771 45.2782020569
31.1519336700 -45.5063896179 45.0886383057
31.1637706757 -45.5245094299 44.9044075012
31.1872425079 -45.5604896545 44.7241096497
31.2157344818 -45.6041793823 44.5455513000
31.2414436340 -45.6436004639 44.3661079407
31.2594070435 -45.6711273193 44.1840858459
31.2695751190 -45.6866836548 43.9994354248
31.2750148773 -45.6949844360 43.8131866455
31.2787990570 -45.7007446289 43.6263694763
31.2822036743 -45.7059211731 43.4394264221
31.2843894958 -45.7092247009 43.2520561218
31.2832870483 -45.7074813843 43.0635452271
31.2782878876 -45.6997566223 42.8736686707
31.2740421295 -45.6931877136 42.6840362549
31.2810459137 -45.7038917542 42.4983215332
31.3086948395 -45.7462844849 42.3198738098
31.3546352386 -45.8167610168 42.1479225159
31.4017601013 -45.8890533447 41.9764938354
31.4284515381 -45.9299774170 41.7979125977
31.4229621887 -45.9215011597 41.6079292297
31.3871250153 -45.8664360046 41.4070892334
31.3272418976 -45.7744522095 41.1975402832
31.2458477020 -45.6494522095 40.9801177979
31.1453514099 -45.4951210022 40.7556076050
31.0355892181 -45.3265686035 40.5275077820
30.9307899475 -45.1656341553 40.3009490967
30.8384628296 -45.0238456726 40.0786781311
30.7568092346 -44.8984451294 39.8600845337
30.6850490570 -44.7882270813 39.6449165344
30.6332130432 -44.7086029053 39.4368972778
30.6199855804 -44.6882438660 39.2429847717
30.6613616943 -44.7517127991 39.0692253113
30.7592048645 -44.9018707275 38.9165000916
30.8968620300 -45.1131439209 38.7788047791
31.0450363159 -45.3405685425 38.6453475952
31.1748580933 -45.5398139954 38.5053520203
31.2694664001 -45.6850013733 38.3524208069
31.3273792267 -45.7738571167 38.1858787537
31.3575515747 -45.8201255798 38.0089759827
31.3713245392 -45.8412170410 37.8259201050
31.3769283295 -45.8497734070 37.6397857666
31.3781948090 -45.8516654968 37.4519958496
31.3752746582 -45.8471298218 37.2626037598
31.3647975922 -45.8309974670 37.0702934265
31.3394889832 -45.7920951843 36.8722457886
31.2895164490 -45.7153282166 36.6646118164
31.2067909241 -45.5882759094 36.4441757202
31.0894718170 -45.4081230164 36.2101058960
30.9429531097 -45.1831398010 35.9643898010
30.7783374786 -44.9303779602 35.7112541199
30.6120243073 -44.6750106812 35.4570693970
30.4645481110 -44.4485588074 35.2098884583
30.3541717529 -44.2790603638 34.9769783020
