-54.9804534912 13.0112733841 50.7091712952
-54.9945411682 13.0156345367 50.5222015381
-54.9993743896 13.0179891586 50.3338775635
-54.9879646301 13.0168266296 50.1431503296
-54.9570503235 13.0114364624 49.9495086670
-54.9082031250 13.0021638870 49.7531509399
-54.8470458984 12.9902238846 49.5548820496
-54.7817382813 12.9773855209 49.3559112549
-54.7215766907 12.9656629562 49.1576271057
-54.6754035950 12.9569702148 48.9613838196
-54.6497993469 12.9527339935 48.7682075500
-54.6477432251 12.9535980225 48.5785903931
-54.6679344177 12.9592828751 48.3923759460
-54.7046890259 12.9685544968 48.2087326050
-54.7488822937 12.9794368744 48.0262756348
-54.7905654907 12.9897737503 47.8434753418
-54.8221511841 12.9979257584 47.6591491699
-54.8401832581 13.0031404495 47.4727325439
-54.8448944092 13.0054702759 47.2842445374
-54.8388938904 13.0054807663 47.0940628052
-54.8259506226 13.0039873123 46.9027709961
-54.8101768494 13.0018806458 46.7110061646
-54.7955093384 13.0000143051 46.5193939209
-54.7854843140 12.9991531372 46.3284988403
-54.7831764221 12.9999637604 46.1388244629
-54.7909660339 13.0029611588 45.9507713318
-54.8098983765 13.0083703995 45.7645263672
-54.8387947083 13.0159387589 45.5799179077
-54.8741569519 13.0249061584 45.3963928223
-54.9111633301 13.0342283249 45.2131729126
-54.9450759888 13.0428810120 45.0294837952
-54.9720726013 13.0500373840 44.8446884155
-54.9897499084 13.0551748276 44.6583786011
-54.9976730347 13.0581989288 44.4704627991
-54.9974861145 13.0594692230 44.2811965942
-54.9922409058 13.0596427917 44.0910758972
-54.9854202271 13.0594758987 43.9006767273
-54.9801864624 13.0596523285 43.7105331421
-54.9787712097 13.0606555939 43.5210227966
-54.9819793701 13.0626602173 43.3322906494
-54.9891128540 13.0655145645 43.1442222595
-54.9984130859 13.0688381195 42.9565277100
-55.0077247620 13.0721635818 42.7688407898
-55.0148391724 13.0750141144 42.5807838440
-55.0173950195 13.0768775940 42.3919372559
-55.0128135681 13.0771951675 42.2018470764
-54.9989662170 13.0755090714 42.0101356506
-54.9758186340 13.0718078613 41.8167724609
-54.9467430115 13.0668249130 41.6223373413
-54.9180221558 13.0619182587 41.4279174805
-54.8962364197 13.0585136414 41.2346839905
-54.8853721619 13.0574741364 41.0433540344
-54.8853797913 13.0587863922 40.8539390564
-54.8926811218 13.0616769791 40.6658172607
-54.9020385742 13.0650138855 40.4780693054
-54.9085731506 13.0677385330 40.2898139954
-54.9090003967 13.0691423416 40.1004638672
-54.9019317627 13.0689229965 39.9097480774
-54.8876380920 13.0671415329 39.7177085876
-54.8679466248 13.0641908646 39.5246620178
-54.8463058472 13.0608196259 39.3312263489
-54.8277282715 13.0581102371 39.1383209229
-54.8178405762 13.0572834015 38.9469871521
-54.8210449219 13.0592880249 38.7580490112
-54.8385543823 13.0643882751 38.5717582703
-54.8673515320 13.0719318390 38.3875808716
-54.9007034302 13.0804595947 38.2042808533
-54.9305343628 13.0882253647 38.0203552246
-54.9505996704 13.0938787460 37.8346328735
-54.9584960938 13.0968990326 37.6466331482
-54.9556350708 13.0975914001 37.4566040039
-54.9458656311 13.0967893600 37.2652587891
-54.9334259033 13.0954084396 37.0733871460
-54.9211120605 13.0940570831 36.8815155029
-54.9098205566 13.0929260254 36.6898193359
-54.8998832703 13.0920877457 36.4983634949
-54.8930168152 13.0919141769 36.3074836731
-54.8926620483 13.0931491852 36.1178436279
-54.9017524719 13.0964279175 35.9300270081
-54.9195861816 13.1015977859 35.7439155579
-54.9408988953 13.1075201035 35.5584945679
-54.9577941895 13.1124868393 35.3722343445
-54.9624481201 13.1148052216 35.1835823059
-54.9490928650 13.1132278442 34.9913864136
-54.9155464172 13.1072845459 34.7951812744
-54.8642272949 13.0974969864 34.5954093933
-54.8017921448 13.0853052139 34.3933563232
-54.7376136780 13.0727367401 34.1908760071
-54.6820869446 13.0620403290 33.9900398254
-54.6449432373 13.0553197861 33.7928123474
-54.6331100464 13.0540742874 33.6006278992
-54.6486625671 13.0587520599 33.4139442444
-54.6880111694 13.0685758591 33.2320938110
-54.7427864075 13.0817356110 33.0534133911
-54.8018722534 13.0958261490 32.8756713867
-54.8539199829 13.1083955765 32.6965599060
-54.8894042969 13.1173820496 32.5141105652
-54.9014778137 13.1213045120 32.3268890381
-54.8864593506 13.1193704605 32.1340980530
-54.8452453613 13.1117715836 31.9358634949
-54.7850341797 13.1000652313 31.7336368561
-54.7190704346 13.0871152878 31.5301342010
-54.6627960205 13.0762615204 31.3285636902
-54.6281280518 13.0700788498 31.1314353943
-54.6192131042 13.0694665909 30.9396610260
-54.6320800781 13.0735626221 30.7524509430
-54.6579475403 13.0804700851 30.5679931641
-54.6877937317 13.0882368088 30.3844013214
-54.7150001526 13.0954322815 30.2002811432
-54.7350082397 13.1010723114 30.0146541595
-54.7438774109 13.1043043137 29.8266696930
-54.7381896973 13.1043891907 29.6355743408
-54.7167015076 13.1010580063 29.4410743713
-54.6822013855 13.0949144363 29.2437400818
-54.6418228149 13.0874996185 29.0450878143
-54.6051940918 13.0808963776 28.8471908569
-54.5813255310 13.0770511627 28.6520137787
-54.5756835938 13.0771465302 28.4607696533
-54.5888252258 13.0813026428 28.2736129761
-54.6169738770 13.0887022018 28.0897502899
-54.6537361145 13.0979633331 27.9078083038
-54.6917266846 13.1074905396 27.7261772156
-54.7234764099 13.1156673431 27.5432052612
-54.7422599792 13.1210422516 27.3573970795
-54.7436637878 13.1226596832 27.1677455902
-54.7273101807 13.1204395294 26.9741382599
-54.6977615356 13.1153688431 26.7775573730
-54.6638336182 13.1093511581 26.5799541473
-54.6363945007 13.1047363281 26.3837604523
-54.6252555847 13.1036453247 26.1911945343
-54.6358985901 13.1072607040 26.0035247803
-54.6674575806 13.1153955460 25.8205947876
-54.7132072449 13.1265974045 25.6409168243
-54.7631683350 13.1387090683 25.4622478485
-54.8071594238 13.1495304108 25.2822723389
-54.8371543884 13.1573257446 25.0991420746
-54.8485717773 13.1611080170 24.9117813110
-54.8407287598 13.1607284546 24.7199993134
-54.8168449402 13.1568822861 24.5244998932
-54.7839851379 13.1510982513 24.3268909454
-54.7525367737 13.1456184387 24.1295623779
-54.7340507507 13.1429395676 23.9352016449
-54.7373313904 13.1449642181 23.7458839417
-54.7647666931 13.1522073746 23.5622100830
-54.8117675781 13.1636772156 23.3831462860
-54.8695220947 13.1774702072 23.2066612244
-54.9281539917 13.1914510727 23.0304470062
-54.9783287048 13.2036056519 22.8523025513
-55.0121421814 13.2122249603 22.6703376770
-55.0242843628 13.2161636353 22.4832649231
-55.0130844116 13.2150583267 22.2906455994
-54.9805030823 13.2093343735 22.0929050446
-54.9316368103 13.2000942230 21.8912220001
-54.8742904663 13.1890211105 21.6874370575
-54.8181114197 13.1782026291 21.4838581085
-54.7726860046 13.1697063446 21.2827968597
-54.7451362610 13.1650714874 21.0859909058
-54.7386512756 13.1649875641 20.8942489624
-54.7520751953 13.1692028046 20.7073307037
-54.7799758911 13.1765451431 20.5239467621
-54.8136024475 13.1851243973 20.3419876099
-54.8431777954 13.1928272247 20.1590728760
-54.8604583740 13.1978750229 19.9731712341
-54.8600578308 13.1991043091 19.7829360962
-54.8397521973 13.1960353851 19.5877838135
-54.8011703491 13.1890192032 19.3880844116
-54.7505798340 13.1794109344 19.1853542328
-54.6978721619 13.1693458557 18.9820289612
-54.6534080505 13.1610603333 18.7806854248
-54.6248474121 13.1562099457 18.5832519531
-54.6160888672 13.1556358337 18.3907337189
-54.6275634766 13.1594314575 18.2032737732
-54.6561355591 13.1669178009 18.0201225281
-54.6947364807 13.1765699387 17.8395290375
-54.7336425781 13.1862869263 17.6590518951
-54.7637519836 13.1941051483 17.4763908386
-54.7797622681 13.1988792419 17.2901763916
-54.7811737061 13.2005004883 17.1002597809
-54.7712631226 13.1996774673 16.9074497223
-54.7549972534 13.1974830627 16.7129936218
-54.7370414734 13.1949234009 16.5180797577
-54.7208595276 13.1927471161 16.3235912323
-54.7091445923 13.1915359497 16.1302299500
-54.7046546936 13.1918840408 15.9387121201
-54.7104110718 13.1944437027 15.7498350143
-54.7289276123 13.1997585297 15.5642709732
-54.7609367371 13.2079858780 15.3822336197
-54.8046264648 13.2187347412 15.2032737732
-54.8560562134 13.2311534882 15.0263843536
-54.9100265503 13.2441196442 14.8502187729
-54.9605369568 13.2563400269 14.6732034683
-55.0012016296 13.2664346695 14.4936532974
-55.0268211365 13.2732801437 14.3101758957
-55.0358047485 13.2765359879 14.1223258972
-55.0315704346 13.2769384384 13.9309778214
-55.0210609436 13.2759866714 13.7379493713
-55.0112342834 13.2751827240 13.5450849533
-55.0063323975 13.2754411697 13.3535156250
-55.0072975159 13.2769670486 13.1635036469
-55.0126724243 13.2794437408 12.9746694565
-55.0197181702 13.2822809219 12.7862834930
-55.0253295898 13.2848081589 12.5975131989
-55.0266494751 13.2864103317 12.4075860977
-55.0213737488 13.2865896225 12.2158689499
-55.0078964233 13.2849979401 12.0219144821
-54.9857749939 13.2815418243 11.8255872726
-54.9566726685 13.2765789032 11.6273241043
-54.9249534607 13.2710514069 11.4283046722
-54.8967971802 13.2662944794 11.2302160263
-54.8780326843 13.2635631561 11.0346612930
-54.8721199036 13.2636051178 10.8426094055
-54.8791275024 13.2664356232 10.6541051865
-54.8954200745 13.2712678909 10.4681653976
-54.9141578674 13.2766294479 10.2829179764
-54.9272727966 13.2807769775 10.0961265564
-54.9283447266 13.2823266983 9.9059972763
-54.9149055481 13.2807445526 9.7118196487
-54.8889770508 13.2764692307 9.5141324997
-54.8558273315 13.2706356049 9.3143863678
-54.8215522766 13.2645597458 9.1142768860
-54.7905235291 13.2591848373 8.9150314331
-54.7642288208 13.2548322678 8.7170753479
-54.7422866821 13.2514171600 8.5203084946
-54.7247924805 13.2489624023 8.3247661591
-54.7139282227 13.2479381561 8.1310777664
-54.7136878967 13.2492055893 7.9403862953
-54.7280883789 13.2536306381 7.7538576126
-54.7588195801 13.2615795135 7.5720019341
-54.8031387329 13.2724580765 7.3940625191
-54.8535156250 13.2846422195 7.2179079056
-54.9001197815 13.2960128784 7.0407257080
-54.9346351624 13.3047752380 6.8601145744
-54.9526443481 13.3099784851 6.6747784615
-54.9539947510 13.3115882874 6.4846420288
-54.9422721863 13.3103790283 6.2907147408
-54.9237632751 13.3077058792 6.0947957039
-54.9054565430 13.3050765991 5.8989057541
-54.8929367065 13.3036956787 5.7046747208
-54.8893661499 13.3042449951 5.5130372047
-54.8955612183 13.3069000244 5.3242464066
-54.9103736877 13.3114128113 5.1379857063
-54.9309768677 13.3171749115 4.9534401894
-54.9528923035 13.3232192993 4.7692995071
-54.9700355530 13.3282356262 4.5837712288
-54.9757614136 13.3307886124 4.3948788643
-54.9653587341 13.3298645020 4.2012057304
-54.9387702942 13.3254508972 4.0027050972
-54.9013633728 13.3187055588 3.8009450436
-54.8622283936 13.3115873337 3.5986161232
-54.8313980103 13.3062601089 3.3987152576
-54.8174858093 13.3045797348 3.2038371563
-54.8262939453 13.3077993393 3.0157570839
-54.8601264954 13.3164129257 2.8352077007
-54.9172973633 13.3300580978 2.6617283821
-54.9922523499 13.3475360870 2.4936845303
-55.0768470764 13.3670921326 2.3286440372
-55.1623840332 13.3868503571 2.1639873981
-55.2412528992 13.4051704407 1.9974032640
-55.3078918457 13.4208536148 1.8271858692
-55.3594284058 13.4332809448 1.6524374485
-55.3957290649 13.4424238205 1.4730876684
-55.4187812805 13.4487104416 1.2897169590
-55.4323806763 13.4529600143 1.1034682989
-55.4422912598 13.4564142227 0.9160941243
-55.4553527832 13.4605474472 0.7296980023
-55.4771156311 13.4665555954 0.5459979773
-55.5094223022 13.4748363495 0.3655803204
-55.5495147705 13.4847946167 0.1876104325
-55.5908012390 13.4950103760 0.0100549422
-1.0675635338 57.1254272461 60.3535919189
-1.0702406168 57.1625175476 60.1710205078
-1.0740784407 57.2263259888 59.9919853210
-1.0787075758 57.3083610535 59.8154258728
-1.0836788416 57.3982772827 59.6400070190
-1.0885349512 57.4855575562 59.4643402100
-1.0929046869 57.5616569519 59.2872886658
-1.0965715647 57.6215858459 59.1081504822
-1.0994453430 57.6632614136 58.9266242981
-1.1014759541 57.6855316162 58.7425117493
-1.1026273966 57.6875534058 58.5556678772
-1.1029474735 57.6704292297 58.3661994934
-1.1026458740 57.6389808655 58.1747360229
-1.1020820141 57.6014862061 57.9823951721
-1.1016691923 57.5674629211 57.7904777527
-1.1017687321 57.5452423096 57.6001548767
-1.1026258469 57.5404663086 57.4122352600
-1.1043339968 57.5553016663 57.2270622253
-1.1068149805 57.5879440308 57.0444107056
-1.1098275185 57.6328468323 56.8635330200
-1.1130311489 57.6821556091 56.6833343506
-1.1160829067 57.7279701233 56.5026893616
-1.1187194586 57.7642211914 56.3207244873
-1.1207838058 57.7872886658 56.1368942261
-1.1222018003 57.7954559326 55.9509277344
-1.1229534149 57.7882575989 55.7627258301
-1.1230727434 57.7664794922 55.5723762512
-1.1226807833 57.7329025269 55.3802642822
-1.1220078468 57.6928405762 55.1871414185
-1.1213639975 57.6534423828 54.9940643311
-1.1210551262 57.6217651367 54.8020782471
-1.1212925911 57.6026802063 54.6119232178
-1.1221493483 57.5978851318 54.4238815308
-1.1235753298 57.6062164307 54.2378044128
-1.1254379749 57.6246261597 54.0532569885
-1.1275510788 57.6488189697 53.8696022034
-1.1296932697 57.6736869812 53.6860733032
-1.1316406727 57.6940574646 53.5018806458
-1.1332212687 57.7059669495 53.3164062500
-1.1343612671 57.7077102661 53.1293716431
-1.1350989342 57.7001571655 52.9408912659
-1.1355596781 57.6862144470 52.7513999939
-1.1359053850 57.6696090698 52.5614662170
-1.1362832785 57.6537437439 52.3716239929
-1.1368077993 57.6412620544 52.1822853088
-1.1375710964 57.6342926025 51.9937973022
-1.1386502981 57.6346168518 51.8064498901
-1.1400967836 57.6434211731 51.6204490662
-1.1419129372 57.6607704163 51.4358215332
-1.1440302134 57.6850776672 51.2523269653
-1.1462966204 57.7128334045 51.0694122314
-1.1484932899 57.7389831543 50.8862686157
-1.1503849030 57.7580833435 50.7019996643
-1.1517931223 57.7660140991 50.5159301758
-1.1526725292 57.7617263794 50.3278579712
-1.1531566381 57.7482986450 50.1382713318
-1.1535426378 57.7325973511 49.9482841492
-1.1542086601 57.7233695984 49.7593460083
-1.1554903984 57.7283706665 49.5727577209
-1.1575630903 57.7516632080 49.3892211914
-1.1603775024 57.7921104431 49.2085838318
-1.1636745930 57.8437271118 49.0298690796
-1.1670709848 57.8976478577 48.8516044617
-1.1701754332 57.9448242188 48.6722564697
-1.1726864576 57.9782791138 48.4906272888
-1.1744384766 57.9941787720 48.3060340881
-1.1754077673 57.9919738770 48.1183471680
-1.1757076979 57.9742813110 47.9279899597
-1.1755676270 57.9463996887 47.7358436584
-1.1752784252 57.9150619507 47.5430526733
-1.1751271486 57.8869094849 47.3507728577
-1.1753493547 57.8674011230 47.1599578857
-1.1760966778 57.8600387573 46.9712409973
-1.1774036884 57.8656311035 46.7847862244
-1.1791867018 57.8822441101 46.6002769470
-1.1812962294 57.9064178467 46.4171218872
-1.1835795641 57.9346199036 46.2347068787
-1.1858896017 57.9634475708 46.0524291992
-1.1880589724 57.9890174866 45.8696022034
-1.1899137497 58.0073051453 45.6854896545
-1.1913435459 58.0157508850 45.4996185303
-1.1923499107 58.0143890381 45.3119773865
-1.1930207014 58.0052528381 45.1229171753
-1.1934719086 57.9910278320 44.9329109192
-1.1938234568 57.9744873047 44.7424583435
-1.1942059994 57.9586639404 44.5521049500
-1.1947457790 57.9464797974 44.3624000549
-1.1955260038 57.9398612976 44.1736984253
-1.1965628862 57.9391937256 43.9860839844
-1.1978205442 57.9436454773 43.7994155884
-1.1992392540 57.9518241882 43.6134414673
-1.2007504702 57.9621543884 43.4278717041
-1.2022800446 57.9729080200 43.2423896790
-1.2037484646 57.9822425842 43.0566444397
-1.2050770521 57.9883384705 42.8702964783
-1.2062022686 57.9897155762 42.6830482483
-1.2070956230 57.9857177734 42.4947738647
-1.2077862024 57.9770126343 42.3055915833
-1.2083721161 57.9658775330 42.1159210205
-1.2090080976 57.9558982849 41.9264526367
-1.2098643780 57.9510345459 41.7379531860
-1.2110706568 57.9542846680 41.5510101318
-1.2126629353 57.9664916992 41.3658065796
-1.2145587206 57.9857444763 41.1819839478
-1.2165726423 58.0077400208 40.9987106323
-1.2184700966 58.0270385742 40.8149337769
-1.2200407982 58.0387535095 40.6296806335
-1.2211623192 58.0400390625 40.4423789978
-1.2218289375 58.0307617188 40.2529792786
-1.2221473455 58.0134010315 40.0619544983
-1.2223069668 57.9923477173 39.8701667786
-1.2225314379 57.9727973938 39.6786460876
-1.2230223417 57.9594306946 39.4883308411
-1.2239145041 57.9553756714 39.2998695374
-1.2252542973 57.9617233276 39.1134910583
-1.2270020247 57.9775466919 38.9290351868
-1.2290524244 58.0004005432 38.7460212708
-1.2312718630 58.0271835327 38.5638275146
-1.2335345745 58.0549774170 38.3818664551
-1.2357391119 58.0814247131 38.1996574402
-1.2378054857 58.1046676636 38.0168190002
-1.2396702766 58.1232223511 37.8330345154
-1.2412880659 58.1360397339 37.6480789185
-1.2426360846 58.1425857544 37.4618339539
-1.2437189817 58.1429748535 37.2743072510
-1.2445765734 58.1381187439 37.0856819153
-1.2452887297 58.1298789978 36.8963317871
-1.2459696531 58.1209144592 36.7068138123
-1.2467440367 58.1141166687 36.5177345276
-1.2477155924 58.1119041443 36.3296089172
-1.2489371300 58.1155090332 36.1427040100
-1.2503907681 58.1245040894 35.9569473267
-1.2519886494 58.1368637085 35.7719078064
-1.2536038160 58.1496238708 35.5869636536
-1.2551127672 58.1599121094 35.4015007019
-1.2564275265 58.1656837463 35.2150726318
-1.2575042248 58.1659164429 35.0274467468
-1.2583401203 58.1605453491 34.8386039734
-1.2589648962 58.1502532959 34.6486816406
-1.2594302893 58.1362533569 34.4579277039
-1.2598031759 58.1200942993 34.2666816711
-1.2601740360 58.1038856506 34.0753974915
-1.2606726885 58.0906486511 33.8847389221
-1.2614518404 58.0839385986 33.6954917908
-1.2626173496 58.0862236023 33.5082168579
-1.2641518116 58.0971031189 33.3228378296
-1.2659093142 58.1131744385 33.1386222839
-1.2676801682 58.1295623779 32.9544906616
-1.2692613602 58.1415328979 32.7693824768
-1.2704900503 58.1452903748 32.5824470520
-1.2712541819 58.1382255554 32.3930778503
-1.2715010643 58.1191062927 32.2009773254
-1.2712587118 58.0885848999 32.0062713623
-1.2706691027 58.0499649048 31.8096847534
-1.2699943781 58.0093498230 31.6125907898
-1.2695540190 57.9741897583 31.4166793823
-1.2696141005 57.9506912231 31.2233810425
-1.2702938318 57.9416313171 31.0333518982
-1.2715221643 57.9453582764 30.8462429047
-1.2730443478 57.9559402466 30.6607093811
-1.2744895220 57.9647254944 30.4747657776
-1.2755002975 57.9633789063 30.2864837646
-1.2758798599 57.9473114014 30.0947723389
-1.2756788731 57.9177017212 29.8998813629
-1.2751615047 57.8807029724 29.7032203674
-1.2746748924 57.8444175720 29.5066738129
-1.2745267153 57.8160171509 29.3119258881
-1.2749391794 57.8006973267 29.1202125549
-1.2760510445 57.8016891479 28.9323215485
-1.2779084444 57.8200798035 28.7485446930
-1.2804477215 57.8543853760 28.5685577393
-1.2834990025 57.9006462097 28.3914527893
-1.2868161201 57.9531211853 28.2158832550
-1.2901257277 58.0054244995 28.0403327942
-1.2931922674 58.0520629883 27.8634815216
-1.2958726883 58.0896949768 27.6845169067
-1.2981235981 58.1173019409 27.5031776428
-1.2999562025 58.1351470947 27.3195056915
-1.3013839722 58.1435394287 27.1335582733
-1.3023959398 58.1422157288 26.9452571869
-1.3029572964 58.1303710938 26.7543811798
-1.3030341864 58.1072044373 26.5607185364
-1.3026382923 58.0729904175 26.3643150330
-1.3018735647 58.0301475525 26.1657428741
-1.3009356260 57.9832534790 25.9661121368
-1.3000527620 57.9376373291 25.7667293549
-1.2994023561 57.8974456787 25.5686264038
-1.2990517616 57.8642501831 25.3722000122
-1.2989492416 57.8368492126 25.1771640778
-1.2989732027 57.8123970032 24.9828243256
-1.2990100384 57.7882423401 24.7885189056
-1.2990144491 57.7633247375 24.5939846039
-1.2990375757 57.7388343811 24.3995208740
-1.2992293835 57.7182922363 24.2060127258
-1.2997976542 57.7065429688 24.0146923065
-1.3009043932 57.7073860168 23.8265361786
-1.3025637865 57.7211570740 23.6416568756
-1.3046323061 57.7444953918 23.4592208862
-1.3068909645 57.7722854614 23.2779445648
-1.3091286421 57.7995872498 23.0965709686
-1.3111765385 57.8224563599 22.9140872955
-1.3129189014 57.8381767273 22.7297916412
-1.3143081665 57.8456382751 22.5433807373
-1.3153791428 57.8456497192 22.3550472260
-1.3162401915 57.8407440186 22.1654376984
-1.3170436621 57.8344917297 21.9754619598
-1.3179447651 57.8305244446 21.7860679626
-1.3190654516 57.8316955566 21.5980014801
-1.3204739094 57.8396034241 21.4116897583
-1.3221818209 57.8545188904 21.2272186279
-1.3241562843 57.8756828308 21.0443992615
-1.3263354301 57.9016418457 20.8628635406
-1.3286328316 57.9303741455 20.6820850372
-1.3309189081 57.9588432312 20.5012683868
-1.3330016136 57.9825515747 20.3192176819
-1.3346538544 57.9961814880 20.1345100403
-1.3357133865 57.9959259033 19.9461135864
-1.3361867666 57.9819374084 19.7540416718
-1.3362579346 57.9585151672 19.5594196320
-1.3361983299 57.9320259094 19.3639373779
-1.3362644911 57.9084815979 19.1692085266
-1.3366414309 57.8922157288 18.9764022827
-1.3374226093 57.8854179382 18.7861309052
-1.3386108875 57.8881645203 18.5984268188
-1.3401330709 57.8987388611 18.4128475189
-1.3418618441 57.9141578674 18.2285919189
-1.3436402082 57.9307403564 18.0446662903
-1.3453148603 57.9448928833 17.8600921631
-1.3467732668 57.9539794922 17.6741390228
-1.3479673862 57.9568634033 17.4864864349
-1.3489203453 57.9540901184 17.2972736359
-1.3497205973 57.9477348328 17.1070613861
-1.3505030870 57.9409599304 16.9167194366
-1.3514186144 57.9373016357 16.7272243500
-1.3525987864 57.9398574829 16.5394458771
-1.3541276455 57.9505920410 16.3539409637
-1.3560171127 57.9697914124 16.1708049774
-1.3581845760 57.9955177307 15.9895153046
-1.3604629040 58.0238494873 15.8089809418
-1.3626688719 58.0504837036 15.6279993057
-1.3646868467 58.0727119446 15.4458026886
-1.3664819002 58.0897064209 15.2621507645
-1.3680408001 58.1011619568 15.0769443512
-1.3693295717 58.1062698364 14.8899469376
-1.3703148365 58.1042518616 14.7009229660
-1.3710141182 58.0955200195 14.5099763870
-1.3715320826 58.0825233459 14.3177938461
-1.3720598221 58.0697517395 14.1256532669
-1.3728240728 58.0625343323 13.9350824356
-1.3739960194 58.0648956299 13.7472486496
-1.3756240606 58.0779724121 13.5624971390
-1.3776307106 58.0999450684 13.3803243637
-1.3798477650 58.1268653870 13.1996049881
-1.3820550442 58.1535606384 13.0188474655
-1.3840397596 58.1750297546 12.8365974426
-1.3856767416 58.1883239746 12.6519880295
-1.3869717121 58.1935806274 12.4650421143
-1.3880274296 58.1932144165 12.2764501572
-1.3889738321 58.1902770996 12.0870971680
-1.3899240494 58.1874275208 11.8977603912
-1.3909693956 58.1868133545 11.7090702057
-1.3921916485 58.1903572083 11.5216007233
-1.3936735392 58.2000083923 11.3359336853
-1.3954911232 58.2175559998 11.1526126862
-1.3976849318 58.2439575195 10.9719362259
-1.4002171755 58.2783241272 10.7936582565
-1.4029562473 58.3175582886 10.6168689728
-1.4057135582 58.3572349548 10.4402532578
-1.4083107710 58.3931465149 10.2625541687
-1.4106217623 58.4223251343 10.0828733444
-1.4125692844 58.4429550171 9.9006509781
-1.4141049385 58.4538917542 9.7155265808
-1.4151991606 58.4544372559 9.5272703171
-1.4158570766 58.4447135925 9.3358983994
-1.4161490202 58.4263687134 9.1418924332
-1.4162206650 58.4028320313 8.9462785721
-1.4162536860 58.3783836365 8.7503480911
-1.4164004326 58.3566055298 8.5551967621
-1.4167531729 58.3396759033 8.3614931107
-1.4173691273 58.3289413452 8.1696605682
-1.4183042049 58.3257217407 7.9801158905
-1.4196041822 58.3310966492 7.7932057381
-1.4212557077 58.3447570801 7.6088504791
-1.4231519699 58.3641815186 7.4262881279
-1.4251164198 58.3852157593 7.2442417145
-1.4269655943 58.4035377502 7.0613732338
-1.4285653830 58.4159812927 6.8766942024
-1.4298672676 58.4214096069 6.6898365021
-1.4309395552 58.4214210510 6.5012884140
-1.4319696426 58.4204368591 6.3124222755
-1.4332007170 58.4241943359 6.1250329018
-1.4348173141 58.4370384216 5.9404983521
-1.4368520975 58.4597434998 5.7590765953
-1.4391698837 58.4891281128 5.5797839165
-1.4415310621 58.5195426941 5.4008469582
-1.4436873198 58.5451240540 5.2204113007
-1.4454603195 58.5616683960 5.0371341705
-1.4467822313 58.5675735474 4.8504877090
-1.4476978779 58.5638961792 4.6607880592
-1.4483338594 58.5536155701 4.4689688683
-1.4488531351 58.5405807495 4.2762484550
-1.4494203329 58.5286712646 4.0838661194
-1.4501723051 58.5211219788 3.8928608894
-1.4511768818 58.5195312500 3.7037570477
-1.4523985386 58.5230636597 3.5162971020
-1.4537156820 58.5288505554 3.3295624256
-1.4549887180 58.5335922241 3.1424913406
-1.4561303854 58.5352363586 2.9544131756
-1.4571368694 58.5336875916 2.7652931213
-1.4580729008 58.5304756165 2.5756216049
-1.4590194225 58.5275077820 2.3860192299
-1.4600180387 58.5257682800 2.1968080997
-1.4610565901 58.5249710083 2.0078969002
-1.4621069431 58.5244522095 1.8190681934
-1.4631787539 58.5244369507 1.6303987503
-1.4643526077 58.5268363953 1.4425171614
-1.4657757282 58.5351219177 1.2565747499
-1.4676125050 58.5531845093 1.0738700628
-1.4699641466 58.5834121704 0.8952135444
-1.4727969170 58.6250228882 0.7203660607
-1.4759291410 58.6737136841 0.5479218364
-1.4790900946 58.7230911255 0.3757615387
-1.4820311069 58.7672767639 0.2019227892
-1.4846267700 58.8033065796 0.0254050698
-49.1284751892 26.4187698364 59.1277656555
-49.1349487305 26.4235401154 58.9394836426
-49.1518478394 26.4336776733 58.7525749207
-49.1827697754 26.4510307312 58.5675392151
-49.2285461426 26.4760303497 58.3845138550
-49.2861518860 26.5071182251 58.2031250000
-49.3498001099 26.5413131714 58.0226173401
-49.4129142761 26.5752353668 57.8421211243
-49.4699020386 26.6060028076 57.6608695984
-49.5169906616 26.6316757202 57.4783401489
-49.5516090393 26.6509284973 57.2941589355
-49.5706748962 26.6621780396 57.1078796387
-49.5694656372 26.6629943848 56.9188156128
-49.5423011780 26.6504497528 56.7261352539
-49.4845123291 26.6221485138 56.5291366577
-49.3941497803 26.5770835876 56.3274841309
-49.2726593018 26.5159988403 56.1213111877
-49.1253433228 26.4416275024 55.9113159180
-48.9625015259 26.3592662811 55.6989021301
-48.8001785278 26.2771759033 55.4863395691
-48.6589775085 26.2059555054 55.2765922546
-48.5609283447 26.1569404602 55.0728721619
-48.5257453918 26.1402797699 54.8781356812
-48.5667648315 26.1628303528 54.6944503784
-48.6864471436 26.2258605957 54.5223274231
-48.8737297058 26.3236732483 54.3602981567
-49.1061477661 26.4447097778 54.2051849365
-49.3561859131 26.5748100281 54.0529899597
-49.5974769592 26.7004089355 53.8998222351
-49.8083724976 26.8103637695 53.7424201965
-49.9738731384 26.8969593048 53.5784683228
-50.0870056152 26.9566078186 53.4068222046
-50.1493988037 26.9901466370 53.2276229858
-50.1698875427 27.0021247864 53.0421142578
-50.1606674194 26.9988155365 52.8520812988
-50.1331138611 26.9860744476 52.6592063904
-50.0965003967 26.9686717987 52.4648933411
-50.0593872070 26.9510116577 52.2704467773
-50.0303077698 26.9374866486 52.0771942139
-50.0162124634 26.9316711426 51.8862419128
-50.0205383301 26.9353313446 51.6981620789
-50.0428581238 26.9482517242 51.5129165649
-50.0800361633 26.9688167572 51.3300552368
-50.1276321411 26.9947376251 51.1488914490
-50.1807861328 27.0235214233 50.9686737061
-50.2347183228 27.0527038574 50.7886505127
-50.2849960327 27.0800037384 50.6081008911
-50.3275947571 27.1033554077 50.4263725281
-50.3590774536 27.1209869385 50.2428894043
-50.3770370483 27.1316604614 50.0572357178
-50.3804512024 27.1348533630 49.8692169189
-50.3698120117 27.1308155060 49.6788864136
-50.3475341797 27.1207885742 49.4866104126
-50.3183746338 27.1072235107 49.2931594849
-50.2885169983 27.0932998657 49.0995483398
-50.2633285522 27.0817756653 48.9066696167
-50.2456092834 27.0740985870 48.7150039673
-50.2356719971 27.0704212189 48.5246238708
-50.2323570251 27.0701522827 48.3353424072
-50.2337188721 27.0722885132 48.1468467712
-50.2370605469 27.0754432678 47.9586830139
-50.2390289307 27.0778942108 47.7702827454
-50.2362442017 27.0778980255 47.5810661316
-50.2261009216 27.0741138458 47.3905639648
-50.2074241638 27.0659446716 47.1985664368
-50.1809692383 27.0537738800 47.0051879883
-50.1498527527 27.0392055511 46.8109512329
-50.1196632385 27.0251121521 46.6168289185
-50.0977745056 27.0152912140 46.4241218567
-50.0915794373 27.0135421753 46.2341537476
-50.1059150696 27.0223522186 46.0478057861
-50.1408538818 27.0417613983 45.8651428223
-50.1911659241 27.0690746307 45.6852645874
-50.2477340698 27.0996074677 45.5065689087
-50.3000640869 27.1279582977 45.3271827698
-50.3387680054 27.1492996216 45.1454010010
-50.3573188782 27.1602764130 44.9600067139
-50.3531303406 27.1595592499 44.7704963684
-50.3283386230 27.1482429504 44.5772094727
-50.2900619507 27.1299953461 44.3814125061
-50.2488288879 27.1102256775 44.1850128174
-50.2150764465 27.0943031311 43.9899330139
-50.1960296631 27.0859470367 43.7975311279
-50.1949272156 27.0868167877 43.6084327698
-50.2117462158 27.0969028473 43.4226722717
-50.2435531616 27.1146984100 43.2397384644
-50.2842941284 27.1370868683 43.0585250854
-50.3255233765 27.1597251892 42.8774490356
-50.3587226868 27.1782360077 42.6949005127
-50.3782463074 27.1897125244 42.5097961426
-50.3832511902 27.1937236786 42.3219375610
-50.3773384094 27.1921195984 42.1319923401
-50.3659515381 27.1877002716 41.9409828186
-50.3535118103 27.1827392578 41.7497482300
-50.3420982361 27.1783084869 41.5586891174
-50.3319206238 27.1745109558 41.3678474426
-50.3227233887 27.1712207794 41.1771812439
-50.3153991699 27.1688919067 40.9868621826
-50.3123474121 27.1687583923 40.7973632813
-50.3157768250 27.1719589233 40.6091270447
-50.3253059387 27.1782970428 40.4221000671
-50.3374595642 27.1859836578 40.2355957031
-50.3474655151 27.1925640106 40.0486755371
-50.3514251709 27.1960391998 39.8605613708
-50.3472747803 27.1953411102 39.6708183289
-50.3347358704 27.1903324127 39.4793815613
-50.3152198792 27.1817359924 39.2865142822
-50.2918395996 27.1711521149 39.0928344727
-50.2691268921 27.1609115601 38.8992538452
-50.2517890930 27.1534366608 38.7067298889
-50.2431144714 27.1504154205 38.5159454346
-50.2442207336 27.1524200439 38.3271446228
-50.2542800903 27.1590309143 38.1401824951
-50.2707748413 27.1689491272 37.9545555115
-50.2895507813 27.1800403595 37.7694168091
-50.3054771423 27.1896686554 37.5837059021
-50.3137435913 27.1953563690 37.3964157104
-50.3108787537 27.1953201294 37.2068061829
-50.2954368591 27.1888198853 37.0145492554
-50.2689399719 27.1766376495 36.8199424744
-50.2364768982 27.1613864899 36.6240310669
-50.2056770325 27.1469917297 36.4284286499
-50.1843376160 27.1374588013 36.2347831726
-50.1783561707 27.1358242035 36.0443763733
-50.1906013489 27.1435585022 35.8578453064
-50.2199211121 27.1600704193 35.6749877930
-50.2604408264 27.1823387146 35.4945716858
-50.3023719788 27.2053318024 35.3145065308
-50.3350830078 27.2235851288 35.1324996948
-50.3510856628 27.2332496643 34.9469032288
-50.3483734131 27.2332954407 34.7572479248
-50.3302841187 27.2254352570 34.5642280579
-50.3037605286 27.2132396698 34.3693313599
-50.2769851685 27.2009162903 34.1743354797
-50.2572441101 27.1922073364 33.9808464050
-50.2498817444 27.1898632050 33.7900657654
-50.2581596375 27.1955566406 33.6027336121
-50.2827186584 27.2096195221 33.4190292358
-50.3205070496 27.2304801941 33.2383003235
-50.3644485474 27.2545051575 33.0589981079
-50.4049301147 27.2767524719 32.8789672852
-50.4327888489 27.2925090790 32.6961479187
-50.4421348572 27.2987518311 32.5091781616
-50.4314231873 27.2946872711 32.3176765442
-50.4024391174 27.2812271118 32.1220016479
-50.3589019775 27.2602901459 31.9229679108
-50.3061599731 27.2346229553 31.7217674255
-50.2512741089 27.2078533173 31.5199966431
-50.2022361755 27.1840896606 31.3194904327
-50.1661643982 27.1669921875 31.1219024658
-50.1473159790 27.1587467194 30.9282398224
-50.1458702087 27.1594409943 30.7385807037
-50.1585578918 27.1674041748 30.5522003174
-50.1811027527 27.1804313660 30.3681297302
-50.2102127075 27.1968307495 30.1856174469
-50.2430496216 27.2151451111 30.0040149689
-50.2754287720 27.2332267761 29.8223419189
-50.3017158508 27.2481746674 29.6392707825
-50.3169555664 27.2574462891 29.4536132813
-50.3190917969 27.2599849701 29.2648658752
-50.3097076416 27.2566032410 29.0733718872
-50.2934684753 27.2496986389 28.8802242279
-50.2765083313 27.2424221039 28.6868762970
-50.2641868591 27.2375316620 28.4946136475
-50.2595443726 27.2365856171 28.3041744232
-50.2632026672 27.2399082184 28.1157283783
-50.2740478516 27.2469196320 27.9290180206
-50.2894439697 27.2562713623 27.7434215546
-50.3048248291 27.2656154633 27.5578365326
-50.3135070801 27.2715167999 27.3706302643
-50.3082351685 27.2702484131 27.1800174713
-50.2847251892 27.2596111298 26.9849166870
-50.2448959351 27.2405853271 26.7857646942
-50.1967239380 27.2172756195 26.5844955444
-50.1504287720 27.1949310303 26.3836193085
-50.1139907837 27.1776504517 26.1851196289
-50.0909919739 27.1672725677 25.9899063110
-50.0809783936 27.1635704041 25.7978954315
-50.0808830261 27.1649627686 25.6083431244
-50.0864143372 27.1692485809 25.4201984406
-50.0931701660 27.1741619110 25.2323608398
-50.0972137451 27.1776790619 25.0438423157
-50.0954360962 27.1782093048 24.8538551331
-50.0860099792 27.1748085022 24.6619186401
-50.0688591003 27.1674404144 24.4680023193
-50.0460281372 27.1571521759 24.2726078033
-50.0218124390 27.1461544037 24.0768241882
-50.0026779175 27.1377677917 23.8823051453
-49.9962234497 27.1358928680 23.6910076141
-50.0087661743 27.1437797546 23.5045871735
-50.0425720215 27.1625900269 23.3236675262
-50.0945968628 27.1907615662 23.1475048065
-50.1574287415 27.2244796753 22.9742088318
-50.2212944031 27.2587318420 22.8012599945
-50.2760620117 27.2883071899 22.6260204315
-50.3130264282 27.3087406158 22.4461917877
-50.3267517090 27.3172321320 22.2603149414
-50.3166236877 27.3134708405 22.0681800842
-50.2874374390 27.2999191284 21.8710002899
-50.2486038208 27.2814121246 21.6712284088
-50.2119941711 27.2640514374 21.4719886780
-50.1884269714 27.2533855438 21.2761554718
-50.1838684082 27.2524871826 21.0853462219
-50.1978034973 27.2610893250 20.8994617462
-50.2246856689 27.2763404846 20.7170543671
-50.2568397522 27.2942981720 20.5360908508
-50.2866783142 27.3110675812 20.3545436859
-50.3080329895 27.3234767914 20.1707420349
-50.3170738220 27.3295631409 19.9836349487
-50.3127784729 27.3288002014 19.7929210663
-50.2967185974 27.3219928741 19.5989990234
-50.2725181580 27.3110065460 19.4028339386
-50.2449417114 27.2982864380 19.2057075500
-50.2182388306 27.2860126495 19.0087776184
-50.1944961548 27.2752609253 18.8126163483
-50.1737060547 27.2660274506 18.6172313690
-50.1558036804 27.2582740784 18.4226074219
-50.1425628662 27.2529182434 18.2292423248
-50.1373329163 27.2516765594 18.0380725861
-50.1425933838 27.2558212280 17.8498020172
-50.1573600769 27.2648468018 17.6641807556
-50.1762199402 27.2759780884 17.4797153473
-50.1906814575 27.2848491669 17.2940406799
-50.1924476624 27.2871990204 17.1048183441
-50.1775970459 27.2810153961 16.9109191895
-50.1491622925 27.2678565979 16.7131690979
-50.1156654358 27.2520980835 16.5139446259
-50.0864830017 27.2385559082 16.3158893585
-50.0681877136 27.2306041718 16.1208782196
-50.0641403198 27.2299728394 15.9298925400
-50.0756607056 27.2373313904 15.7433319092
-50.1022720337 27.2524414063 15.5610961914
-50.1410217285 27.2737846375 15.3823680878
-50.1861953735 27.2984256744 15.2055311203
-50.2302284241 27.3224811554 15.0284214020
-50.2654228210 27.3419971466 14.8488140106
-50.2856636047 27.3538341522 14.6649246216
-50.2875900269 27.3562660217 14.4757471085
-50.2713203430 27.3493576050 14.2812795639
-50.2407951355 27.3351268768 14.0826301575
-50.2031440735 27.3172397614 13.8818559647
-50.1668319702 27.3000373840 13.6814155579
-50.1391677856 27.2872772217 13.4834566116
-50.1247062683 27.2812976837 13.2893352509
-50.1250228882 27.2829036713 13.0995416641
-50.1392288208 27.2916431427 12.9138450623
-50.1643714905 27.3059978485 12.7313995361
-50.1958274841 27.3235931396 12.5508537292
-50.2282218933 27.3416709900 12.3706245422
-50.2565498352 27.3576583862 12.1892204285
-50.2768554688 27.3695278168 12.0054531097
-50.2868194580 27.3760890961 11.8186111450
-50.2866401672 27.3774414063 11.6287336349
-50.2794685364 27.3752021790 11.4367465973
-50.2703056335 27.3719425201 11.2441444397
-50.2639884949 27.3701438904 11.0523834229
-50.2641448975 27.3716697693 10.8625698090
-50.2738990784 27.3781223297 10.6756601334
-50.2963600159 27.3910961151 10.4926223755
-50.3330459595 27.4113750458 10.3139448166
-50.3811149597 27.4374961853 10.1387882233
-50.4321746826 27.4651527405 9.9646053314
-50.4740447998 27.4880924225 9.7876672745
-50.4946670532 27.5001220703 9.6042461395
-50.4865074158 27.4973773956 9.4119777679
-50.4497680664 27.4799613953 9.2108659744
-50.3924484253 27.4519824982 9.0033292770
-50.3273239136 27.4199962616 8.7932891846
-50.2678833008 27.3909282684 8.5849199295
-50.2249565125 27.3703365326 8.3816099167
-50.2043838501 27.3612213135 8.1852140427
-50.2059783936 27.3634853363 7.9957222939
-50.2242774963 27.3743247986 7.8114643097
-50.2508659363 27.3894195557 7.6298298836
-50.2771835327 27.4043712616 7.4481391907
-50.2965202332 27.4157428741 7.2642760277
-50.3046646118 27.4213695526 7.0768933296
-50.2995376587 27.4201831818 6.8853096962
-50.2809753418 27.4121017456 6.6894450188
-50.2514266968 27.3983783722 6.4900522232
-50.2166671753 27.3819847107 6.2889518738
-50.1849861145 27.3671703339 6.0887827873
-50.1647949219 27.3582534790 5.8922452927
-50.1621322632 27.3583335876 5.7013015747
-50.1789360046 27.3684043884 5.5166106224
-50.2123069763 27.3869762421 5.3372759819
-50.2551422119 27.4104080200 5.1610393524
-50.2981796265 27.4339427948 4.9849195480
-50.3325920105 27.4530506134 4.8060555458
-50.3524818420 27.4647045135 4.6225094795
-50.3564147949 27.4681663513 4.4337868690
-50.3471717834 27.4648685455 4.2407631874
-50.3299179077 27.4574604034 4.0451002121
-50.3104667664 27.4489250183 3.8486886024
-50.2946281433 27.4422416687 3.6534304619
-50.2876052856 27.4400844574 3.4610464573
-50.2926673889 27.4441280365 3.2726335526
-50.3100433350 27.4544925690 3.0882914066
-50.3372573853 27.4699039459 2.9072241783
-50.3706703186 27.4884967804 2.7282452583
-50.4070510864 27.5086116791 2.5502924919
-50.4441413879 27.5290908813 2.3726203442
-50.4801139832 27.5489959717 2.1946187019
-50.5128631592 27.5672454834 2.0155806541
-50.5403518677 27.5827980042 1.8348187208
-50.5615692139 27.5951309204 1.6519815922
-50.5764350891 27.6042041779 1.4670289755
-50.5848426819 27.6099624634 1.2799116373
-50.5868530273 27.6124420166 1.0906395912
-50.5845794678 27.6127204895 0.8999130130
-50.5831222534 27.6134166718 0.7094535232
-50.5884056091 27.6175746918 0.5212790966
-50.6032943726 27.6266574860 0.3363765776
-50.6254081726 27.6394500732 0.1539556384
13.7094430923 55.2496948242 60.5138664246
13.7134962082 55.2728767395 60.3293724060
13.7211551666 55.3123092651 60.1470680237
13.7316732407 55.3646202087 59.9665336609
13.7438573837 55.4244384766 59.7870750427
13.7563753128 55.4857597351 59.6078872681
13.7681217194 55.5436019897 59.4282989502
13.7783136368 55.5944404602 59.2478218079
13.7863321304 55.6354789734 59.0660552979
13.7916154861 55.6641960144 58.8826332092
13.7938156128 55.6790199280 58.6973190308
13.7930231094 55.6803550720 58.5101356506
13.7898359299 55.6709060669 58.3214378357
13.7852830887 55.6553039551 58.1318550110
13.7806758881 55.6394577026 57.9422111511
13.7773914337 55.6295700073 57.7533836365
13.7765073776 55.6305007935 57.5660820007
13.7784290314 55.6440658569 57.3805809021
13.7827243805 55.6683273315 57.1966285706
13.7883253098 55.6984710693 57.0135459900
13.7939920425 55.7289123535 56.8305435181
13.7987442017 55.7552299500 56.6469688416
13.8019857407 55.7747421265 56.4624290466
13.8033742905 55.7859039307 56.2766761780
13.8026475906 55.7875404358 56.0895233154
13.7995805740 55.7786331177 55.9008026123
13.7940702438 55.7587242126 55.7104263306
13.7863283157 55.7287559509 55.5185089111
13.7771377563 55.6922721863 55.3255691528
13.7679920197 55.6559906006 55.1326065063
13.7608070374 55.6285400391 54.9409255981
13.7571725845 55.6170806885 54.7516365051
13.7575674057 55.6237716675 54.5651016235
13.7610883713 55.6445426941 54.3807258606
13.7658147812 55.6707420349 54.1972084045
13.7694931030 55.6922225952 54.0129852295
13.7701768875 55.7002105713 53.8266906738
13.7666816711 55.6893844604 53.6374588013
13.7589292526 55.6593818665 53.4452018738
13.7480974197 55.6155128479 53.2507133484
13.7363986969 55.5677413940 53.0555496216
13.7264404297 55.5278129578 52.8615570068
13.7204523087 55.5057601929 52.6703567505
13.7197532654 55.5075302124 52.4829292297
13.7245483398 55.5340385437 52.2994728088
13.7340030670 55.5815315247 52.1194229126
13.7465543747 55.6429634094 51.9416847229
13.7603559494 55.7100257874 51.7649345398
13.7736463547 55.7747802734 51.5878868103
13.7849416733 55.8305549622 51.4094429016
13.7931785583 55.8725509644 51.2288017273
13.7978172302 55.8983497620 51.0455322266
13.7988061905 55.9077148438 50.8595619202
13.7964181900 55.9018707275 50.6710662842
13.7912015915 55.8832931519 50.4804306030
13.7841711044 55.8565521240 50.2883949280
13.7769804001 55.8290901184 50.0961952209
13.7716846466 55.8101577759 49.9053955078
13.7700376511 55.8076591492 49.7173500061
13.7727994919 55.8250045776 49.5326728821
13.7795143127 55.8601417542 49.3510551453
13.7887659073 55.9067077637 49.1714324951
13.7986001968 55.9558906555 48.9923171997
13.8069496155 55.9983825684 48.8120994568
13.8121080399 56.0265159607 48.6294403076
13.8131542206 56.0361366272 48.4435844421
13.8101320267 56.0274429321 48.2545318604
13.8039655685 56.0045928955 48.0629806519
13.7961826324 55.9744682312 47.8701057434
13.7885112762 55.9448509216 47.6772804260
13.7824440002 55.9224510193 47.4856834412
13.7789192200 55.9114952087 47.2960929871
13.7782316208 55.9133186340 47.1087646484
13.7801160812 55.9267082214 46.9235038757
13.7838926315 55.9486198425 46.7397880554
13.7885856628 55.9746551514 46.5568351746
13.7929677963 55.9992866516 46.3736572266
13.7956495285 56.0162658691 46.1891136169
13.7953939438 56.0200309753 46.0021705627
13.7916154861 56.0079345703 45.8123168945
13.7847805023 55.9820861816 45.6199150085
13.7764606476 55.9495544434 45.4262390137
13.7689056396 55.9204673767 45.2331504822
13.7642116547 55.9042549133 45.0424079895
13.7634668350 55.9058189392 44.8549537659
13.7664470673 55.9241447449 44.6706314087
13.7720308304 55.9541816711 44.4885215759
13.7788877487 55.9899520874 44.3075256348
13.7858800888 56.0263290405 44.1266822815
13.7920398712 56.0589561462 43.9451675415
13.7964200974 56.0835800171 43.7621650696
13.7980966568 56.0960350037 43.5768623352
13.7963733673 56.0931892395 43.3886375427
13.7911100388 56.0744171143 43.1973419189
13.7829666138 56.0426940918 43.0035133362
13.7733297348 56.0042457581 42.8083343506
13.7638530731 55.9665184021 42.6132392883
13.7559375763 55.9358253479 42.4194564819
13.7504987717 55.9162673950 42.2278099060
13.7479619980 55.9097709656 42.0386886597
13.7482557297 55.9160079956 41.8520584106
13.7507791519 55.9322776794 41.6674079895
13.7544889450 55.9538764954 41.4838294983
13.7581329346 55.9751853943 41.3002166748
13.7605619431 55.9910278320 41.1155319214
13.7610149384 55.9979820251 40.9290809631
13.7592983246 55.9951705933 40.7406730652
13.7558364868 55.9845123291 40.5506744385
13.7516107559 55.9704170227 40.3599624634
13.7479162216 55.9587135315 40.1697082520
13.7459440231 55.9547615051 39.9810066223
13.7464237213 55.9618339539 39.7945404053
13.7495479584 55.9808006287 39.6105117798
13.7551603317 56.0109596252 39.4287948608
13.7629222870 56.0507850647 39.2491035461
13.7722806931 56.0977897644 39.0709381104
13.7823667526 56.1480712891 38.8935012817
13.7920608521 56.1965827942 38.7157592773
13.8002138138 56.2381629944 38.5366249084
13.8058919907 56.2686119080 38.3552131653
13.8084917068 56.2852134705 38.1709251404
13.8077354431 56.2867240906 37.9834785461
13.8037137985 56.2735481262 37.7929267883
13.7970352173 56.2484245300 37.5998229980
13.7889585495 56.2170181274 37.4053421021
13.7812480927 56.1872558594 37.2111625671
13.7756900787 56.1671752930 37.0190086365
13.7734737396 56.1621208191 36.8300399780
13.7747812271 56.1729125977 36.6444664001
13.7788314819 56.1960411072 36.4615554810
13.7843198776 56.2256317139 36.2800674438
13.7898941040 56.2556114197 36.0986938477
13.7944498062 56.2810058594 35.9163551331
13.7972373962 56.2984580994 35.7323112488
13.7978782654 56.3062477112 35.5461654663
13.7962865829 56.3040046692 35.3578186035
13.7926015854 56.2923469543 35.1673927307
13.7871379852 56.2726974487 34.9751777649
13.7803554535 56.2471160889 34.7816200256
13.7728509903 56.2182846069 34.5872993469
13.7653808594 56.1896171570 34.3929672241
13.7588014603 56.1649551392 34.1994857788
13.7538251877 56.1474952698 34.0075836182
13.7507400513 56.1385421753 33.8175582886
13.7492971420 56.1369743347 33.6291770935
13.7487850189 56.1395835876 33.4417343140
13.7481937408 56.1418457031 33.2542076111
13.7464885712 56.1390953064 33.0655364990
13.7429418564 56.1280670166 32.8749694824
13.7374238968 56.1081809998 32.6823577881
13.7304620743 56.0818023682 32.4882202148
13.7230348587 56.0533332825 32.2935638428
13.7162437439 56.0277290344 32.0995254517
13.7110023499 56.0090866089 31.9070529938
13.7078437805 55.9998092651 31.7167205811
13.7068901062 56.0004425049 31.5286731720
13.7078924179 56.0098648071 31.3426685333
13.7103013992 56.0256118774 31.1581459045
13.7133283615 56.0441360474 30.9742908478
13.7160530090 56.0613021851 30.7901306152
13.7176017761 56.0731773376 30.6047382355
13.7173852921 56.0771293640 30.4174823761
13.7152891159 56.0726242065 30.2282199860
13.7117099762 56.0614585876 30.0373611450
13.7074432373 56.0472068787 29.8457450867
13.7034301758 56.0340881348 29.6543750763
13.7004461288 56.0256004333 29.4640903473
13.6988935471 56.0235404968 29.2753295898
13.6987533569 56.0278320313 29.0880908966
13.6996831894 56.0369300842 28.9020118713
13.7011432648 56.0484123230 28.7165145874
13.7025203705 56.0595207214 28.5309333801
13.7032260895 56.0676078796 28.3446254730
13.7027540207 56.0704078674 28.1570281982
13.7006931305 56.0660705566 27.9676799774
13.6967029572 56.0530624390 27.7761917114
13.6904945374 56.0300865173 27.5822257996
13.6819295883 55.9965248108 27.3856105804
13.6713027954 55.9537010193 27.1866550446
13.6596088409 55.9060859680 26.9864463806
13.6484537125 55.8608932495 26.7867698669
13.6395263672 55.8257064819 26.5895252228
13.6340093613 55.8058471680 26.3960571289
13.6322946548 55.8030662537 26.2068386078
13.6339960098 55.8156394958 26.0214653015
13.6380739212 55.8388824463 25.8387928009
13.6430568695 55.8661918640 25.6571674347
13.6474208832 55.8907203674 25.4748687744
13.6499824524 55.9071540833 25.2905368805
13.6500797272 55.9125137329 25.1034011841
13.6475486755 55.9060707092 24.9132537842
13.6427164078 55.8892898560 24.7204456329
13.6365013123 55.8662986755 24.5260143280
13.6304445267 55.8440170288 24.3317298889
13.6263809204 55.8306922913 24.1397171021
13.6256961823 55.8325386047 23.9516029358
13.6285600662 55.8503303528 23.7676124573
13.6337947845 55.8787689209 23.5864048004
13.6395692825 55.9096298218 23.4058570862
13.6443681717 55.9361114502 23.2241992950
13.6474781036 55.9550018311 23.0405826569
13.6488046646 55.9658851624 22.8548831940
13.6484994888 55.9694404602 22.6672630310
13.6468133926 55.9667930603 22.4780044556
13.6441984177 55.9599723816 22.2876319885
13.6413869858 55.9522743225 22.0970115662
13.6392364502 55.9475402832 21.9071598053
13.6384468079 55.9489212036 21.7189235687
13.6394901276 55.9585304260 21.5328788757
13.6427059174 55.9778976440 21.3494510651
13.6482009888 56.0074996948 21.1687831879
13.6554632187 56.0450325012 20.9902801514
13.6631917953 56.0846633911 20.8123855591
13.6697120667 56.1188621521 20.6330661774
13.6736564636 56.1414985657 20.4506530762
13.6744232178 56.1498641968 20.2643890381
13.6722412109 56.1449890137 20.0745258331
13.6679515839 56.1306533813 19.8820667267
13.6625852585 56.1114845276 19.6882629395
13.6569414139 56.0910682678 19.4940834045
13.6514101028 56.0711555481 19.3000106812
13.6460533142 56.0520324707 19.1061210632
13.6407222748 56.0330238342 18.9122295380
13.6351976395 56.0131454468 18.7180671692
13.6294822693 55.9924163818 18.5236358643
