-16.8438110352 58.4987525940 78.5731124878
-16.8484191895 58.5098762512 78.3895339966
-16.8553390503 58.5283355713 78.2065124512
-16.8640441895 58.5524482727 78.0239257813
-16.8736591339 58.5794525146 77.8415832520
-16.8828144073 58.6049957275 77.6591567993
-16.8897209167 58.6234054565 77.4762115479
-16.8926658630 58.6292610168 77.2923126221
-16.8905849457 58.6191902161 77.1071777344
-16.8831577301 58.5921592712 76.9206924438
-16.8704528809 58.5483970642 76.7328338623
-16.8526649475 58.4885215759 76.5436172485
-16.8301105499 58.4135284424 76.3531112671
-16.8031654358 58.3246154785 76.1613616943
-16.7721767426 58.2228813171 75.9684371948
-16.7376956940 58.1100616455 75.7744598389
-16.7010269165 57.9903144836 75.5797500610
-16.6645507813 57.8711662292 75.3849258423
-16.6312255859 57.7620124817 75.1907806396
-16.6036376953 57.6710433960 74.9980392456
-16.5833511353 57.6032218933 74.8071594238
-16.5709743500 57.5604858398 74.6183547974
-16.5665760040 57.5430412292 74.4316864014
-16.5698909760 57.5500564575 74.2471389771
-16.5801963806 57.5792388916 74.0645599365
-16.5961017609 57.6261749268 73.8835983276
-16.6155433655 57.6843299866 73.7036895752
-16.6361465454 57.7461738586 73.5241928101
-16.6557674408 57.8048934937 73.3444824219
-16.6728496552 57.8555717468 73.1641082764
-16.6864242554 57.8951301575 72.9827651978
-16.6959590912 57.9218750000 72.8002777100
-16.7013206482 57.9353828430 72.6165695190
-16.7027854919 57.9365310669 72.4317169189
-16.7010021210 57.9273834229 72.2458724976
-16.6970424652 57.9113311768 72.0593490601
-16.6924972534 57.8934211731 71.8726196289
-16.6893787384 57.8800392151 71.6863021851
-16.6896858215 57.8775177002 71.5010223389
-16.6948890686 57.8905296326 71.3172607422
-16.7056217194 57.9210700989 71.1352462769
-16.7215099335 57.9679679871 70.9548950195
-16.7411060333 58.0266304016 70.7757797241
-16.7620868683 58.0896797180 70.5971755981
-16.7819080353 58.1490554810 70.4182739258
-16.7986412048 58.1986312866 70.2384490967
-16.8113002777 58.2352981567 70.0573501587
-16.8195171356 58.2578659058 69.8748321533
-16.8230762482 58.2656669617 69.6907958984
-16.8220367432 58.2588768005 69.5052337646
-16.8171958923 58.2400283813 69.3183822632
-16.8102073669 58.2143707275 69.1307754517
-16.8031196594 58.1883926392 68.9430923462
-16.7978878021 58.1683044434 68.7560043335
-16.7961769104 58.1593818665 68.5700912476
-16.7991771698 58.1654090881 68.3857879639
-16.8072643280 58.1875648499 68.2032546997
-16.8196926117 58.2234992981 68.0222625732
-16.8345336914 58.2670860291 67.8421630859
-16.8488502502 58.3090095520 67.6619262695
-16.8593101501 58.3386993408 67.4803695679
-16.8633155823 58.3479118347 67.2965316772
-16.8600730896 58.3341331482 67.1100845337
-16.8508472443 58.3013687134 66.9214477539
-16.8382072449 58.2577781677 66.7315216064
-16.8249378204 58.2121887207 66.5412979126
-16.8132762909 58.1716918945 66.3516006470
-16.8045902252 58.1406402588 66.1629486084
-16.7993259430 58.1204376221 65.9755172729
-16.7972087860 58.1102218628 65.7892379761
-16.7976512909 58.1081314087 65.6039047241
-16.8000602722 58.1122779846 65.4193038940
-16.8038997650 58.1209640503 65.2352523804
-16.8086090088 58.1324081421 65.0515365601
-16.8135223389 58.1445007324 64.8679122925
-16.8178501129 58.1547317505 64.6840667725
-16.8207530975 58.1604461670 64.4996719360
-16.8215579987 58.1595039368 64.3144531250
-16.8199901581 58.1510314941 64.1283035278
-16.8162841797 58.1357765198 63.9412803650
-16.8111457825 58.1159706116 63.7536659241
-16.8056507111 58.0950393677 63.5658760071
-16.8010768890 58.0770225525 63.3784217834
-16.7985439301 58.0654830933 63.1917610168
-16.7986469269 58.0623092651 63.0061492920
-16.8013324738 58.0673332214 62.8215827942
-16.8060035706 58.0786552429 62.6378326416
-16.8117256165 58.0933189392 62.4545211792
-16.8174877167 58.1081047058 62.2712440491
-16.8224773407 58.1204338074 62.0876541138
-16.8261985779 58.1287498474 61.9035453796
-16.8284358978 58.1323471069 61.7188148499
-16.8292312622 58.1313705444 61.5334739685
-16.8290824890 58.1273956299 61.3477249146
-16.8291416168 58.1240844727 61.1620521545
-16.8311176300 58.1268539429 60.9771919250
-16.8368186951 58.1414451599 60.7939338684
-16.8476104736 58.1721954346 60.6128997803
-16.8640079498 58.2207412720 60.4343376160
-16.8854999542 58.2854537964 60.2580680847
-16.9106216431 58.3616867065 60.0834732056
-16.9373493195 58.4430236816 59.9096832275
-16.9636764526 58.5230941772 59.7358169556
-16.9880332947 58.5969047546 59.5611686707
-17.0093269348 58.6609992981 59.3852424622
-17.0268039703 58.7129783630 59.2076721191
-17.0399036407 58.7510643005 59.0281867981
-17.0480918884 58.7735557556 58.8465080261
-17.0505676270 58.7779235840 58.6622467041
-17.0460491180 58.7600860596 58.4747772217
-17.0329208374 58.7149124146 58.2833061218
-17.0098133087 58.6380691528 58.0871505737
-16.9761943817 58.5278434753 57.8859977722
-16.9325561523 58.3858184814 57.6800079346
-16.8801422119 58.2159309387 57.4697074890
-16.8202915192 58.0224266052 57.2556724548
-16.7539234161 57.8082275391 57.0382843018
-16.6818981171 57.5760650635 56.8179168701
-16.6059627533 57.3314819336 56.5953674316
-16.5290012360 57.0836334229 56.3719940186
-16.4541168213 56.8423767090 56.1492881775
-16.3836555481 56.6151504517 55.9283981323
-16.3190097809 56.4063873291 55.7100257874
-16.2608299255 56.2181472778 55.4945297241
-16.2091693878 56.0505981445 55.2819709778
-16.1637725830 55.9029350281 55.0722732544
-16.1245098114 55.7747421265 54.8654022217
-16.0914554596 55.6662559509 54.6614418030
-16.0645465851 55.5772781372 54.4603958130
-16.0433959961 55.5065841675 54.2621078491
-16.0275840759 55.4528388977 54.0664062500
-16.0169963837 55.4156837463 53.8732643127
-16.0116825104 55.3952713013 53.6827430725
-16.0113658905 55.3907203674 53.4947319031
-16.0150661469 55.3989295959 53.3087654114
-16.0210609436 55.4144248962 53.1239814758
-16.0271167755 55.4301109314 52.9392395020
-16.0310134888 55.4389457703 52.7533950806
-16.0313243866 55.4363937378 52.5656929016
-16.0280418396 55.4224243164 52.3761062622
-16.0226173401 55.4016609192 52.1853713989
-16.0174274445 55.3816375732 51.9947242737
-16.0150585175 55.3705673218 51.8055381775
-16.0176315308 55.3751983643 51.6189498901
-16.0260410309 55.3983573914 51.4354667664
-16.0392990112 55.4369163513 51.2546005249
-16.0547828674 55.4825477600 51.0749778748
-16.0695533752 55.5259132385 50.8950195313
-16.0816955566 55.5609359741 50.7136955261
-16.0905780792 55.5856056213 50.5306358337
-16.0962505341 55.6000785828 50.3458557129
-16.0989589691 55.6051368713 50.1594657898
-16.0991172791 55.6020965576 49.9716796875
-16.0973587036 55.5929718018 49.7828216553
-16.0944957733 55.5803337097 49.5933341980
-16.0915565491 55.5674591064 49.4037818909
-16.0898151398 55.5583839417 49.2148742676
-16.0904426575 55.5568351746 49.0272712708
-16.0939655304 55.5644760132 48.8412895203
-16.1001033783 55.5804367065 48.6567878723
-16.1081695557 55.6025085449 48.4733886719
-16.1174926758 55.6285781860 48.2907295227
-16.1275806427 55.6570854187 48.1085357666
-16.1380805969 55.6868934631 47.9266090393
-16.1486415863 55.7168922424 47.7447471619
-16.1586914063 55.7452774048 47.5626258850
-16.1673316956 55.7691841125 47.3797225952
-16.1736450195 55.7856941223 47.1954879761
-16.1773033142 55.7937774658 47.0097236633
-16.1788825989 55.7952499390 46.8227462769
-16.1795082092 55.7936935425 46.6352043152
-16.1802597046 55.7925376892 46.4477272034
-16.1818084717 55.7939147949 46.2607154846
-16.1843719482 55.7985153198 46.0743026733
-16.1877746582 55.8057823181 45.8883857727
-16.1915302277 55.8141670227 45.7026863098
-16.1949825287 55.8215980530 45.5168075562
-16.1974868774 55.8260116577 45.3303642273
-16.1985588074 55.8258705139 45.1430511475
-16.1979866028 55.8205108643 44.9547348022
-16.1958732605 55.8102531433 44.7654685974
-16.1925792694 55.7962379456 44.5754623413
-16.1885833740 55.7800064087 44.3850021362
-16.1843738556 55.7630805969 44.1943778992
-16.1804103851 55.7469482422 44.0038833618
-16.1772193909 55.7332611084 43.8138313293
-16.1753902435 55.7238998413 43.6246070862
-16.1753597260 55.7202606201 43.4364814758
-16.1770973206 55.7222328186 43.2494506836
-16.1799850464 55.7278633118 43.0631370544
-16.1831035614 55.7342262268 42.8769683838
-16.1856880188 55.7388877869 42.6904678345
-16.1874103546 55.7408180237 42.5034179688
-16.1883201599 55.7401618958 42.3158493042
-16.1885776520 55.7374305725 42.1278533936
-16.1883449554 55.7331466675 41.9395370483
-16.1878681183 55.7280845642 41.7510528564
-16.1875324249 55.7234687805 41.5626449585
-16.1878013611 55.7207756042 41.3746147156
-16.1890697479 55.7212600708 41.1872215271
-16.1915225983 55.7255096436 41.0005950928
-16.1950817108 55.7332687378 40.8146896362
-16.1994514465 55.7436027527 40.6293182373
-16.2042503357 55.7553100586 40.4442367554
-16.2091407776 55.7672996521 40.2592239380
-16.2138290405 55.7786560059 40.0740890503
-16.2179889679 55.7883262634 39.8886108398
-16.2211494446 55.7948226929 39.7024726868
-16.2228355408 55.7966308594 39.5153541565
-16.2228794098 55.7932205200 39.3271331787
-16.2217006683 55.7859268188 39.1380767822
-16.2203159332 55.7779769897 38.9488677979
-16.2200737000 55.7736587524 38.7604141235
-16.2221908569 55.7768363953 38.5735435486
-16.2272090912 55.7892379761 38.3886489868
-16.2346649170 55.8093833923 38.2054252625
-16.2431640625 55.8328475952 38.0229377747
-16.2508983612 55.8538818359 37.8399505615
-16.2563076019 55.8675270081 37.6553802490
-16.2585277557 55.8710365295 37.4686203003
-16.2574787140 55.8641548157 37.2795944214
-16.2536830902 55.8485374451 37.0886421204
-16.2480049133 55.8269386292 36.8963546753
-16.2414722443 55.8026237488 36.7034301758
-16.2351951599 55.7791137695 36.5106468201
-16.2302703857 55.7599029541 36.3187751770
-16.2275772095 55.7477912903 36.1284484863
-16.2275791168 55.7442474365 35.9400062561
-16.2302265167 55.7491149902 35.7534332275
-16.2349090576 55.7604408264 35.5683059692
-16.2404479980 55.7745018005 35.3837966919
-16.2453174591 55.7864303589 35.1988258362
-16.2480049133 55.7914161682 35.0122909546
-16.2473373413 55.7857437134 34.8233451843
-16.2427253723 55.7675285339 34.6315307617
-16.2344093323 55.7375335693 34.4370040894
-16.2236309052 55.6997146606 34.2406425476
-16.2125358582 55.6608848572 34.0439910889
-16.2036399841 55.6290435791 33.8488883972
-16.1991062164 55.6110725403 33.6569366455
-16.2001667023 55.6108894348 33.4690666199
-16.2069301605 55.6288337708 33.2853927612
-16.2184658051 55.6619567871 33.1052665710
-16.2329978943 55.7046051025 32.9274024963
-16.2482032776 55.7494010925 32.7500877380
-16.2617321014 55.7888641357 32.5715751648
-16.2717323303 55.8171043396 32.3904724121
-16.2771739960 55.8308525085 32.2059783936
-16.2779788971 55.8298568726 32.0180091858
-16.2750358582 55.8169479370 31.8272056580
-16.2699718475 55.7972869873 31.6347751617
-16.2645511627 55.7764968872 31.4420394897
-16.2600250244 55.7585449219 31.2499504089
-16.2569694519 55.7452697754 31.0589523315
-16.2556343079 55.7374687195 30.8692474365
-16.2562294006 55.7358055115 30.6810054779
-16.2588024139 55.7404289246 30.4942760468
-16.2629604340 55.7500953674 30.3087692261
-16.2677650452 55.7618141174 30.1237678528
-16.2717857361 55.7710456848 29.9381675720
-16.2734012604 55.7726287842 29.7507057190
-16.2714729309 55.7629356384 29.5604724884
-16.2660274506 55.7420616150 29.3674716949
-16.2583141327 55.7139701843 29.1726589203
-16.2500648499 55.6841697693 28.9773788452
-16.2427310944 55.6572837830 28.7827758789
-16.2373504639 55.6366157532 28.5896739960
-16.2348136902 55.6249885559 28.3987922668
-16.2358303070 55.6246566772 28.2107105255
-16.2404518127 55.6357994080 28.0254955292
-16.2477474213 55.6554412842 27.8424224854
-16.2560977936 55.6784439087 27.6602172852
-16.2638492584 55.6995315552 27.4775524139
-16.2696704865 55.7144927979 27.2933578491
-16.2726879120 55.7205276489 27.1069107056
-16.2727012634 55.7170104980 26.9180355072
-16.2704410553 55.7062606812 26.7273025513
-16.2673130035 55.6927452087 26.5358409882
-16.2646999359 55.6808738708 26.3447780609
-16.2634296417 55.6732749939 26.1547908783
-16.2637329102 55.6706695557 25.9660758972
-16.2654533386 55.6725807190 25.7785167694
-16.2682209015 55.6778221130 25.5918159485
-16.2714653015 55.6845855713 25.4055118561
-16.2744579315 55.6905403137 25.2189998627
-16.2765102386 55.6935081482 25.0317096710
-16.2773418427 55.6925888062 24.8433990479
-16.2772464752 55.6887245178 24.6543064117
-16.2768802643 55.6839981079 24.4649772644
-16.2767944336 55.6801567078 24.2758674622
-16.2771148682 55.6776161194 24.0870914459
-16.2775573730 55.6754570007 23.8984050751
-16.2776107788 55.6720657349 23.7093830109
-16.2768478394 55.6660690308 23.5196552277
-16.2752380371 55.6573829651 23.3291969299
-16.2732906342 55.6476249695 23.1384315491
-16.2717971802 55.6393089294 22.9480323792
-16.2713432312 55.6342964172 22.7585067749
-16.2720050812 55.6328392029 22.5699272156
-16.2734165192 55.6337623596 22.3819808960
-16.2750091553 55.6352615356 22.1941871643
-16.2762527466 55.6356544495 22.0060882568
-16.2768325806 55.6339340210 21.8174076080
-16.2767601013 55.6301307678 21.6281490326
-16.2763862610 55.6253814697 21.4386196136
-16.2763462067 55.6216850281 21.2493667603
-16.2773971558 55.6214599609 21.0610580444
-16.2802371979 55.6269340515 20.8743133545
-16.2852916718 55.6394462585 20.6895160675
-16.2924823761 55.6587638855 20.5066127777
-16.3010387421 55.6824302673 20.3249359131
-16.3094692230 55.7056884766 20.1431713104
-16.3159675598 55.7228012085 19.9597167969
-16.3192157745 55.7295722961 19.7733860016
-16.3189735413 55.7252311707 19.5839405060
-16.3159999847 55.7122001648 19.3920421600
-16.3115253448 55.6943931580 19.1987743378
-16.3068008423 55.6757888794 19.0052490234
-16.3029174805 55.6598625183 18.8124523163
-16.3007392883 55.6493568420 18.6211643219
-16.3007602692 55.6458549500 18.4318485260
-16.3030014038 55.6494178772 18.2445373535
-16.3069648743 55.6584663391 18.0587882996
-16.3117198944 55.6700325012 17.8737678528
-16.3161430359 55.6805419922 17.6884536743
-16.3192653656 55.6869049072 17.5019531250
-16.3205795288 55.6875228882 17.3137969971
-16.3201789856 55.6826744080 17.1240558624
-16.3186473846 55.6742324829 16.9332599640
-16.3168392181 55.6649017334 16.7421894073
-16.3156070709 55.6574096680 16.5516357422
-16.3156108856 55.6538543701 16.3622131348
-16.3171825409 55.6552848816 16.1742343903
-16.3202781677 55.6615676880 15.9876766205
-16.3245487213 55.6715888977 15.8022174835
-16.3294448853 55.6836090088 15.6173524857
-16.3343696594 55.6957092285 15.4325218201
-16.3387622833 55.7061233521 15.2472028732
-16.3421745300 55.7134170532 15.0609645844
-16.3443031311 55.7166175842 14.8735151291
-16.3450469971 55.7154121399 14.6847515106
-16.3445587158 55.7102890015 14.4948110580
-16.3432693481 55.7026138306 14.3040943146
-16.3418712616 55.6945915222 14.1132564545
-16.3412265778 55.6889610291 13.9231204987
-16.3421936035 55.6884689331 13.7345170975
-16.3454475403 55.6952552795 13.5481014252
-16.3513355255 55.7104263306 13.3642234802
-16.3598480225 55.7339553833 13.1828927994
-16.3706455231 55.7647628784 13.0037965775
-16.3830986023 55.8008384705 12.8263387680
-16.3962669373 55.8391952515 12.6496171951
-16.4088497162 55.8756866455 12.4723711014
-16.4192752838 55.9053115845 12.2930631638
-16.4261646271 55.9236755371 12.1103305817
-16.4289913177 55.9291038513 11.9236373901
-16.4284000397 55.9236526489 11.7335891724
-16.4258460999 55.9119415283 11.5415935516
-16.4229106903 55.8990249634 11.3492012024
-16.4209079742 55.8890762329 11.1577072144
-16.4208660126 55.8853683472 10.9681339264
-16.4235725403 55.8904113770 10.7812776566
-16.4293460846 55.9052276611 10.5974731445
-16.4376144409 55.9279823303 10.4161672592
-16.4467487335 55.9534988403 10.2357511520
-16.4545993805 55.9749259949 10.0540771484
-16.4595298767 55.9870567322 9.8694963455
-16.4611568451 55.9886627197 9.6816034317
-16.4602375031 55.9821624756 9.4911422729
-16.4580020905 55.9714736938 9.2993373871
-16.4555454254 55.9600715637 9.1072854996
-16.4535694122 55.9502067566 8.9157009125
-16.4523963928 55.9428939819 8.7249116898
-16.4521045685 55.9383926392 8.5350036621
-16.4526996613 55.9367103577 8.3459873199
-16.4541912079 55.9378890991 8.1578798294
-16.4565792084 55.9419212341 7.9706859589
-16.4597835541 55.9485473633 7.7843275070
-16.4635601044 55.9570045471 7.5985617638
-16.4674282074 55.9657516479 7.4128947258
-16.4706707001 55.9724998474 7.2265844345
-16.4725303650 55.9748458862 7.0388469696
-16.4725685120 55.9713897705 6.8492164612
-16.4709262848 55.9625854492 6.6578283310
-16.4683284760 55.9507408142 6.4654278755
-16.4658660889 55.9393157959 6.2731442451
-16.4646472931 55.9318580627 6.0821399689
-16.4654712677 55.9309082031 5.8932609558
-16.4686241150 55.9373703003 5.7068176270
-16.4738864899 55.9505577087 5.5225973129
-16.4806728363 55.9685974121 5.3399953842
-16.4881534576 55.9888496399 5.1581435204
-16.4953575134 56.0082206726 4.9760203362
-16.5013313293 56.0236778259 4.7926130295
-16.5053119659 56.0327835083 4.6070995331
-16.5068454742 56.0340881348 4.4189848900
-16.5058650970 56.0273895264 4.2281842232
-16.5027580261 56.0139122009 4.0350918770
-16.4983825684 55.9963951111 3.8406162262
-16.4939498901 55.9786911011 3.6460494995
-16.4907302856 55.9648590088 3.4527585506
-16.4897212982 55.9580650330 3.2618236542
-16.4914093018 55.9598617554 3.0737867355
-16.4956932068 55.9699363708 2.8885557652
-16.5019741058 55.9863662720 2.7054960728
-16.5094146729 56.0064964294 2.5237128735
-16.5172500610 56.0278816223 2.3423793316
-16.5249423981 56.0488128662 2.1609120369
-16.5321712494 56.0682678223 1.9789597988
-16.5387649536 56.0856971741 1.7963315248
-16.5446796417 56.1009635925 1.6129742861
-16.5500316620 56.1144371033 1.4290121794
-16.5551605225 56.1272048950 1.2448185682
-16.5606613159 56.1411514282 1.0610439777
-16.5672397614 56.1585350037 0.8784735799
-16.5754203796 56.1810226440 0.6976932287
-16.5852680206 56.2088241577 0.5187896490
-16.5964202881 56.2407836914 0.3413664401
-16.6083221436 56.2751350403 0.1648162305
-56.0011215210 12.8948421478 99.6333007813
-56.0195808411 12.9001531601 99.4462966919
-56.0487518311 12.9077987671 99.2591857910
-56.0780220032 12.9154644012 99.0721054077
-56.0998153687 12.9215021133 98.8851318359
-56.1106796265 12.9251604080 98.6982727051
-56.1096649170 12.9262313843 98.5115280151
-56.0976371765 12.9249057770 98.3248672485
-56.0779113770 12.9219036102 98.1382369995
-56.0560226440 12.9184303284 97.9515991211
-56.0378303528 12.9157629013 97.7649002075
-56.0271072388 12.9147214890 97.5781326294
-56.0239105225 12.9153184891 97.3913040161
-56.0246810913 12.9167795181 97.2044525146
-56.0242805481 12.9179849625 97.0175933838
-56.0187263489 12.9180698395 96.8307495117
-56.0071868896 12.9168510437 96.6439132690
-55.9926490784 12.9149799347 96.4570541382
-55.9810638428 12.9137516022 96.2701721191
-55.9785842896 12.9145050049 96.0832595825
-55.9881668091 12.9178848267 95.8963394165
-56.0080604553 12.9235086441 95.7094192505
-56.0330581665 12.9302425385 95.5225296021
-56.0571212769 12.9367742538 95.3356628418
-56.0753593445 12.9420375824 95.1488113403
-56.0844573975 12.9453105927 94.9619369507
-56.0824737549 12.9461727142 94.7750396729
-56.0693130493 12.9446020126 94.5880813599
-56.0479507446 12.9412460327 94.4010696411
-56.0247116089 12.9374828339 94.2140121460
-56.0071907043 12.9349632263 94.0269546509
-56.0008354187 12.9348745346 93.8399429321
-56.0064926147 12.9373998642 93.6529998779
-56.0198135376 12.9415922165 93.4661178589
-56.0325317383 12.9456539154 93.2792358398
-56.0356140137 12.9476194382 93.0922851563
-56.0233955383 12.9462547302 92.9051818848
-55.9962997437 12.9416522980 92.7179107666
-55.9603538513 12.9351253510 92.5305023193
-55.9243354797 12.9285821915 92.3430404663
-55.8964691162 12.9238147736 92.1556320190
-55.8818702698 12.9219331741 91.9683456421
-55.8811683655 12.9230756760 91.7812194824
-55.8909111023 12.9264898300 91.5942306519
-55.9054565430 12.9309492111 91.4073181152
-55.9187049866 12.9351263046 91.2203903198
-55.9244079590 12.9376630783 91.0333633423
-55.9166755676 12.9372758865 90.8461151123
-55.8924331665 12.9332971573 90.6585769653
-55.8541564941 12.9262647629 90.4707565308
-55.8094673157 12.9178390503 90.2827682495
-55.7672805786 12.9099569321 90.0947647095
-55.7337341309 12.9039554596 89.9068679810
-55.7108459473 12.9002723694 89.7191390991
-55.6976852417 12.8987064362 89.5315780640
-55.6920509338 12.8987770081 89.3441467285
-55.6915550232 12.8999652863 89.1568145752
-55.6940727234 12.9018096924 88.9695510864
-55.6979446411 12.9039487839 88.7823104858
-55.7020416260 12.9061355591 88.5950698853
-55.7056922913 12.9082269669 88.4078216553
-55.7085418701 12.9101419449 88.2205505371
-55.7102470398 12.9118099213 88.0332412720
-55.7099838257 12.9130496979 87.8458862305
-55.7058906555 12.9134559631 87.6584167480
-55.6952247620 12.9124326706 87.4707641602
-55.6757965088 12.9095048904 87.2828445435
-55.6478614807 12.9047269821 87.0946578979
-55.6149673462 12.8988704681 86.9062805176
-55.5835494995 12.8933353424 86.7179031372
-55.5616950989 12.8898811340 86.5297775269
-55.5565147400 12.8900518417 86.3421249390
-55.5702362061 12.8943328857 86.1550521851
-55.5979728699 12.9016618729 85.9684448242
-55.6299819946 12.9099197388 85.7819976807
-55.6565933228 12.9170036316 85.5954055786
-55.6713409424 12.9215078354 85.4084396362
-55.6709823608 12.9227266312 85.2209625244
-55.6549224854 12.9205331802 85.0329360962
-55.6261444092 12.9155731201 84.8444213867
-55.5925178528 12.9095592499 84.6556930542
-55.5658874512 12.9050683975 84.4671783447
-55.5579147339 12.9046325684 84.2793197632
-55.5749969482 12.9096450806 84.0923995972
-55.6159248352 12.9198408127 83.9064178467
-55.6734466553 12.9336433411 83.7211380005
-55.7376708984 12.9489030838 83.5361785889
-55.7986145020 12.9634494781 83.3511657715
-55.8474731445 12.9753675461 83.1657180786
-55.8776588440 12.9832267761 82.9795532227
-55.8858070374 12.9862947464 82.7924804688
-55.8721351624 12.9846200943 82.6044692993
-55.8402671814 12.9789905548 82.4156494141
-55.7963943481 12.9707508087 82.2262496948
-55.7478218079 12.9614915848 82.0365829468
-55.7014541626 12.9527111053 81.8469543457
-55.6632347107 12.9457015991 81.6576309204
-55.6383857727 12.9415998459 81.4688796997
-55.6311569214 12.9413270950 81.2809295654
-55.6432647705 12.9452571869 81.0938796997
-55.6721420288 12.9528322220 80.9076614380
-55.7107162476 12.9625129700 80.7219390869
-55.7492713928 12.9721899033 80.5362548828
-55.7784385681 12.9798269272 80.3501434326
-55.7914199829 12.9839468002 80.1632385254
-55.7850341797 12.9838571548 79.9753494263
-55.7602844238 12.9797763824 79.7864837646
-55.7223014832 12.9728212357 79.5968856812
-55.6789588928 12.9647016525 79.4069519043
-55.6391029358 12.9573392868 79.2171478271
-55.6115074158 12.9526424408 79.0279541016
-55.6032943726 12.9521570206 78.8397903442
-55.6165466309 12.9563360214 78.6528091431
-55.6454544067 12.9639158249 78.4667129517
-55.6776657104 12.9722137451 78.2808380127
-55.6998863220 12.9783411026 78.0944213867
-55.7037429810 12.9804773331 77.9069595337
-55.6883544922 12.9784336090 77.7183609009
-55.6592521667 12.9734096527 77.5289306641
-55.6248512268 12.9672355652 77.3391342163
-55.5923919678 12.9614830017 77.1494064331
-55.5659790039 12.9570446014 76.9600067139
-55.5480003357 12.9544382095 76.7710876465
-55.5414695740 12.9543199539 76.5828552246
-55.5500907898 12.9574928284 76.3955612183
-55.5759353638 12.9644069672 76.2093734741
-55.6177215576 12.9747838974 76.0242309570
-55.6709823608 12.9876518250 75.8398742676
-55.7288780212 13.0015277863 75.6558837891
-55.7826995850 13.0145177841 75.4716873169
-55.8230667114 13.0245847702 75.2866516113
-55.8427581787 13.0301609039 75.1002731323
-55.8396492004 13.0307846069 74.9123611450
-55.8176383972 13.0273036957 74.7231445313
-55.7853088379 13.0215816498 74.5331802368
-55.7534980774 13.0159721375 74.3432083130
-55.7325973511 13.0127325058 74.1539535522
-55.7300529480 13.0134792328 73.9659729004
-55.7482986450 13.0187416077 73.7794723511
-55.7834358215 13.0276718140 73.5942077637
-55.8257446289 13.0381603241 73.4094924927
-55.8632507324 13.0476045609 73.2244796753
-55.8868217468 13.0540218353 73.0384750366
-55.8932914734 13.0567264557 72.8512115479
-55.8850517273 13.0562362671 72.6628494263
-55.8673210144 13.0536861420 72.4737472534
-55.8451538086 13.0501718521 72.2842788696
-55.8215484619 13.0463457108 72.0946655273
-55.7975997925 13.0424461365 71.9049911499
-55.7740745544 13.0386381149 71.7153167725
-55.7525711060 13.0352697372 71.5257644653
-55.7350807190 13.0327720642 71.3364944458
-55.7225608826 13.0313549042 71.1476058960
-55.7142372131 13.0308475494 70.9590225220
-55.7080993652 13.0308160782 70.7706069946
-55.7017936707 13.0307474136 70.5821685791
-55.6931419373 13.0301704407 70.3935165405
-55.6803855896 13.0287008286 70.2045059204
-55.6626243591 13.0261459351 70.0150527954
-55.6405944824 13.0226650238 69.8252182007
-55.6169548035 13.0188341141 69.6352081299
-55.5953598022 13.0154476166 69.4453353882
-55.5789260864 13.0131826401 69.2558822632
-55.5696487427 13.0124692917 69.0670242310
-55.5689163208 13.0136127472 68.8788909912
-55.5777473450 13.0168304443 68.6915893555
-55.5958366394 13.0220594406 68.5051193237
-55.6205368042 13.0287218094 68.3192520142
-55.6471862793 13.0358076096 68.1335830688
-55.6708183289 13.0422372818 67.9476699829
-55.6877899170 13.0472230911 67.7611694336
-55.6964683533 13.0504074097 67.5739288330
-55.6969871521 13.0518217087 67.3859329224
-55.6907157898 13.0517625809 67.1973037720
-55.6796646118 13.0506658554 67.0082168579
-55.6660423279 13.0490102768 66.8188629150
-55.6521644592 13.0473012924 66.6294631958
-55.6405601501 13.0460844040 66.4402542114
-55.6334648132 13.0458469391 66.2514648438
-55.6315231323 13.0467271805 66.0631561279
-55.6327896118 13.0483036041 65.8751449585
-55.6330986023 13.0496740341 65.6870422363
-55.6276016235 13.0497827530 65.4983596802
-55.6126441956 13.0478391647 65.3087234497
-55.5875701904 13.0437011719 65.1180572510
-55.5555305481 13.0380516052 64.9266586304
-55.5225906372 13.0322074890 64.7351226807
-55.4955673218 13.0276470184 64.5441436768
-55.4802207947 13.0256195068 64.3543167114
-55.4806137085 13.0270090103 64.1660766602
-55.4991149902 13.0323257446 63.9797019958
-55.5361099243 13.0416545868 63.7952613831
-55.5897445679 13.0545930862 63.6126022339
-55.6563262939 13.0703401566 63.4313621521
-55.7312164307 13.0878896713 63.2510719299
-55.8092117310 13.1061115265 63.0712013245
-55.8843383789 13.1237106323 62.8911094666
-55.9503822327 13.1393394470 62.7101287842
-56.0025405884 13.1519546509 62.5277214050
-56.0390319824 13.1611709595 62.3436660767
-56.0611457825 13.1672687531 62.1580772400
-56.0720329285 13.1709318161 61.9712715149
-56.0756187439 13.1730108261 61.7836685181
-56.0763320923 13.1744670868 61.5957450867
-56.0792617798 13.1764030457 61.4080619812
-56.0899353027 13.1800193787 61.2212486267
-56.1132888794 13.1863861084 61.0358734131
-56.1521453857 13.1961145401 60.8522834778
-56.2063903809 13.2091789246 60.6704940796
-56.2731666565 13.2249622345 60.4902000427
-56.3472175598 13.2423219681 60.3108215332
-56.4210281372 13.2596292496 60.1315040588
-56.4862442017 13.2750730515 59.9512634277
-56.5364074707 13.2872505188 59.7693290710
-56.5686836243 13.2955493927 59.5853462219
-56.5834350586 13.3000478745 59.3993148804
-56.5827941895 13.3012084961 59.2114639282
-56.5694580078 13.2996158600 59.0220832825
-56.5457649231 13.2957792282 58.8314361572
-56.5132522583 13.2900285721 58.6396865845
-56.4726905823 13.2825336456 58.4469146729
-56.4243240356 13.2733469009 58.2531318665
-56.3682022095 13.2624788284 58.0583305359
-56.3049926758 13.2500753403 57.8625793457
-56.2366943359 13.2365684509 57.6661148071
-56.1663093567 13.2226104736 57.4692993164
-56.0966644287 13.2088136673 57.2724838257
-56.0290870667 13.1954641342 57.0758399963
-55.9628295898 13.1824035645 56.8792724609
-55.8960113525 13.1692209244 56.6825447083
-55.8275413513 13.1556797028 56.4855194092
-55.7582473755 13.1419620514 56.2882995605
-55.6901779175 13.1285104752 56.0911483765
-55.6253929138 13.1157703400 55.8943290710
-55.5658493042 13.1041679382 55.6981086731
-55.5136222839 13.0941514969 55.5027656555
-55.4697647095 13.0859498978 55.3084487915
-55.4327392578 13.0792293549 55.1149749756
-55.3987808228 13.0731744766 54.9218597412
-55.3642387390 13.0669927597 54.7286148071
-55.3274993896 13.0603361130 54.5350303650
-55.2891349792 13.0533275604 54.3411750793
-55.2510757446 13.0463838577 54.1473045349
-55.2157058716 13.0400247574 53.9537506104
-55.1850318909 13.0346832275 53.7607841492
-55.1600685120 13.0305805206 53.5685577393
-55.1411361694 13.0277843475 53.3771209717
-55.1285285950 13.0263595581 53.1865310669
-55.1226310730 13.0263881683 52.9968490601
-55.1232147217 13.0278215408 52.8080520630
-55.1289176941 13.0303649902 52.6199722290
-55.1371040344 13.0334463120 52.4322357178
-55.1437263489 13.0361890793 52.2442855835
-55.1437263489 13.0374965668 52.0554008484
-55.1328544617 13.0364475250 51.8649597168
-55.1099777222 13.0327978134 51.6727828979
-55.0778579712 13.0271453857 51.4792442322
-55.0420188904 13.0206880569 51.2851219177
-55.0090293884 13.0148487091 51.0913658142
-54.9849205017 13.0109329224 50.8988533020
-54.9737701416 13.0098257065 50.7081947327
-54.9766502380 13.0117578506 50.5195770264
-54.9912261963 13.0162239075 50.3326759338
-55.0123252869 13.0221042633 50.1467514038
-55.0337409973 13.0280513763 49.9608955383
-55.0505523682 13.0330018997 49.7743721008
-55.0604286194 13.0364494324 49.5868225098
-55.0633621216 13.0383930206 49.3982353210
-55.0606689453 13.0391178131 49.2088012695
-55.0543365479 13.0390548706 49.0188026428
-55.0468025208 13.0387306213 48.8286056519
-55.0409317017 13.0387678146 48.6386489868
-55.0398254395 13.0398368835 48.4494094849
-55.0461540222 13.0425157547 48.2613067627
-55.0607261658 13.0469808578 48.0744781494
-55.0808219910 13.0526418686 47.8885231018
-55.0998916626 13.0580806732 47.7024230957
-55.1097297668 13.0615196228 47.5148963928
-55.1040611267 13.0616006851 47.3249397278
-55.0813217163 13.0579843521 47.1322784424
-55.0454750061 13.0515298843 46.9375114441
-55.0047149658 13.0440120697 46.7419128418
-54.9684257507 13.0374612808 46.5469703674
-54.9438781738 13.0334548950 46.3538551331
-54.9346466064 13.0327653885 46.1631660461
-54.9407958984 13.0354070663 45.9749412537
-54.9595298767 13.0407733917 45.7887573242
-54.9855155945 13.0477094650 45.6037635803
-55.0114936829 13.0546445847 45.4188003540
-55.0299720764 13.0599546432 45.2326278687
-55.0359153748 13.0625514984 45.0444145203
-55.0288314819 13.0623264313 44.8540534973
-55.0123825073 13.0600748062 44.6621284485
-54.9918746948 13.0569438934 44.4694976807
-54.9717979431 13.0539064407 44.2769088745
-54.9550132751 13.0515823364 44.0848426819
-54.9430351257 13.0502986908 43.8935546875
-54.9366416931 13.0502243042 43.7031898499
-54.9364509583 13.0514936447 43.5138587952
-54.9430084229 13.0542240143 43.3256683350
-54.9560203552 13.0583505630 43.1385803223
-54.9736366272 13.0634746552 42.9522895813
-54.9928741455 13.0689487457 42.7662925720
-55.0109291077 13.0741682053 42.5801086426
-55.0259475708 13.0787286758 42.3934173584
-55.0368270874 13.0823936462 42.2060165405
-55.0431098938 13.0850639343 42.0178222656
-55.0453758240 13.0868644714 41.8289299011
-55.0454711914 13.0881948471 41.6396522522
-55.0459480286 13.0896091461 41.4504356384
-55.0490341187 13.0915861130 41.2616729736
-55.0558166504 13.0943651199 41.0735626221
-55.0659408569 13.0978660583 40.8860511780
-55.0777130127 13.1017246246 40.6988372803
-55.0886306763 13.1053981781 40.5114822388
-55.0960083008 13.1083049774 40.3234939575
-55.0973625183 13.1099081039 40.1344261169
-55.0905799866 13.1097507477 39.9438781738
-55.0740852356 13.1074905396 39.7515525818
-55.0474014282 13.1030263901 39.5573463440
-55.0120735168 13.0966920853 39.3615226746
-54.9721641541 13.0893669128 39.1648063660
-54.9333686829 13.0822820663 38.9682426453
-54.9012222290 13.0766372681 38.7728500366
-54.8798103333 13.0733156204 38.5793991089
-54.8714942932 13.0728273392 38.3883514404
-54.8767814636 13.0752830505 38.1998214722
-54.8938522339 13.0802888870 38.0134963989
-54.9181976318 13.0868682861 37.8285522461
-54.9431991577 13.0935888290 37.6437530518
-54.9618721008 13.0989408493 37.4577827454
-54.9693031311 13.1018590927 37.2696990967
-54.9647026062 13.1021757126 37.0793304443
-54.9519081116 13.1007194519 36.8873901367
-54.9375724792 13.0989294052 36.6951293945
-54.9280853271 13.0981884003 36.5037765503
-54.9272880554 13.0993280411 36.3140792847
-54.9362411499 13.1025772095 36.1262588501
-54.9543075562 13.1077966690 35.9402084351
-54.9801177979 13.1146917343 35.7556800842
-55.0117759705 13.1228523254 35.5723190308
-55.0467414856 13.1317272186 35.3896331787
-55.0817146301 13.1406040192 35.2069892883
-55.1125526428 13.1485853195 35.0235633850
-55.1345825195 13.1546621323 34.8384323120
-55.1436958313 13.1579446793 34.6507644653
-55.1377143860 13.1579627991 34.4601020813
-55.1174545288 13.1548919678 34.2665786743
-55.0869483948 13.1496047974 34.0709762573
-55.0521545410 13.1433916092 33.8744697571
-55.0186386108 13.1374549866 33.6781730652
-54.9900398254 13.1325817108 33.4828224182
-54.9683685303 13.1292076111 33.2888298035
-54.9550209045 13.1276330948 33.0964927673
-54.9508094788 13.1280355453 32.9059944153
-54.9551963806 13.1302957535 32.7172393799
-54.9659538269 13.1339349747 32.5297889709
-54.9796524048 13.1382102966 32.3429489136
-54.9921112061 13.1422166824 32.1558647156
-54.9988441467 13.1449851990 31.9676074982
-54.9961738586 13.1457204819 31.7774009705
-54.9827003479 13.1441192627 31.5849399567
-54.9600181580 13.1405277252 31.3905372620
-54.9323043823 13.1358480453 31.1950454712
-54.9053192139 13.1313276291 30.9996681213
-54.8848915100 13.1282234192 30.8056297302
-54.8749504089 13.1273870468 30.6137714386
-54.8763160706 13.1289958954 30.4242877960
-54.8868446350 13.1325855255 30.2367439270
-54.9025306702 13.1372909546 30.0503044128
-54.9185829163 13.1420736313 29.8639545441
-54.9302940369 13.1459188461 29.6766910553
-54.9339447021 13.1480216980 29.4877033234
-54.9276199341 13.1479682922 29.2965679169
-54.9117889404 13.1458587646 29.1033649445
-54.8897552490 13.1424093246 28.9087944031
-54.8678359985 13.1389856339 28.7142162323
-54.8542404175 13.1373596191 28.5214157104
-54.8558197021 13.1390161514 28.3319053650
-54.8743400574 13.1443328857 28.1460990906
-54.9051856995 13.1523141861 27.9630165100
-54.9396591187 13.1610794067 27.7807636261
-54.9687805176 13.1686878204 27.5973644257
-54.9859657288 13.1737155914 27.4113540649
-54.9875259399 13.1753664017 27.2218875885
-54.9720916748 13.1733436584 27.0286331177
-54.9404907227 13.1678276062 26.8317451477
-54.8963432312 13.1596012115 26.6320018768
-54.8461952209 13.1500778198 26.4308528900
-54.7981796265 13.1410150528 26.2301158905
-54.7595100403 13.1339731216 26.0314216614
-54.7342987061 13.1298408508 25.8357219696
-54.7230110168 13.1287155151 25.6431427002
-54.7236404419 13.1301670074 25.4532546997
-54.7332992554 13.1335697174 25.2654209137
-54.7486000061 13.1381912231 25.0788841248
-54.7648506165 13.1430177689 24.8925781250
-54.7757682800 13.1466922760 24.7050571442
-54.7752609253 13.1478977203 24.5149097443
-54.7604675293 13.1460170746 24.3214530945
-54.7336959839 13.1415472031 24.1251945496
-54.7022285461 13.1360645294 23.9278030396
-54.6762847900 13.1317749023 23.7316551208
-54.6656799316 13.1307992935 23.5390548706
-54.6764907837 13.1344509125 23.3514518738
-54.7096328735 13.1429262161 23.1691017151
-54.7611885071 13.1553802490 22.9911212921
-54.8231811523 13.1700887680 22.8156642914
-54.8850364685 13.1847667694 22.6402454376
-54.9366607666 13.1972341537 22.4624652863
-54.9715423584 13.2060842514 22.2807598114
-54.9875755310 13.2108621597 22.0945930481
-54.9857940674 13.2117919922 21.9041767120
-54.9691162109 13.2095050812 21.7101802826
-54.9422760010 13.2050228119 21.5137138367
-54.9118576050 13.1997671127 21.3163452148
-54.8852348328 13.1953325272 21.1198501587
-54.8685874939 13.1930522919 20.9257316589
-54.8654136658 13.1936826706 20.7348613739
-54.8758926392 13.1972618103 20.5473041534
-54.8967323303 13.2030773163 20.3622817993
-54.9215888977 13.2097625732 20.1782646179
-54.9427146912 13.2156400681 19.9933547974
-54.9531364441 13.2192068100 19.8058319092
-54.9482307434 13.2194633484 19.6145362854
-54.9264678955 13.2160787582 19.4190597534
-54.8898849487 13.2094936371 19.2198772430
-54.8439598083 13.2008924484 19.0183219910
-54.7962532043 13.1919069290 18.8162631989
-54.7541885376 13.1841402054 18.6155452728
-54.7230606079 13.1787347794 18.4175071716
-54.7051887512 13.1761932373 18.2227516174
-54.7002067566 13.1764335632 18.0312080383
-54.7058334351 13.1789655685 17.8423271179
-54.7186660767 13.1830539703 17.6552677155
-54.7349319458 13.1878824234 17.4690876007
-54.7513542175 13.1927452087 17.2829608917
-54.7657318115 13.1971664429 17.0963287354
-54.7766151428 13.2008333206 16.9088153839
-54.7823028564 13.2033786774 16.7199802399
-54.7808036804 13.2043714523 16.5293006897
-54.7717361450 13.2037305832 16.3366699219
-54.7585449219 13.2021999359 16.1429576874
-54.7482833862 13.2013025284 15.9499807358
-54.7490081787 13.2027759552 15.7598285675
-54.7668647766 13.2079486847 15.5741167068
-54.8041915894 13.2173233032 15.3934850693
-54.8585853577 13.2303829193 15.2173442841
-54.9234275818 13.2456960678 15.0439929962
-54.9899177551 13.2613649368 14.8711481094
-55.0497016907 13.2755861282 14.6966171265
-55.0965156555 13.2870073318 14.5187406540
-55.1266288757 13.2948226929 14.3365077972
-55.1388168335 13.2987699509 14.1495676041
-55.1345481873 13.2991647720 13.9582719803
-55.1175994873 13.2968225479 13.7635974884
-55.0926322937 13.2927503586 13.5667591095
-55.0637054443 13.2878236771 13.3688287735
-55.0341758728 13.2827672958 13.1706943512
-55.0071830750 13.2782583237 12.9731969833
-54.9853286743 13.2748594284 12.7770414352
-54.9697914124 13.2728233337 12.5825538635
-54.9602966309 13.2720918655 12.3896722794
-54.9558944702 13.2724590302 12.1981506348
-54.9550971985 13.2736043930 12.0075950623
-54.9554176331 13.2749910355 11.8173351288
-54.9536933899 13.2759361267 11.6265125275
-54.9476432800 13.2759475708 11.4345006943
-54.9373588562 13.2750463486 11.2413167953
-54.9255371094 13.2738132477 11.0476913452
-54.9164733887 13.2731752396 10.8548030853
-54.9144477844 13.2740564346 10.6638364792
-54.9221343994 13.2770328522 10.4755430222
-54.9394149780 13.2820787430 10.2899074554
-54.9629745483 13.2884798050 10.1060285568
-54.9869003296 13.2949590683 9.9222745895
-55.0044975281 13.3000726700 9.7367801666
-55.0107498169 13.3027391434 9.5481328964
-55.0040206909 13.3026056290 9.3558559418
-54.9858589172 13.3000049591 9.1603565216
-54.9590377808 13.2955369949 8.9623947144
-54.9257507324 13.2896747589 8.7625722885
-54.8878974915 13.2828273773 8.5614137650
-54.8493309021 13.2758264542 8.3600006104
-54.8170623779 13.2701854706 8.1603193283
-54.7991371155 13.2676372528 7.9646663666
-54.8003120422 13.2692098618 7.7744245529
-54.8191680908 13.2745962143 7.5892238617
-54.8487396240 13.2822933197 7.4071040154
-54.8797760010 13.2903060913 7.2254347801
-54.9041938782 13.2968912125 7.0418953896
-54.9168930054 13.3009490967 6.8550076485
-54.9160003662 13.3020744324 6.6642074585
-54.9024772644 13.3004770279 6.4697494507
-54.8798675537 13.2969207764 6.2726364136
-54.8538017273 13.2926177979 6.0744843483
-54.8305587769 13.2889242172 5.8771162033
-54.8151931763 13.2869300842 5.6820096970
-54.8104133606 13.2872190475 5.4899697304
-54.8168258667 13.2899217606 5.3011951447
-54.8338356018 13.2949085236 5.1155300140
-54.8600692749 13.3018856049 4.9325933456
-54.8931388855 13.3103351593 4.7516946793
-54.9293899536 13.3194713593 4.5717711449
-54.9645614624 13.3283748627 4.3915662766
-54.9948577881 13.3362255096 4.2099523544
-55.0177040100 13.3424701691 4.0261559486
-55.0323257446 13.3469419479 3.8399329185
-55.0403862000 13.3499984741 3.6517648697
-55.0461120605 13.3525524139 3.4629020691
-55.0553054810 13.3558530807 3.2750790119
-55.0735168457 13.3610982895 3.0899674892
-55.1039657593 13.3689813614 2.9085528851
-55.1461639404 13.3793983459 2.7307114601
-55.1963729858 13.3915405273 2.5553338528
-55.2496833801 13.4043512344 2.3809521198
-55.3019561768 13.4169387817 2.2063143253
-55.3503341675 13.4286842346 2.0305502415
-55.3931503296 13.4392318726 1.8531464338
-55.4298400879 13.4484596252 1.6739211082
-55.4602775574 13.4563379288 1.4928222895
-55.4836425781 13.4626913071 1.3095873594
-55.4984283447 13.4671964645 1.1237418652
-55.5042495728 13.4697685242 0.9351516962
-55.5039939880 13.4710311890 0.7446883321
-55.5041313171 13.4723777771 0.5543400049
-55.5121917725 13.4754333496 0.3664372563
-55.5324630737 13.4811201096 0.1823238879
-55.5629081726 13.4889984131 0.0013898581
-0.9548415542 59.7823905945 100.8449325562
-0.9565451741 59.7972259521 100.6605606079
-0.9585800767 59.8195533752 100.4761581421
-0.9607822299 59.8456649780 100.2917633057
-0.9629224539 59.8703765869 100.1074066162
-0.9647341967 59.8876686096 99.9230880737
-0.9660014510 59.8926429749 99.7388229370
-0.9666768312 59.8842277527 99.5545806885
-0.9669209123 59.8660583496 99.3703384399
-0.9670028090 59.8442115784 99.1860733032
-0.9671512842 59.8238677979 99.0017700195
-0.9674916267 59.8078651428 98.8174362183
-0.9680945277 59.7977943420 98.6330871582
-0.9690445662 59.7955818176 98.4487228394
-0.9704512954 59.8037033081 98.2643814087
-0.9724053144 59.8242111206 98.0800781250
-0.9749237299 59.8574981689 97.8958358765
-0.9779124856 59.9014358521 97.7116775513
-0.9811646938 59.9513473511 97.5275878906
-0.9844071269 60.0010414124 97.3435592651
-0.9873632789 60.0442619324 97.1595535278
-0.9897985458 60.0756950378 96.9755020142
-0.9915574789 60.0918121338 96.7913818359
-0.9926147461 60.0920410156 96.6071472168
-0.9931004047 60.0793190002 96.4227905273
-0.9932580590 60.0591659546 96.2383499146
-0.9933654070 60.0378684998 96.0538558960
-0.9936699867 60.0210342407 95.8693847656
-0.9943521023 60.0127525330 95.6849746704
-0.9955115318 60.0152854919 95.5006790161
-0.9971755743 60.0292510986 95.3165206909
-0.9993153811 60.0540008545 95.1325073242
-1.0018553734 60.0878257751 94.9486465454
-1.0046765804 60.1280250549 94.7649078369
-1.0076185465 60.1709709167 94.5812606812
-1.0104806423 60.2121124268 94.3976287842
-1.0130342245 60.2462654114 94.2139282227
-1.0150668621 60.2686080933 94.0300674438
-1.0164552927 60.2763481140 93.8459701538
-1.0172290802 60.2701492310 93.6616287231
-1.0175753832 60.2542533875 93.4770965576
-1.0177735090 60.2349929810 93.2924728394
-1.0180979967 60.2185935974 93.1078720093
-1.0187457800 60.2095260620 92.9233932495
-1.0198036432 60.2097587585 92.7390899658
-1.0212414265 60.2186126709 92.5549774170
-1.0229333639 60.2332305908 92.3709869385
-1.0247116089 60.2498130798 92.1870574951
-1.0264252424 60.2649269104 92.0031127930
-1.0279651880 60.2761001587 91.8190765381
-1.0292506218 60.2815017700 91.6349105835
-1.0302095413 60.2794876099 91.4505538940
-1.0307847261 60.2687606812 91.2659606934
-1.0309686661 60.2491531372 91.0811080933
-1.0308461189 60.2225761414 90.8960342407
-1.0306069851 60.1933479309 90.7108459473
-1.0305157900 60.1674766541 90.5257110596
-1.0308381319 60.1509933472 90.3408126831
-1.0317420959 60.1477127075 90.1562805176
-1.0332243443 60.1575698853 89.9721374512
-1.0351238251 60.1769027710 89.7882995605
-1.0372139215 60.2005691528 89.6046142578
-1.0392956734 60.2240524292 89.4209442139
-1.0412229300 60.2440223694 89.2371749878
-1.0428688526 60.2576065063 89.0532226563
-1.0441087484 60.2619590759 88.8689575195
-1.0448640585 60.2553024292 88.6843032837
-1.0451761484 60.2385711670 88.4992828369
-1.0452377796 60.2161407471 88.3140258789
-1.0453550816 60.1949691772 88.1287765503
-1.0458562374 60.1825256348 87.9438247681
-1.0469770432 60.1841621399 87.7593917847
-1.0487711430 60.2011108398 87.5755386353
-1.0511115789 60.2304878235 87.3921890259
-1.0537751913 60.2672157288 87.2091598511
-1.0565350056 60.3061370850 87.0262680054
-1.0592046976 60.3430137634 86.8433227539
-1.0616332293 60.3744087219 86.6601943970
-1.0636870861 60.3972854614 86.4767379761
-1.0652540922 60.4090881348 86.2928237915
-1.0662798882 60.4085807800 86.1083831787
-1.0667963028 60.3964767456 85.9234237671
-1.0669107437 60.3752212524 85.7380294800
-1.0667841434 60.3484764099 85.5523529053
-1.0666375160 60.3212738037 85.3666076660
-1.0667568445 60.3001174927 85.1811141968
-1.0674329996 60.2916336060 84.9961853027
-1.0688462257 60.2999267578 84.8120422363
-1.0709865093 60.3247756958 84.6287078857
-1.0736734867 60.3620758057 84.4460144043
-1.0766369104 60.4056739807 84.2636795044
-1.0795919895 60.4490928650 84.0813827515
-1.0822942257 60.4867553711 83.8988342285
-1.0845757723 60.5148429871 83.7158355713
-1.0863529444 60.5314407349 83.5322570801
-1.0876088142 60.5361709595 83.3480682373
-1.0883845091 60.5299568176 83.1632843018
-1.0887917280 60.5153465271 82.9780349731
-1.0890191793 60.4966392517 82.7925338745
-1.0892981291 60.4790954590 82.6070709229
-1.0898377895 60.4674949646 82.4219055176
-1.0907677412 60.4647865295 82.2372283936
-1.0921007395 60.4712600708 82.0530700684
-1.0937246084 60.4843711853 81.8693008423
-1.0954378843 60.4995155334 81.6856536865
-1.0970139503 60.5115356445 81.5018386841
-1.0982538462 60.5158920288 81.3175735474
-1.0990149975 60.5093307495 81.1326446533
-1.0992374420 60.4904823303 80.9469451904
-1.0989694595 60.4604454041 80.7605285645
-1.0983734131 60.4229164124 80.5735931396
-1.0976976156 60.3835639954 80.3864974976
-1.0972182751 60.3486862183 80.1996231079
-1.0971623659 60.3234634399 80.0133209229
-1.0976471901 60.3105735779 79.8277816772
-1.0986700058 60.3099517822 79.6430282593
-1.1001363993 60.3194541931 79.4589385986
-1.1018886566 60.3354835510 79.2752838135
-1.1037268639 60.3534736633 79.0917816162
-1.1054477692 60.3687896729 78.9081115723
-1.1068942547 60.3778457642 78.7240219116
-1.1079789400 60.3786392212 78.5393676758
-1.1086683273 60.3704071045 78.3540725708
-1.1089613438 60.3531188965 78.1681213379
-1.1088936329 60.3275947571 77.9815521240
-1.1085612774 60.2960243225 77.7945098877
-1.1081249714 60.2620658875 77.6072463989
-1.1077722311 60.2300148010 77.4200820923
-1.1076674461 60.2036209106 77.2332763672
-1.1079185009 60.1853523254 77.0470428467
-1.1085619926 60.1760406494 76.8614501953
-1.1095477343 60.1745529175 76.6764297485
-1.1107350588 60.1776657104 76.4917602539
-1.1119158268 60.1806297302 76.3070678711
-1.1128678322 60.1783638000 76.1219711304
-1.1134247780 60.1670684814 75.9361495972
-1.1135413647 60.1457061768 75.7495269775
-1.1133264303 60.1167602539 75.5622558594
-1.1130237579 60.0858039856 75.3747863770
-1.1129251719 60.0595016479 75.1876525879
-1.1132552624 60.0430030823 75.0012664795
-1.1141083241 60.0384559631 74.8158416748
-1.1154679060 60.0454940796 74.6313552856
-1.1172603369 60.0624275208 74.4476928711
-1.1193786860 60.0868186951 74.2646789551
-1.1216851473 60.1155166626 74.0820465088
-1.1240273714 60.1450386047 73.8995132446
-1.1262758970 60.1724205017 73.7168273926
-1.1283490658 60.1957931519 73.5338211060
-1.1302065849 60.2142295837 73.3504104614
-1.1318295002 60.2273063660 73.1665496826
-1.1332118511 60.2348747253 72.9822082520
-1.1343671083 60.2372474670 72.7974090576
-1.1353417635 60.2354850769 72.6122360229
-1.1362214088 60.2315483093 72.4268646240
-1.1371238232 60.2281303406 72.2415161133
-1.1381783485 60.2281951904 72.0564804077
-1.1394956112 60.2342720032 71.8719940186
-1.1411323547 60.2476654053 71.6881866455
-1.1430633068 60.2677993774 71.5050125122
-1.1451773643 60.2921257019 71.3222579956
-1.1473027468 60.3167190552 71.1395492554
-1.1492536068 60.3373146057 70.9564819336
-1.1508811712 60.3505058289 70.7727279663
-1.1521117687 60.3546066284 70.5881042480
-1.1529613733 60.3499755859 70.4026336670
-1.1535266638 60.3388328552 70.2165145874
-1.1539629698 60.3247261047 70.0300827026
-1.1544526815 60.3118438721 69.8437500000
-1.1551650763 60.3040618896 69.6578979492
-1.1562170982 60.3040618896 69.4728088379
-1.1576492786 60.3127746582 69.2885971069
-1.1594226360 60.3293075562 69.1051788330
-1.1614328623 60.3512763977 68.9223327637
