0.0841838196 -40.8795127869 30.6699371338
0.0901552215 -41.0193634033 30.4991645813
0.0954757631 -41.1443138123 30.3255825043
0.1002026647 -41.2556762695 30.1494235992
0.1044363901 -41.3557434082 29.9711265564
0.1084066629 -41.4497833252 29.7917270660
0.1125275493 -41.5472679138 29.6131286621
0.1173013970 -41.6596946716 29.4376621246
0.1231565997 -41.7968711853 29.2673454285
0.1303596199 -41.9648895264 29.1034641266
0.1390329450 -42.1665611267 28.9466495514
0.1491590887 -42.4014778137 28.7968788147
0.1604607254 -42.6632957458 28.6529064178
0.1722965240 -42.9373359680 28.5117607117
0.1838137805 -43.2040748596 28.3694286346
0.1942875236 -43.4469299316 28.2224597931
0.2033557892 -43.6576156616 28.0690898895
0.2110379189 -43.8365707397 27.9093532562
0.2176172286 -43.9902877808 27.7445449829
0.2234571278 -44.1270751953 27.5763683319
0.2288357019 -44.2533073425 27.4061260223
0.2339141667 -44.3726654053 27.2345790863
0.2388292700 -44.4882850647 27.0623760223
0.2437544614 -44.6041297913 26.8903522491
0.2488718927 -44.7243766785 26.7193946838
0.2543491125 -44.8528518677 26.5503292084
0.2603411674 -44.9931068420 26.3839282990
0.2669138312 -45.1466445923 26.2205371857
0.2738974690 -45.3095855713 26.0593452454
0.2808559835 -45.4719505310 25.8982162476
0.2872695029 -45.6218376160 25.7345752716
0.2927896678 -45.7512817383 25.5666732788
0.2973566353 -45.8589096069 25.3941745758
0.3010964096 -45.9476089478 25.2176685333
0.3041433990 -46.0204544067 25.0377922058
0.3066163063 -46.0801620483 24.8551139832
0.3087783456 -46.1327552795 24.6709346771
0.3111549914 -46.1902580261 24.4878921509
0.3144147396 -46.2679672241 24.3093795776
0.3190478086 -46.3770980835 24.1379165649
0.3250607550 -46.5177993774 23.9735984802
0.3319322467 -46.6781425476 23.8138179779
0.3388930857 -46.8405265808 23.6546802521
0.3453041613 -46.9903297424 23.4929103851
0.3508372307 -47.1200408936 23.3267955780
0.3554034531 -47.2276268005 23.1558437347
0.3590090871 -47.3132362366 22.9800453186
0.3616879284 -47.3776359558 22.7995376587
0.3635248542 -47.4227752686 22.6147232056
0.3647087216 -47.4529685974 22.4265499115
0.3655518889 -47.4753684998 22.2366237640
0.3664492369 -47.4990081787 22.0469989777
0.3677925467 -47.5328521729 21.8597373962
0.3698584735 -47.5832252502 21.6763114929
0.3727166057 -47.6517257690 21.4971218109
0.3762314022 -47.7352447510 21.3214836121
0.3801647127 -47.8283348083 21.1481571198
0.3842976391 -47.9259910583 20.9759960175
0.3885119855 -48.0255088806 20.8043785095
0.3928110898 -48.1269645691 20.6333255768
0.3972418010 -48.2314300537 20.4630908966
0.4017481208 -48.3376235962 20.2933807373
0.4060979784 -48.4402313232 20.1229457855
0.4099575281 -48.5316238403 19.9499759674
0.4130497277 -48.6054611206 19.7729511261
0.4153064489 -48.6601867676 19.5914649963
0.4169446826 -48.7007637024 19.4066696167
0.4184096158 -48.7373733521 19.2209663391
0.4202123582 -48.7817077637 19.0371494293
0.4227553308 -48.8429794312 18.8574371338
0.4262102842 -48.9251060486 18.6828079224
0.4304695427 -49.0256309509 18.5127029419
0.4351846278 -49.1365814209 18.3452320099
0.4398825169 -49.2471351624 18.1777915955
0.4440995455 -49.3466911316 18.0078029633
0.4474842846 -49.4272041321 17.8332881927
0.4498761594 -49.4850082397 17.6533184052
0.4513522983 -49.5218658447 17.4682826996
0.4522049725 -49.5444602966 17.2797851563
0.4528530240 -49.5623741150 17.0901527405
0.4537294209 -49.5855140686 16.9018211365
0.4551668167 -49.6214828491 16.7166805267
0.4573110342 -49.6736183167 16.5355796814
0.4601156712 -49.7408561707 16.3582839966
0.4634279907 -49.8197059631 16.1839523315
0.4670981169 -49.9067344666 16.0117492676
0.4710380435 -49.9999351501 15.8411865234
0.4752012789 -50.0982398987 15.6720085144
0.4795009494 -50.1996650696 15.5037240982
0.4837378263 -50.2996520996 15.3351917267
0.4876197278 -50.3915176392 15.1647195816
0.4908649027 -50.4688186646 14.9906625748
0.4933005869 -50.5276069641 14.8119907379
0.4949044883 -50.5673713684 14.6285400391
0.4957975447 -50.5908813477 14.4409828186
0.4961976111 -50.6031150818 14.2505626678
0.4963492751 -50.6096687317 14.0586919785
0.4964708686 -50.6155319214 13.8666439056
0.4967485070 -50.6249656677 13.6755132675
0.4973543882 -50.6419067383 13.4863214493
0.4984396696 -50.6698112488 13.2999773026
0.5000897050 -50.7106246948 13.1170072556
0.5022850633 -50.7639122009 12.9373178482
0.5048956871 -50.8266944885 12.7601585388
0.5076779723 -50.8934020996 12.5840902328
0.5102829933 -50.9560508728 12.4070329666
0.5123531818 -51.0064697266 12.2268342972
0.5136908293 -51.0401420593 12.0422840118
0.5143420696 -51.0581130981 11.8536272049
0.5145235658 -51.0653457642 11.6621475220
0.5144969225 -51.0678176880 11.4694061279
0.5145053267 -51.0710906982 11.2768716812
0.5147759914 -51.0803642273 11.0859279633
0.5155347586 -51.1007957458 10.8979616165
0.5169963837 -51.1372947693 10.7143039703
0.5193055868 -51.1931762695 10.5358724594
0.5224434733 -51.2680015564 10.3625841141
0.5261856914 -51.3566474915 10.1930952072
0.5301765203 -51.4509696960 10.0252361298
0.5340355039 -51.5422782898 9.8566675186
0.5374000072 -51.6222839355 9.6851396561
0.5399630666 -51.6839599609 9.5087251663
0.5415741801 -51.7238731384 9.3264551163
0.5423109531 -51.7437934875 9.1387739182
0.5424406528 -51.7498359680 8.9473152161
0.5423358083 -51.7505149841 8.7543869019
0.5424307585 -51.7557640076 8.5627040863
0.5431947708 -51.7763061523 8.3752250671
0.5450435877 -51.8216476440 8.1946001053
0.5481740236 -51.8962936401 8.0221176147
0.5524272919 -51.9966049194 7.8568234444
0.5573080778 -52.1112556458 7.6956229210
0.5621643662 -52.2253494263 7.5343966484
0.5664111972 -52.3255081177 7.3694152832
0.5696872473 -52.4034729004 7.1983475685
0.5719076991 -52.4573020935 7.0206098557
0.5732292533 -52.4905853271 6.8371629715
0.5739614964 -52.5103950500 6.6499605179
0.5744485855 -52.5246009827 6.4611930847
0.5749484301 -52.5390968323 6.2725167274
0.5755670071 -52.5563087463 6.0846166611
0.5762915611 -52.5759429932 5.8974161148
0.5770894885 -52.5972518921 5.7107062340
0.5779803991 -52.6206855774 5.5246191025
0.5790514350 -52.6482391357 5.3397264481
0.5804369450 -52.6829795837 5.1569137573
0.5822473764 -52.7274322510 4.9769186974
0.5844346881 -52.7804985046 4.7994432449
0.5867062807 -52.8354911804 4.6225767136
0.5886321664 -52.8825798035 4.4434890747
0.5898761749 -52.9140815735 4.2599439621
0.5903123021 -52.9271163940 4.0710792542
0.5899368525 -52.9216041565 3.8768365383
0.5887354612 -52.8972167969 3.6770873070
0.5866846442 -52.8534088135 3.4716396332
0.5838990808 -52.7928123474 3.2612247467
0.5807837248 -52.7246818542 3.0485212803
0.5780373216 -52.6649818420 2.8381996155
0.5764831901 -52.6325340271 2.6358063221
0.5768072605 -52.6430130005 2.4460084438
0.5792976022 -52.7030029297 2.2708265781
0.5837027431 -52.8067512512 2.1086513996
0.5893369913 -52.9385871887 1.9549181461
0.5953983665 -53.0801811218 1.8042343855
0.6012635231 -53.2172889709 1.6523786783
0.6065699458 -53.3416290283 1.4968727827
0.6111324430 -53.4489593506 1.3364284039
0.6148614287 -53.5372467041 1.1704019308
0.6177391410 -53.6060752869 0.9986369610
0.6197998524 -53.6562271118 0.8213332295
0.6211034060 -53.6890830994 0.6388691664
0.6217344403 -53.7065658569 0.4517974257
0.6218026876 -53.7111892700 0.2608476877
0.6214167476 -53.7054328918 0.0667495430
-61.4297637939 -1.6906439066 78.5949325562
-61.4412307739 -1.6919194460 78.4125442505
-61.4562225342 -1.6933068037 78.2304077148
-61.4693756104 -1.6946357489 78.0481491089
-61.4750328064 -1.6957265139 77.8653793335
-61.4691123962 -1.6964496374 77.6817932129
-61.4503021240 -1.6967635155 77.4972686768
-61.4209022522 -1.6967412233 77.3119506836
-61.3861579895 -1.6965495348 77.1262054443
-61.3507232666 -1.6963361502 76.9403533936
-61.3158226013 -1.6961399317 76.7544937134
-61.2815170288 -1.6959629059 76.5686264038
-61.2508850098 -1.6959027052 76.3829803467
-61.2300109863 -1.6961524487 76.1980285645
-61.2241706848 -1.6968792677 76.0141906738
-61.2347717285 -1.6981281042 75.8315963745
-61.2589187622 -1.6998064518 75.6500625610
-61.2910499573 -1.7017379999 75.4691696167
-61.3254432678 -1.7037411928 75.2884826660
-61.3574256897 -1.7056677341 75.1076507568
-61.3831901550 -1.7073968649 74.9263458252
-61.4002227783 -1.7088490725 74.7443618774
-61.4083862305 -1.7100199461 74.5616760254
-61.4096565247 -1.7109723091 74.3784179688
-61.4064407349 -1.7117824554 74.1947937012
-61.3999671936 -1.7124893665 74.0108795166
-61.3894348145 -1.7130677700 73.8266143799
-61.3722419739 -1.7134351730 73.6417694092
-61.3462028503 -1.7135224342 73.4561386108
-61.3133659363 -1.7133944035 73.2698822021
-61.2814826965 -1.7132970095 73.0836639404
-61.2599449158 -1.7135273218 72.8983001709
-61.2534942627 -1.7142359018 72.7142105103
-61.2601051331 -1.7153582573 72.5312652588
-61.2733993530 -1.7166923285 72.3489074707
-61.2853164673 -1.7179826498 72.1664352417
-61.2867469788 -1.7189408541 71.9830322266
-61.2676467896 -1.7192491293 71.7977600098
-61.2198867798 -1.7186502218 71.6098403931
-61.1439819336 -1.7171608210 71.4192657471
-61.0538940430 -1.7152229548 71.2272796631
-60.9716949463 -1.7135354280 71.0359115601
-60.9142799377 -1.7126326561 70.8467483521
-60.8846549988 -1.7126096487 70.6601333618
-60.8746986389 -1.7132090330 70.4753341675
-60.8734588623 -1.7140845060 70.2913513184
-60.8728561401 -1.7149801254 70.1074218750
-60.8688201904 -1.7157670259 69.9231491089
-60.8601493835 -1.7164075375 69.7384109497
-60.8471336365 -1.7169107199 69.5532302856
-60.8301849365 -1.7172896862 69.3676376343
-60.8082885742 -1.7175123692 69.1815261841
-60.7772941589 -1.7174476385 68.9944610596
-60.7299461365 -1.7168661356 68.8057098389
-60.6608085632 -1.7155961990 68.6146850586
-60.5756721497 -1.7138211727 68.4219436646
-60.4963264465 -1.7122296095 68.2296676636
-60.4503059387 -1.7116916180 68.0407333374
-60.4497489929 -1.7125905752 67.8564376831
-60.4788818359 -1.7144273520 67.6752395630
-60.5048332214 -1.7161635160 67.4937286377
-60.5042953491 -1.7170629501 67.3094558716
-60.4818229675 -1.7172696590 67.1228332520
-60.4631233215 -1.7175955772 66.9365844727
-60.4727020264 -1.7188147306 66.7533416748
-60.5190811157 -1.7211956978 66.5740814209
-60.5960693359 -1.7245427370 66.3982009888
-60.6893272400 -1.7284029722 66.2241821289
-60.7798080444 -1.7321751118 66.0499725342
-60.8489227295 -1.7352722883 65.8735046387
-60.8874435425 -1.7374035120 65.6937103271
-60.8997726440 -1.7387082577 65.5110244751
-60.8983001709 -1.7395772934 65.3267974854
-60.8941459656 -1.7403618097 65.1422500610
-60.8922462463 -1.7412176132 64.9579544067
-60.8913269043 -1.7421042919 64.7737579346
-60.8854141235 -1.7428336143 64.5889739990
-60.8662223816 -1.7431442738 64.4026489258
-60.8277091980 -1.7428456545 64.2140350342
-60.7714233398 -1.7419871092 64.0232925415
-60.7074089050 -1.7408851385 63.8315658569
-60.6480522156 -1.7399306297 63.6403007507
-60.5998725891 -1.7393287420 63.4502792358
-60.5607490540 -1.7390125990 63.2612686157
-60.5242729187 -1.7387801409 63.0725212097
-60.4865303040 -1.7385081053 62.8835678101
-60.4493598938 -1.7382544279 62.6946258545
-60.4179153442 -1.7381812334 62.5063285828
-60.3956794739 -1.7383985519 62.3191108704
-60.3823165894 -1.7388954163 62.1329536438
-60.3750877380 -1.7395856380 61.9475250244
-60.3699989319 -1.7403433323 61.7623519897
-60.3608779907 -1.7409741879 61.5766563416
-60.3394241333 -1.7412167788 61.3893928528
-60.2985610962 -1.7408485413 61.1996421814
-60.2367897034 -1.7398222685 61.0071830750
-60.1606788635 -1.7383451462 60.8128051758
-60.0841636658 -1.7368557453 60.6182746887
-60.0228652954 -1.7358458042 60.4256019592
-59.9850463867 -1.7355750799 60.2358779907
-59.9674644470 -1.7359414101 60.0487327576
-59.9606246948 -1.7366459370 59.8629608154
-59.9568328857 -1.7374463081 59.6775703430
-59.9531250000 -1.7382494211 59.4921798706
-59.9493293762 -1.7390499115 59.3067665100
-59.9458656311 -1.7398607731 59.1213836670
-59.9430923462 -1.7406934500 58.9360771179
-59.9415321350 -1.7415642738 58.7509269714
-59.9420356750 -1.7425001860 58.5660438538
-59.9456901550 -1.7435351610 58.3815803528
-59.9536018372 -1.7447038889 58.1976966858
-59.9666748047 -1.7460348606 58.0145187378
-59.9853858948 -1.7475429773 57.8321228027
-60.0095329285 -1.7492218018 57.6504974365
-60.0378875732 -1.7510328293 57.4694747925
-60.0678634644 -1.7528945208 57.2887077332
-60.0954971313 -1.7546825409 57.1076431274
-60.1161956787 -1.7562526464 56.9256286621
-60.1262321472 -1.7574876547 56.7421226501
-60.1241645813 -1.7583426237 56.5569076538
-60.1114120483 -1.7588621378 56.3701553345
-60.0916824341 -1.7591626644 56.1823844910
-60.0696792603 -1.7593919039 55.9942474365
-60.0496139526 -1.7596820593 55.8063583374
-60.0341758728 -1.7601177692 55.6191062927
-60.0243339539 -1.7607293129 55.4326438904
-60.0197525024 -1.7615060806 55.2469291687
-60.0193061829 -1.7624125481 55.0618095398
-60.0213241577 -1.7633963823 54.8770446777
-60.0233955383 -1.7643818855 54.6922836304
-60.0215835571 -1.7652456760 54.5069389343
-60.0096855164 -1.7657930851 54.3200721741
-59.9800643921 -1.7657848597 54.1305274963
-59.9270744324 -1.7650438547 53.9374122620
-59.8512229919 -1.7635862827 53.7407646179
-59.7609710693 -1.7616778612 53.5418243408
-59.6710205078 -1.7597793341 53.3428077698
-59.5977897644 -1.7584055662 53.1462326050
-59.5527610779 -1.7579164505 52.9538955688
-59.5365219116 -1.7583299875 52.7659454346
-59.5391502380 -1.7593348026 52.5808906555
-59.5477638245 -1.7605272532 52.3967628479
-59.5541877747 -1.7616512775 52.2122955322
-59.5563812256 -1.7626425028 52.0271644592
-59.5553283691 -1.7635321617 51.8415184021
-59.5522766113 -1.7643592358 51.6555442810
-59.5479469299 -1.7651463747 51.4693565369
-59.5427513123 -1.7659064531 51.2830162048
-59.5370178223 -1.7666497231 51.0965728760
-59.5310897827 -1.7673870325 50.9100875854
-59.5254211426 -1.7681325674 50.7236251831
-59.5206069946 -1.7689048052 50.5372886658
-59.5173072815 -1.7697246075 50.3511848450
-59.5160522461 -1.7706084251 50.1653976440
-59.5169639587 -1.7715601921 49.9799613953
-59.5195579529 -1.7725645304 49.7947921753
-59.5222587585 -1.7735722065 49.6096382141
-59.5213279724 -1.7744663954 49.4238739014
-59.5090293884 -1.7750049829 49.2362136841
-59.4732513428 -1.7748092413 49.0446052551
-59.4027709961 -1.7735282183 48.8471221924
-59.2984352112 -1.7711890936 48.6438484192
-59.1807441711 -1.7684329748 48.4381752014
-59.0831527710 -1.7663060427 48.2357559204
-59.0351066589 -1.7657288313 48.0416412354
-59.0490226746 -1.7670890093 47.8580398560
-59.1169471741 -1.7701373100 47.6837043762
-59.2140426636 -1.7740969658 47.5144691467
-59.3082466125 -1.7779656649 47.3448486328
-59.3738136292 -1.7809391022 47.1703758240
-59.3997497559 -1.7826735973 46.9890823364
-59.3880615234 -1.7832326889 46.8012428284
-59.3475723267 -1.7828921080 46.6083374023
-59.2900009155 -1.7820183039 46.4123649597
-59.2280654907 -1.7810084820 46.2155456543
-59.1725730896 -1.7802003622 46.0197792053
-59.1291313171 -1.7797688246 45.8260765076
-59.0977020264 -1.7797129154 45.6344528198
-59.0754776001 -1.7799444199 45.4444313049
-59.0599975586 -1.7803866863 45.2555847168
-59.0501403809 -1.7810045481 45.0677261353
-59.0453796387 -1.7817816734 44.8807640076
-59.0448150635 -1.7826899290 44.6945533752
-59.0468330383 -1.7836786509 44.5088043213
-59.0491905212 -1.7846781015 44.3231086731
-59.0491294861 -1.7856020927 44.1369667053
-59.0432281494 -1.7863438129 43.9497413635
-59.0275115967 -1.7867796421 43.7606887817
-58.9989318848 -1.7868142128 43.5692253113
-58.9578132629 -1.7864580154 43.3753852844
-58.9081420898 -1.7858355045 43.1798896790
-58.8533515930 -1.7850536108 42.9833679199
-58.7919845581 -1.7840671539 42.7855300903
-58.7204666138 -1.7827645540 42.5856971741
-58.6414260864 -1.7812281847 42.3843421936
-58.5669517517 -1.7798345089 42.1837463379
-58.5118637085 -1.7790455818 41.9867401123
-58.4844894409 -1.7791204453 41.7949485779
-58.4829711914 -1.7800014019 41.6080627441
-58.4965171814 -1.7813515663 41.4240684509
-58.5085563660 -1.7826548815 41.2397880554
-58.5034294128 -1.7834234238 41.0521965027
-58.4758529663 -1.7834926844 40.8602294922
-58.4357872009 -1.7831733227 40.6657905579
-58.4025192261 -1.7830659151 40.4726219177
-58.3919754028 -1.7836663723 40.2838554382
-58.4073448181 -1.7850736380 40.1001625061
-58.4389572144 -1.7869864702 39.9196853638
-58.4717636108 -1.7889363766 39.7394752502
-58.4934425354 -1.7905397415 39.5570907593
-58.4967842102 -1.7915723324 39.3710708618
-58.4767913818 -1.7918788195 39.1803894043
-58.4283714294 -1.7913010120 38.9839744568
-58.3489341736 -1.7897585630 38.7812576294
-58.2439079285 -1.7874205112 38.5732727051
-58.1290893555 -1.7847787142 38.3631668091
-58.0254478455 -1.7824852467 38.1551742554
-57.9488945007 -1.7810349464 37.9525604248
-57.9032211304 -1.7805453539 37.7561416626
-57.8815002441 -1.7808008194 37.5645675659
-57.8729019165 -1.7814644575 37.3756484985
-57.8683471680 -1.7822537422 37.1875495911
-57.8622894287 -1.7829965353 36.9991226196
-57.8519134521 -1.7836052179 36.8097839355
-57.8354835510 -1.7840257883 36.6191673279
-57.8103256226 -1.7841753960 36.4267005920
-57.7712020874 -1.7838912010 36.2312698364
-57.7113990784 -1.7829648256 36.0314445496
-57.6285972595 -1.7813243866 35.8266944885
-57.5321731567 -1.7792613506 35.6189575195
-57.4433250427 -1.7774344683 35.4126968384
-57.3839149475 -1.7765221596 35.2125625610
-57.3621788025 -1.7767802477 35.0203742981
-57.3685264587 -1.7779104710 34.8341445923
-57.3845367432 -1.7793405056 34.6499862671
-57.3952980042 -1.7806077003 34.4647178650
-57.3946380615 -1.7815203667 34.2769851685
-57.3828239441 -1.7820867300 34.0868377686
-57.3631668091 -1.7824100256 33.8949661255
-57.3406066895 -1.7826433182 33.7024307251
-57.3205413818 -1.7829542160 33.5104026794
-57.3067779541 -1.7834607363 33.3197174072
-57.2997512817 -1.7841763496 33.1304855347
-57.2962646484 -1.7850018740 32.9420166016
-57.2907295227 -1.7857639790 32.7530784607
-57.2775154114 -1.7862880230 32.5624313354
-57.2528114319 -1.7864558697 32.3692092896
-57.2148017883 -1.7862113714 32.1729888916
-57.1637611389 -1.7855632305 31.9738044739
-57.1037063599 -1.7846359015 31.7725296021
-57.0428123474 -1.7836830616 31.5709838867
-56.9895324707 -1.7829666138 31.3710651398
-56.9469795227 -1.7825829983 31.1734924316
-56.9115715027 -1.7824209929 30.9774742126
-56.8774642944 -1.7822996378 30.7816982269
-56.8423233032 -1.7821465731 30.5856361389
-56.8095016479 -1.7820655107 30.3900489807
-56.7861480713 -1.7822780609 30.1965789795
-56.7794418335 -1.7830061913 30.0068893433
-56.7921676636 -1.7843363285 29.8216552734
-56.8193740845 -1.7861145735 29.6397666931
-56.8500595093 -1.7880005836 29.4587097168
-56.8738250732 -1.7896722555 29.2760791779
-56.8855857849 -1.7909721136 29.0906772614
-56.8840713501 -1.7918610573 28.9021873474
-56.8675575256 -1.7922859192 28.7101821899
-56.8324546814 -1.7921355963 28.5137882233
-56.7762794495 -1.7913335562 28.3123874664
-56.7017517090 -1.7899640799 28.1065826416
-56.6176605225 -1.7882993221 27.8984146118
-56.5348281860 -1.7866740227 27.6904315948
-56.4602203369 -1.7853037119 27.4842891693
-56.3946418762 -1.7842130661 27.2801952362
-56.3365783691 -1.7833552361 27.0778064728
-56.2880744934 -1.7827935219 26.8776264191
-56.2554626465 -1.7827234268 26.6811904907
-56.2437705994 -1.7833002806 26.4897422791
-56.2507972717 -1.7844558954 26.3027896881
-56.2662086487 -1.7858706713 26.1178684235
-56.2756385803 -1.7871004343 25.9315052032
-56.2657356262 -1.7877328396 25.7404441833
-56.2276954651 -1.7874959707 25.5424976349
-56.1604843140 -1.7863581181 25.3373622894
-56.0737495422 -1.7846176624 25.1273460388
-55.9856567383 -1.7828358412 24.9168796539
-55.9136199951 -1.7815504074 24.7102489471
-55.8651504517 -1.7809933424 24.5093421936
-55.8369903564 -1.7810637951 24.3133964539
-55.8211631775 -1.7815151215 24.1204700470
-55.8107070923 -1.7821326256 23.9288539886
-55.8013763428 -1.7827848196 23.7374954224
-55.7905540466 -1.7833912373 23.5457458496
-55.7755622864 -1.7838687897 23.3529262543
-55.7527923584 -1.7841067314 23.1581249237
-55.7191047668 -1.7840079069 22.9605331421
-55.6752243042 -1.7835947275 22.7603130341
-55.6275634766 -1.7830653191 22.5590724945
-55.5846786499 -1.7826834917 22.3589763641
-55.5503883362 -1.7825672626 22.1610069275
-55.5205535889 -1.7825886011 21.9641227722
-55.4870033264 -1.7824954987 21.7662429810
-55.4450302124 -1.7821429968 21.5661506653
-55.3976058960 -1.7816226482 21.3645954132
-55.3526077271 -1.7811776400 21.1635971069
-55.3163681030 -1.7810027599 20.9647979736
-55.2900772095 -1.7811348438 20.7685203552
-55.2712631226 -1.7814975977 20.5741443634
-55.2569618225 -1.7819994688 20.3809108734
-55.2452354431 -1.7825810909 20.1883239746
-55.2351226807 -1.7832121849 19.9961357117
-55.2261314392 -1.7838780880 19.8042201996
-55.2179870605 -1.7845703363 19.6125087738
-55.2104873657 -1.7852823734 19.4209461212
-55.2032775879 -1.7860034704 19.2294445038
-55.1953163147 -1.7867014408 19.0377254486
-55.1838455200 -1.7872914076 18.8450584412
-55.1632385254 -1.7876003981 18.6499366760
-55.1255302429 -1.7873828411 18.4502201080
-55.0648498535 -1.7864586115 18.2443065643
-54.9843368530 -1.7849243879 18.0329952240
-54.8983993530 -1.7832237482 17.8201160431
-54.8252563477 -1.7819174528 17.6105651855
-54.7755470276 -1.7813324928 17.4072360992
-54.7479972839 -1.7814298868 17.2098293304
-54.7343826294 -1.7819559574 17.0161552429
-54.7264175415 -1.7826561928 16.8239936829
-54.7188491821 -1.7833685875 16.6319217682
-54.7091674805 -1.7840160131 16.4392528534
-54.6965026855 -1.7845718861 16.2457485199
-54.6808166504 -1.7850348949 16.0513916016
-54.6623306274 -1.7854121923 15.8562364578
-54.6416130066 -1.7857208252 15.6604347229
-54.6208267212 -1.7860275507 15.4645795822
-54.6048164368 -1.7864812613 15.2700109482
-54.5985336304 -1.7872340679 15.0781135559
-54.6009330750 -1.7882537842 14.8886137009
-54.6019134521 -1.7892299891 14.6987142563
-54.5876502991 -1.7897377014 14.5045480728
-54.5496864319 -1.7895176411 14.3037204742
-54.4889869690 -1.7885993719 14.0964574814
-54.4128341675 -1.7872071266 13.8847627640
-54.3303604126 -1.7856211662 13.6711826324
-54.2509460449 -1.7841297388 13.4583539963
-54.1832771301 -1.7829993963 13.2487411499
-54.1327171326 -1.7823948860 13.0438890457
-54.0994529724 -1.7823215723 12.8438844681
-54.0793914795 -1.7826538086 12.6475925446
-54.0660743713 -1.7831931114 12.4531927109
-54.0516548157 -1.7836987972 12.2584524155
-54.0280418396 -1.7839225531 12.0610475540
-53.9895210266 -1.7836890221 11.8593177795
-53.9354476929 -1.7829787731 11.6530494690
-53.8701591492 -1.7819248438 11.4434633255
-53.8000450134 -1.7807233334 11.2323904037
-53.7315368652 -1.7795714140 11.0216856003
-53.6714668274 -1.7786788940 10.8133392334
-53.6267127991 -1.7782564163 10.6093711853
-53.6012763977 -1.7784265280 10.4109792709
-53.5939712524 -1.7791525126 10.2178516388
-53.5993881226 -1.7802686691 10.0284376144
-53.6106987000 -1.7815655470 9.8407545090
-53.6218032837 -1.7828558683 9.6530151367
-53.6283721924 -1.7840073109 9.4639453888
-53.6284103394 -1.7849586010 9.2729415894
-53.6222190857 -1.7857192755 9.0800848007
-53.6115989685 -1.7863441706 8.8858957291
-53.5983009338 -1.7868870497 8.6908864975
-53.5824546814 -1.7873522043 8.4950923920
-53.5620079041 -1.7876764536 8.2978944778
-53.5345535278 -1.7877864838 8.0985631943
-53.5014610291 -1.7877240181 7.8974952698
-53.4707260132 -1.7877339125 7.6970863342
-53.4543571472 -1.7881839275 7.5009627342
-53.4609642029 -1.7893372774 7.3117513657
-53.4895286560 -1.7911626101 7.1291875839
-53.5297088623 -1.7933433056 6.9501771927
-53.5684700012 -1.7954803705 6.7707767487
-53.5974884033 -1.7973191738 6.5884499550
-53.6156921387 -1.7988269329 6.4028496742
-53.6263999939 -1.8001053333 6.2149705887
-53.6333389282 -1.8012684584 6.0259404182
-53.6387939453 -1.8023861647 5.8364558220
-53.6437835693 -1.8034895658 5.6468257904
-53.6486930847 -1.8045907021 5.4571690559
-53.6536865234 -1.8056943417 5.2675375938
-53.6588554382 -1.8068032265 5.0779566765
-53.6642417908 -1.8079190254 4.8884429932
-53.6699600220 -1.8090448380 4.6990299225
-53.6762084961 -1.8101868629 4.5097818375
-53.6832733154 -1.8113538027 4.3207879066
-53.6913948059 -1.8125530481 4.1321239471
-53.7006950378 -1.8137882948 3.9438331127
-53.7112236023 -1.8150609732 3.7559313774
-53.7229423523 -1.8163701296 3.5684096813
-53.7356529236 -1.8177095652 3.3812079430
-53.7489242554 -1.8190660477 3.1941902637
-53.7620887756 -1.8204190731 3.0071468353
-53.7743186951 -1.8217436075 2.8198156357
-53.7847366333 -1.8230128288 2.6319162846
-53.7925834656 -1.8242036104 2.4432020187
-53.7973823547 -1.8253011703 2.2535154819
-53.7990455627 -1.8263031244 2.0628237724
-53.7978897095 -1.8272191286 1.8712232113
-53.7945671082 -1.8280689716 1.6789155006
-53.7899284363 -1.8288788795 1.4861733913
-53.7849884033 -1.8296794891 1.2933189869
-53.7808532715 -1.8305048943 1.1007099152
-53.7786407471 -1.8313888311 0.9087090492
-53.7792396545 -1.8323585987 0.7176101208
-53.7829666138 -1.8334238529 0.5275192857
-53.7891464233 -1.8345639706 0.3382242322
-53.7960739136 -1.8357267380 0.1491718292
-20.6244125366 -36.0123977661 79.0740509033
-20.6145915985 -35.9932365417 78.8769836426
-20.6007404327 -35.9663391113 78.6794357300
-20.5890884399 -35.9436645508 78.4820861816
-20.5826053619 -35.9309158325 78.2852935791
-20.5801048279 -35.9258155823 78.0889434814
-20.5787467957 -35.9229125977 77.8927078247
-20.5770301819 -35.9193229675 77.6964263916
-20.5757007599 -35.9164733887 77.5001678467
-20.5762481689 -35.9172286987 77.3041305542
-20.5786228180 -35.9214935303 77.1083068848
-20.5806522369 -35.9250984192 76.9124450684
-20.8166007996 -36.3723640442 73.0236206055
-20.8158378601 -36.3706054688 72.8274917603
-20.8151359558 -36.3689575195 72.6313629150
-20.8152275085 -36.3688430786 72.4353485107
-20.8178081512 -36.3735008240 72.2397155762
-20.8255214691 -36.3880195618 72.0448760986
-20.8408050537 -36.4170799255 71.8512496948
-20.8639068604 -36.4611549377 71.6589050293
-20.8922595978 -36.5153160095 71.4674453735
-20.9223976135 -36.5729064941 71.2763442993
-20.9522857666 -36.6300201416 71.0852737427
-20.9814167023 -36.6856765747 70.8941421509
-21.0094680786 -36.7392578125 70.7028961182
-21.0356979370 -36.7893447876 70.5114135742
-21.0591106415 -36.8340187073 70.3195114136
-21.0784988403 -36.8709602356 70.1269836426
-21.0927238464 -36.8979911804 69.9336013794
-21.1015720367 -36.9146881104 69.7393264771
-21.1062221527 -36.9233245850 69.5443344116
-21.1086940765 -36.9277763367 69.3489685059
-21.1109199524 -36.9317588806 69.1535491943
-21.1143302917 -36.9380111694 68.9583358765
-21.1197681427 -36.9481620789 68.7634887695
-21.1270771027 -36.9619026184 68.5689849854
-21.1343688965 -36.9756164551 68.3744888306
-21.1383152008 -36.9829025269 68.1793823242
-21.1362876892 -36.9787101746 67.9831848145
-21.1287879944 -36.9640121460 67.7859497070
-21.1194629669 -36.9458045959 67.5883560181
-21.1127796173 -36.9326744080 67.3912200928
-21.1121177673 -36.9311065674 67.1951904297
-21.1195411682 -36.9450683594 67.0007019043
-21.1361942291 -36.9767570496 66.8079910278
-21.1622714996 -37.0265541077 66.6171264648
-21.1965789795 -37.0921516418 66.4279327393
-21.2359771729 -37.1675300598 66.2398071289
-21.2754058838 -37.2429695129 66.0517807007
-21.3096160889 -37.3083877563 65.8628158569
-21.3359565735 -37.3586845398 65.6723556519
-21.3554420471 -37.3958168030 65.4805831909
-21.3709354401 -37.4252777100 65.2880401611
-21.3846549988 -37.4513359070 65.0951614380
-21.3978099823 -37.4763107300 64.9021987915
-21.4120769501 -37.5034179688 64.7094879150
-21.4305057526 -37.5385208130 64.5176696777
-21.4564914703 -37.5881385803 64.3274688721
-21.4917087555 -37.6554908752 64.1392669678
-21.5346107483 -37.7375984192 63.9527664185
-21.5804958344 -37.8254394531 63.7670021057
-21.6232547760 -37.9072761536 63.5806808472
-21.6578826904 -37.9734916687 63.3927078247
-21.6822509766 -38.0200042725 63.2025985718
-21.6972064972 -38.0484390259 63.0104904175
-21.7053127289 -38.0637130737 62.8169097900
-21.7092933655 -38.0710639954 62.6224327087
-21.7111568451 -38.0743484497 62.4274864197
-21.7121391296 -38.0759391785 62.2323379517
-21.7130050659 -38.0773124695 62.0371589661
-21.7143821716 -38.0796623230 61.8420867920
-21.7170162201 -38.0844230652 61.6472969055
-21.7219085693 -38.0935287476 61.4530181885
-21.7298965454 -38.1085777283 61.2594528198
-21.7406406403 -38.1289176941 61.0665321350
-21.7519340515 -38.1503181458 60.8737602234
-21.7603969574 -38.1662788391 60.6803474426
-21.7632751465 -38.1715126038 60.4856376648
-21.7601718903 -38.1652565002 60.2895126343
-21.7540473938 -38.1531982422 60.0926551819
-21.7510223389 -38.1470947266 59.8965110779
-21.7580490112 -38.1602973938 59.7027626038
-21.7788677216 -38.1999893188 59.5123443604
-21.8112506866 -38.2618980408 59.3247795105
-21.8483219147 -38.3328132629 59.1384315491
-21.8830451965 -38.3992156982 58.9515953064
-21.9122257233 -38.4549674988 58.7634696960
-21.9373683929 -38.5029716492 58.5744171143
-21.9624195099 -38.5507926941 58.3853950500
-21.9905033112 -38.6044464111 58.1971855164
-22.0221099854 -38.6648635864 58.0099258423
-22.0552787781 -38.7282829285 57.8231391907
-22.0868282318 -38.7885894775 57.6360130310
-22.1137943268 -38.8400917053 57.4477882385
-22.1349735260 -38.8804779053 57.2581405640
-22.1519584656 -38.9128074646 57.0674552917
-22.1684875488 -38.9442634583 56.8766860962
-22.1880722046 -38.9815902710 56.6867485046
-22.2115955353 -39.0264854431 56.4978828430
-22.2367801666 -39.0745620728 56.3095054626
-22.2597999573 -39.1184883118 56.1206130981
-22.2778415680 -39.1528472900 55.9304466248
-22.2908802032 -39.1776008606 55.7389831543
-22.3016490936 -39.1979942322 55.5469322205
-22.3139038086 -39.2212371826 55.3553047180
-22.3302612305 -39.2523651123 55.1648063660
-22.3512172699 -39.2923240662 54.9755973816
-22.3758563995 -39.3393630981 54.7874412537
-22.4030151367 -39.3912353516 54.6000328064
-22.4313163757 -39.4453048706 54.4129981995
-22.4584369659 -39.4971046448 54.2257003784
-22.4810943604 -39.5403327942 54.0372238159
-22.4962444305 -39.5691413879 53.8466911316
-22.5025501251 -39.5809631348 53.6536979675
-22.5013732910 -39.5784072876 53.4585952759
-22.4972133636 -39.5701217651 53.2626342773
-22.4971752167 -39.5697555542 53.0678291321
-22.5085105896 -39.5912361145 52.8762779236
-22.5350189209 -39.6418609619 52.6891136169
-22.5748176575 -39.7180175781 52.5058517456
-22.6212673187 -39.8069496155 52.3246154785
-22.6663093567 -39.8931770325 52.1430854797
-22.7041816711 -39.9656333923 51.9595565796
-22.7334518433 -40.0215644836 51.7735862732
-22.7563762665 -40.0653076172 51.5858039856
-22.7762546539 -40.1031990051 51.3971672058
-22.7950344086 -40.1389770508 51.2082481384
-22.8130664825 -40.1733207703 51.0191421509
-22.8304195404 -40.2063674927 50.8298683167
-22.8475093842 -40.2388992310 50.6405525208
-22.8647785187 -40.2717781067 50.4513244629
-22.8829574585 -40.3064041138 50.2624130249
-22.9039783478 -40.3464927673 50.0744056702
-22.9306545258 -40.3974418640 49.8881835938
-22.9644927979 -40.4621467590 49.7042350769
-23.0035152435 -40.5368156433 49.5219688416
-23.0423774719 -40.6111755371 49.3397483826
-23.0750694275 -40.6736831665 49.1556892395
-23.0981121063 -40.7176513672 48.9686775208
-23.1116886139 -40.7434387207 48.7787322998
-23.1183624268 -40.7559661865 48.5866241455
-23.1211566925 -40.7610397339 48.3932952881
-23.1226730347 -40.7636604309 48.1995544434
-23.1253585815 -40.7685241699 48.0061836243
-23.1320858002 -40.7811546326 47.8141098022
-23.1460781097 -40.8077430725 47.6243934631
-23.1697387695 -40.8528976440 47.4378395081
-23.2031440735 -40.9167747498 47.2545089722
-23.2436714172 -40.9943351746 47.0735893250
-23.2869987488 -41.0772705078 46.8936805725
-23.3283882141 -41.1564865112 46.7132415771
-23.3638057709 -41.2242317200 46.5309219360
-23.3912658691 -41.2766876221 46.3460426331
-23.4118347168 -41.3159065247 46.1589241028
-23.4289321899 -41.3484573364 45.9706916809
-23.4462127686 -41.3813629150 45.7825546265
-23.4660015106 -41.4190826416 45.5953025818
-23.4894447327 -41.4638252258 45.4093246460
-23.5173873901 -41.5172119141 45.2249336243
-23.5505428314 -41.5806083679 45.0423812866
-23.5889453888 -41.6540870667 44.8617057800
-23.6316986084 -41.7359199524 44.6826171875
-23.6773700714 -41.8233604431 44.5046386719
-23.7244758606 -41.9135627747 44.3272666931
-23.7712821960 -42.0031852722 44.1499061584
-23.8152370453 -42.0873298645 43.9716606140
-23.8531684875 -42.1599006653 43.7914085388
-23.8824214935 -42.2158050537 43.6081924438
-23.9020481110 -42.2532157898 43.4216461182
-23.9132652283 -42.2744712830 43.2321624756
-23.9189567566 -42.2851142883 43.0407333374
-23.9227581024 -42.2921257019 42.8486366272
-23.9283046722 -42.3024864197 42.6571655273
-23.9386596680 -42.3220863342 42.4674263000
-23.9554023743 -42.3539619446 42.2800102234
-23.9776020050 -42.3963127136 42.0946044922
-24.0016880035 -42.4422912598 41.9099349976
-24.0227375031 -42.4824333191 41.7242088318
-24.0365619659 -42.5087013245 41.5358886719
-24.0416793823 -42.5182418823 41.3443908691
-24.0403385162 -42.5153732300 41.1505165100
-24.0379772186 -42.5105476379 40.9562530518
-24.0408706665 -42.5158119202 40.7639274597
-24.0529384613 -42.5387039185 40.5750160217
-24.0739402771 -42.5787582397 40.3894653320
-24.1005477905 -42.6295776367 40.2060661316
-24.1291885376 -42.6843070984 40.0234947205
-24.1579132080 -42.7391967773 39.8410186768
-24.1860389709 -42.7929344177 39.6583786011
-24.2129039764 -42.8442535400 39.4753265381
-24.2372264862 -42.8906860352 39.2913627625
-24.2572879791 -42.9289360046 39.1058197021
-24.2717247009 -42.9563789368 38.9181594849
-24.2803974152 -42.9727439880 38.7283058167
-24.2845649719 -42.9804611206 38.5367202759
-24.2861919403 -42.9832954407 38.3441505432
-24.2871608734 -42.9848632813 38.1513214111
-24.2891311646 -42.9883575439 37.9588737488
-24.2939624786 -42.9973487854 37.7675476074
-24.3039970398 -43.0163345337 37.5782699585
-24.3214168549 -43.0495071411 37.3919219971
-24.3466892242 -43.0977630615 37.2087249756
-24.3776035309 -43.1568603516 37.0278244019
-24.4103565216 -43.2194938660 36.8477325439
-24.4418239594 -43.2796516418 36.6671981812
-24.4707698822 -43.3349685669 36.4857254028
-24.4973945618 -43.3858261108 36.3033866882
-24.5222740173 -43.4333267212 36.1203994751
-24.5457134247 -43.4780654907 35.9368858337
-24.5679397583 -43.5204734802 35.7529335022
-24.5896701813 -43.5619277954 35.5688247681
-24.6120357513 -43.6046028137 35.3850250244
-24.6355533600 -43.6494903564 35.2017478943
-24.6593666077 -43.6949462891 35.0186424255
-24.6817626953 -43.7376785278 34.8350067139
-24.7015476227 -43.7754020691 34.6503372192
-24.7189941406 -43.8086280823 34.4647369385
-24.7354164124 -43.8398818970 34.2787475586
-24.7518310547 -43.8711280823 34.0927886963
-24.7682514191 -43.9023818970 33.9068641663
-24.7844905853 -43.9332885742 33.7208976746
-24.8013362885 -43.9653587341 33.5352210999
-24.8204479218 -44.0017814636 33.3505401611
-24.8432197571 -44.0452384949 33.1674537659
-24.8700313568 -44.0964584351 32.9861373901
-24.9000606537 -44.1538581848 32.8062591553
-24.9310016632 -44.2130050659 32.6268386841
-24.9593086243 -44.2670974731 32.4463615417
-24.9816932678 -44.3098106384 32.2633895874
-24.9968070984 -44.3385543823 32.0773239136
-25.0054397583 -44.3548507690 31.8884754181
-25.0094127655 -44.3621902466 31.6976108551
-25.0105838776 -44.3641510010 31.5055255890
-25.0107479095 -44.3641738892 31.3129920959
-25.0120372772 -44.3663635254 31.1209449768
-25.0171985626 -44.3759880066 30.9305973053
-25.0292644501 -44.3988761902 30.7433032990
-25.0504837036 -44.4393501282 30.5600891113
-25.0809192657 -44.4975318909 30.3810157776
-25.1177482605 -44.5679969788 30.2048645020
-25.1562728882 -44.6417160034 30.0295581818
-25.1923294067 -44.7106933594 29.8532352448
-25.2241878510 -44.7716102600 29.6751117706
-25.2522163391 -44.8251647949 29.4953327179
-25.2771015167 -44.8726844788 29.3141975403
-25.2989654541 -44.9143981934 29.1317462921
-25.3178405762 -44.9503669739 28.9479846954
-25.3341312408 -44.9813766479 28.7630844116
-25.3484058380 -45.0085105896 28.5772953033
-25.3613433838 -45.0330734253 28.3909206390
-25.3740386963 -45.0571746826 28.2044582367
-25.3877391815 -45.0832061768 28.0184841156
-25.4031219482 -45.1124687195 27.8333148956
-25.4200973511 -45.1447906494 27.6489162445
-25.4381790161 -45.1792373657 27.4650669098
-25.4564113617 -45.2139778137 27.2813262939
-25.4730186462 -45.2455902100 27.0968627930
-25.4858455658 -45.2699432373 26.9106616974
-25.4936370850 -45.2846260071 26.7221145630
-25.4968204498 -45.2904472351 26.5314025879
-25.4970760345 -45.2906532288 26.3393039703
-25.4963607788 -45.2889862061 26.1467361450
-25.4961967468 -45.2883834839 25.9544200897
-25.4975032806 -45.2906036377 25.7627964020
-25.5006961823 -45.2964477539 25.5720691681
-25.5058841705 -45.3061218262 25.3822994232
-25.5130748749 -45.3196487427 25.1934967041
-25.5222873688 -45.3370590210 25.0056781769
-25.5333557129 -45.3580322266 24.8187713623
-25.5454597473 -45.3809967041 24.6323890686
-25.5570278168 -45.4029312134 24.4457664490
-25.5665588379 -45.4209518433 24.2581729889
-25.5739040375 -45.4347763062 24.0695266724
-25.5806903839 -45.4475212097 23.8806152344
-25.5892753601 -45.4637260437 23.6925964355
-25.6011276245 -45.4862060547 23.5062007904
-25.6160850525 -45.5146522522 23.3213634491
-25.6332244873 -45.5472946167 23.1376361847
-25.6522579193 -45.5835685730 22.9548854828
-25.6736850739 -45.6244430542 22.7733669281
-25.6975479126 -45.6700019836 22.5931129456
-25.7223358154 -45.7173347473 22.4133758545
-25.7453289032 -45.7612190247 22.2327919006
-25.7640094757 -45.7968215942 22.0500888824
-25.7772426605 -45.8219528198 21.8646755219
-25.7853355408 -45.8372116089 21.6766891479
-25.7892742157 -45.8444900513 21.4866065979
-25.7899799347 -45.8455543518 21.2948780060
-25.7881050110 -45.8416633606 21.1018295288
-25.7842597961 -45.8339881897 20.9077587128
-25.7792549133 -45.8240814209 20.7130718231
-25.7741527557 -45.8139877319 20.5183162689
-25.7701110840 -45.8059349060 20.3240814209
-25.7680702209 -45.8017234802 20.1308612823
-25.7684764862 -45.8022155762 19.9388942719
-25.7711658478 -45.8070945740 19.7481040955
-25.7754344940 -45.8150062561 19.5581321716
-25.7802524567 -45.8239746094 19.3684501648
-25.7845306396 -45.8319015503 19.1784896851
-25.7873573303 -45.8370437622 18.9877681732
-25.7881717682 -45.8383178711 18.7959880829
-25.7868881226 -45.8355636597 18.6030960083
-25.7839775085 -45.8296813965 18.4093303680
-25.7804126740 -45.8225402832 18.2152023315
-25.7774219513 -45.8165054321 18.0213584900
-25.7761135101 -45.8136978149 17.8283939362
-25.7771377563 -45.8153762817 17.6366634369
-25.7805252075 -45.8215980530 17.4461879730
-25.7857952118 -45.8314323425 17.2567214966
-25.7922897339 -45.8436203003 17.0679187775
-25.7996006012 -45.8573760986 16.8795642853
-25.8077850342 -45.8728141785 16.6916904449
-25.8170948029 -45.8904075623 16.5044364929
-25.8272838593 -45.9096946716 16.3176784515
-25.8372325897 -45.9285202026 16.1308040619
-25.8455200195 -45.9441528320 15.9430427551
-25.8515472412 -45.9554405212 15.7540559769
-25.8560791016 -45.9638557434 15.5642585754
-25.8609046936 -45.9728393555 15.3746242523
-25.8681983948 -45.9865646362 15.1863527298
-25.8798637390 -46.0086860657 15.0005035400
-25.8965415955 -46.0404396057 14.8174486160
-25.9166603088 -46.0788040161 14.6363363266
-25.9366893768 -46.1169967651 14.4552173615
-25.9529190063 -46.1478881836 14.2720251083
-25.9632434845 -46.1674346924 14.0855693817
-25.9674339294 -46.1751937866 13.8956956863
-25.9661960602 -46.1725273132 13.7027797699
-25.9604949951 -46.1612815857 13.5073404312
-25.9517326355 -46.1441574097 13.3101511002
-25.9420413971 -46.1252479553 13.1124048233
-25.9336643219 -46.1088638306 12.9153680801
-25.9278411865 -46.0973854065 12.7197494507
-25.9244499207 -46.0905799866 12.5254898071
-25.9227695465 -46.0870628357 12.3321895599
-25.9224872589 -46.0862312317 12.1396732330
-25.9240207672 -46.0888862610 11.9481868744
-25.9279365540 -46.0961189270 11.7580633163
-25.9338130951 -46.1071205139 11.5690698624
-25.9394111633 -46.1175842285 11.3799219131
-25.9411659241 -46.1206665039 11.1885566711
-25.9360160828 -46.1104812622 10.9931859970
-25.9235668182 -46.0862731934 10.7935523987
-25.9071559906 -46.0544509888 10.5915718079
-25.8926944733 -46.0263748169 10.3906755447
-25.8856391907 -46.0125312805 10.1940631866
-25.8884773254 -46.0176925659 10.0032205582
-25.9008274078 -46.0411300659 9.8179636002
-25.9211883545 -46.0799636841 9.6374454498
-25.9476680756 -46.1305503845 9.4605817795
-25.9772090912 -46.1870193481 9.2855892181
-26.0054416656 -46.2409744263 9.1098899841
-26.0282516479 -46.2845115662 8.9310340881
-26.0435333252 -46.3135795593 8.7477474213
-26.0513267517 -46.3282661438 8.5600252151
-26.0526447296 -46.3305053711 8.3684406281
-26.0484199524 -46.3221015930 8.1735305786
-26.0395050049 -46.3046798706 7.9757828712
-26.0274257660 -46.2811851501 7.7760992050
-26.0149726868 -46.2569618225 7.5761466026
-26.0056896210 -46.2388381958 7.3780703545
-26.0025768280 -46.2325706482 7.1836981773
-26.0070171356 -46.2408103943 6.9938931465
-26.0185222626 -46.2626228333 6.8083887100
-26.0350399017 -46.2940711975 6.6259622574
-26.0535564423 -46.3293609619 6.4447917938
-26.0709304810 -46.3624496460 6.2629599571
-26.0847663879 -46.3887443542 6.0789947510
-26.0939693451 -46.4061355591 5.8922052383
-26.0986614227 -46.4148597717 5.7026519775
-26.0996990204 -46.4165649414 5.5108447075
-26.0982093811 -46.4134140015 5.3174672127
-26.0953884125 -46.4077033997 5.1232490540
-26.0924091339 -46.4016876221 4.9289174080
-26.0903835297 -46.3975067139 4.7351613045
-26.0903720856 -46.3971939087 4.5426487923
-26.0934524536 -46.4028205872 4.3520607948
-26.1005725861 -46.4162101746 4.1640033722
-26.1119232178 -46.4377326965 3.9786140919
-26.1260185242 -46.4645233154 3.7949714661
-26.1392955780 -46.4897422791 3.6108417511
-26.1471614838 -46.5045661926 3.4233169556
-26.1461219788 -46.5022773743 3.2301621437
-26.1356334686 -46.4818382263 3.0309989452
-26.1186008453 -46.4488182068 2.8276343346
-26.1003608704 -46.4134826660 2.6234474182
-26.0865898132 -46.3867340088 2.4220566750
-26.0808963776 -46.3755035400 2.2257905006
-26.0836429596 -46.3804893494 2.0349125862
-26.0930519104 -46.3982772827 1.8483148813
-26.1075363159 -46.4258193970 1.6650012732
-26.1266269684 -46.4622077942 1.4846879244
-26.1496410370 -46.5061378479 1.3069535494
-26.1741657257 -46.5529708862 1.1302485466
-26.1965103149 -46.5956153870 0.9521840215
-26.2135257721 -46.6280174255 0.7707017660
-26.2235813141 -46.6470527649 0.5847191215
-26.2262611389 -46.6519088745 0.3939341009
-26.2218914032 -46.6432228088 0.1985339969
-46.3421936035 25.1271553040 78.5714035034
-46.3482780457 25.1293506622 78.3832321167
-46.3523101807 25.1304473877 78.1949005127
-46.3512268066 25.1288013458 78.0061798096
-46.3447608948 25.1242752075 77.8170318604
-46.3341751099 25.1175403595 77.6275482178
-46.3196678162 25.1087036133 77.4377288818
-46.3002548218 25.0972385406 77.2474899292
-46.2761535645 25.0832614899 77.0568389893
-46.2506980896 25.0685577393 76.8660354614
-46.2293090820 25.0560340881 76.6755218506
-46.2167434692 25.0482368469 76.4856948853
-46.2155876160 25.0465526581 76.2967834473
-46.2269554138 25.0515785217 76.1089096069
-46.2510948181 25.0634479523 75.9221191406
-46.2860527039 25.0811138153 75.7362747192
-46.3257293701 25.1013088226 75.5508804321
-46.3603057861 25.1187705994 75.3650894165
-46.3798370361 25.1281700134 75.1780242920
-46.3788337708 25.1265678406 74.9891738892
-46.3590087891 25.1148796082 74.7986526489
-46.3285369873 25.0974884033 74.6071395874
-46.2978820801 25.0799980164 74.4155578613
-46.2747306824 25.0665264130 74.2246017456
-46.2618293762 25.0585498810 74.0345458984
-46.2584457397 25.0556716919 73.8453369141
-46.2626991272 25.0568847656 73.6568222046
-46.2726135254 25.0611324310 73.4688339233
-46.2860527039 25.0672683716 73.2811889648
-46.3006439209 25.0740222931 73.0936584473
-46.3140373230 25.0801353455 72.9060211182
-46.3243713379 25.0846061707 72.7181091309
-46.3306770325 25.0869197845 72.5298004150
-46.3331527710 25.0871810913 72.3411254883
-46.3330879211 25.0860805511 72.1521911621
-46.3325843811 25.0847454071 71.9632110596
-46.3343887329 25.0846462250 71.7744445801
-46.3419342041 25.0876235962 71.5862503052
-46.3591537476 25.0957870483 71.3990402222
-46.3889884949 25.1107082367 71.2131347656
-46.4306221008 25.1319541931 71.0284729004
-46.4780426025 25.1563014984 70.8444595337
-46.5225181580 25.1790714264 70.6601943970
-46.5574836731 25.1967449188 70.4749908447
-46.5811080933 25.2083396912 70.2886276245
-46.5949401855 25.2146892548 70.1012573242
-46.6014747620 25.2171249390 69.9131088257
-46.6030921936 25.2169265747 69.7244262695
-46.6022338867 25.2154006958 69.5354766846
-46.6017417908 25.2140731812 69.3465576172
-46.6049194336 25.2147102356 69.1580276489
-46.6151771545 25.2191429138 68.9702758789
-46.6348152161 25.2286033630 68.7835769653
-46.6632423401 25.2427730560 68.5978775024
-46.6962013245 25.2593727112 68.4127273560
-46.7275352478 25.2751007080 68.2274246216
-46.7519531250 25.2871227264 68.0413665771
-46.7662124634 25.2937011719 67.8541717529
-46.7687377930 25.2939891815 67.6656341553
-46.7597160339 25.2880878448 67.4757461548
-46.7418556213 25.2774505615 67.2848052979
-46.7199134827 25.2646255493 67.0933532715
-46.6987724304 25.2522296906 66.9019470215
-46.6820297241 25.2421894073 66.7110366821
-46.6721305847 25.2358188629 66.5209045410
-46.6712760925 25.2342948914 66.3318405151
-46.6818389893 25.2388916016 66.1441497803
-46.7055892944 25.2505550385 65.9580764771
-46.7417488098 25.2688732147 65.7735443115
-46.7855720520 25.2912960052 65.5900039673
-46.8290443420 25.3135318756 65.4064712524
-46.8630523682 25.3306961060 65.2218170166
-46.8795928955 25.3384971619 65.0350036621
-46.8744316101 25.3346652985 64.8454666138
-46.8500556946 25.3205337524 64.6534805298
-46.8156814575 25.3010425568 64.4601745605
-46.7825813293 25.2822341919 64.2669754028
-46.7584228516 25.2682170868 64.0748672485
-46.7453384399 25.2601394653 63.8841590881
-46.7419471741 25.2572555542 63.6946830750
-46.7460098267 25.2583656311 63.5061721802
-46.7555961609 25.2624397278 63.3183898926
-46.7689552307 25.2685337067 63.1311073303
-46.7840957642 25.2755851746 62.9440765381
-46.7988090515 25.2824058533 62.7569999695
-46.8110504150 25.2879009247 62.5695991516
-46.8194503784 25.2913379669 62.3816909790
-46.8236465454 25.2925205231 62.1932106018
-46.8243217468 25.2918186188 62.0042495728
-46.8230400085 25.2900638580 61.8150100708
-46.8218078613 25.2883396149 61.6257629395
-46.8224906921 25.2876377106 61.4367752075
-46.8262100220 25.2885646820 61.2482032776
-46.8330383301 25.2911605835 61.0600624084
-46.8420715332 25.2949371338 60.8722343445
-46.8518447876 25.2991085052 60.6845169067
-46.8610115051 25.3029575348 60.4967155457
-46.8689193726 25.3061313629 60.3087387085
-46.8757781982 25.3087406158 60.1206130981
-46.8823814392 25.3112144470 59.9324531555
-46.8896598816 25.3140506744 59.7443923950
-46.8983764648 25.3176574707 59.5565414429
-46.9092102051 25.3223991394 59.3690032959
-46.9233436584 25.3289108276 59.1819610596
-46.9430656433 25.3384170532 58.9957542419
-46.9716453552 25.3526744843 58.8108901978
-47.0116539001 25.3730583191 58.6277656555
-47.0619468689 25.3989562988 58.4462318420
-47.1161079407 25.4269313812 58.2653503418
-47.1651458740 25.4521560669 58.0837554932
-47.2027282715 25.4712429047 57.9004783630
-47.2279014587 25.4836750031 57.7153434753
-47.2433624268 25.4908981323 57.5287399292
-47.2523727417 25.4946632385 57.3411560059
-47.2572746277 25.4962253571 57.1529350281
-47.2596702576 25.4964447021 56.9643211365
-47.2609977722 25.4960918427 56.7755355835
-47.2628402710 25.4960136414 56.5868263245
-47.2670707703 25.4972171783 56.3984832764
-47.2760887146 25.5009860992 56.2109031677
-47.2930488586 25.5090141296 56.0245895386
-47.3215293884 25.5232200623 55.8401412964
-47.3634643555 25.5446395874 55.6578865051
-47.4153022766 25.5713710785 55.4772872925
-47.4656372070 25.5972976685 55.2965087891
-47.4989051819 25.6140708923 55.1130104065
-47.5044937134 25.6160011292 54.9250106812
-47.4835472107 25.6037044525 54.7326507568
-47.4474029541 25.5832576752 54.5377349854
