-28.3280296326 27.7044239044 23.0914802551
-28.3511142731 27.7315139771 22.9002552032
-28.3715591431 27.7558708191 22.7081336975
-28.3853263855 27.7733249664 22.5136795044
-28.3922939301 27.7837467194 22.3168334961
-28.3969707489 27.7918014526 22.1191768646
-28.4055500031 27.8038902283 21.9229068756
-28.4217109680 27.8238182068 21.7293453217
-28.4446258545 27.8507308960 21.5382194519
-28.4698410034 27.8800182343 21.3479480743
-28.4914493561 27.9055767059 21.1564159393
-28.5045623779 27.9223518372 20.9618511200
-28.5076599121 27.9287719727 20.7636795044
-28.5037975311 27.9279975891 20.5629844666
-28.4994716644 27.9267444611 20.3621025085
-28.5012664795 27.9318161011 20.1634273529
-28.5125923157 27.9467449188 19.9682254791
-28.5329551697 27.9710140228 19.7763385773
-28.5595169067 28.0016918182 19.5867538452
-28.5889949799 28.0353851318 19.3982772827
-28.6188240051 28.0694389343 19.2099742889
-28.6475009918 28.1023006439 19.0212879181
-28.6739158630 28.1328239441 18.8318061829
-28.6964073181 28.1592922211 18.6409053802
-28.7131137848 28.1797771454 18.4478797913
-28.7234706879 28.1936988831 18.2525062561
-28.7289428711 28.2025737762 18.0553131104
-28.7321987152 28.2091560364 17.8572864532
-28.7358016968 28.2160987854 17.6593875885
-28.7416305542 28.2253398895 17.4623222351
-28.7509498596 28.2381896973 17.2665767670
-28.7645606995 28.2554740906 17.0724601746
-28.7825222015 28.2772560120 16.8800106049
-28.8035621643 28.3022212982 16.6887550354
-28.8250541687 28.3276519775 16.4976978302
-28.8443031311 28.3507633209 16.3058128357
-28.8604297638 28.3706474304 16.1127548218
-28.8750553131 28.3889808655 15.9191408157
-28.8910160065 28.4086914063 15.7260551453
-28.9102153778 28.4317512512 15.5342378616
-28.9326248169 28.4581260681 15.3436880112
-28.9571208954 28.4866580963 15.1539773941
-28.9827632904 28.5163764954 14.9647464752
-29.0087299347 28.5464248657 14.7756767273
-29.0333900452 28.5751266479 14.5861349106
-29.0544242859 28.6000766754 14.3952074051
-29.0701351166 28.6195297241 14.2022199631
-29.0804023743 28.6333541870 14.0071077347
-29.0863666534 28.6427326202 13.8103075027
-29.0895824432 28.6492729187 13.6124219894
-29.0913925171 28.6543579102 13.4139747620
-29.0926818848 28.6589069366 13.2153129578
-29.0939521790 28.6634349823 13.0166349411
-29.0955181122 28.6682682037 12.8180665970
-29.0978012085 28.6738452911 12.6197767258
-29.1017093658 28.6810989380 12.4221315384
-29.1089458466 28.6917915344 12.2258195877
-29.1217346191 28.7082233429 12.0317440033
-29.1416721344 28.7320404053 11.8405656815
-29.1684875488 28.7629604340 11.6521930695
-29.1998538971 28.7985839844 11.4657039642
-29.2321949005 28.8352127075 11.2796573639
-29.2616367340 28.8688468933 11.0924787521
-29.2850112915 28.8962097168 10.9028673172
-29.3009300232 28.9158706665 10.7102403641
-29.3100986481 28.9285602570 10.5148649216
-29.3144073486 28.9362258911 10.3174991608
-29.3156776428 28.9407539368 10.1188802719
-29.3150558472 28.9433250427 9.9194717407
-29.3131008148 28.9445228577 9.7195005417
-29.3101539612 28.9446945190 9.5191030502
-29.3067035675 28.9443473816 9.3184814453
-29.3036270142 28.9443836212 9.1179962158
-29.3021640778 28.9460887909 8.9181690216
-29.3036003113 28.9507904053 8.7195405960
-29.3087100983 28.9592857361 8.5224437714
-29.3173751831 28.9714527130 8.3268375397
-29.3289165497 28.9865932465 8.1324472427
-29.3434162140 29.0047855377 7.9393138885
-29.3632812500 29.0285205841 7.7484645844
-29.3931636810 29.0626029968 7.5618848801
-29.4364929199 29.1105728149 7.3810572624
-29.4903202057 29.1693840027 7.2047634125
-29.5441761017 29.2282238007 7.0285711288
-29.5861091614 29.2747478485 6.8473720551
-29.6106033325 29.3032588959 6.6587724686
-29.6204090118 29.3166007996 6.4639043808
-29.6219406128 29.3213977814 6.2654852867
-29.6205577850 29.3231849670 6.0658025742
-29.6195068359 29.3253116608 5.8662490845
-29.6209030151 29.3299694061 5.6677422523
-29.6264019012 29.3388633728 5.4710068703
-29.6371688843 29.3531970978 5.2765598297
-29.6535263062 29.3733043671 5.0845570564
-29.6743831635 29.3980598450 4.8945374489
-29.6971511841 29.4247837067 4.7053799629
-29.7189617157 29.4505214691 4.5158348083
-29.7385654449 29.4739780426 4.3253493309
-29.7570190430 29.4962482452 4.1343832016
-29.7764415741 29.5195198059 3.9438676834
-29.7980365753 29.5450325012 3.7543368340
-29.8211650848 29.5721282959 3.5655138493
-29.8442649841 29.5991935730 3.3767099380
-29.8665485382 29.6254158020 3.1875748634
-29.8884620667 29.6512565613 2.9983046055
-29.9103889465 29.6771087646 2.8090701103
-29.9313640594 29.7019805908 2.6194398403
-29.9495372772 29.7239570618 2.4285800457
-29.9637966156 29.7418918610 2.2359843254
-29.9746646881 29.7563266754 2.0418777466
-29.9838809967 29.7690544128 1.8470345736
-29.9936580658 29.7823600769 1.6524507999
-30.0063400269 29.7986679077 1.4591910839
-30.0239410400 29.8200511932 1.2681754827
-30.0468559265 29.8469200134 1.0795991421
-30.0724525452 29.8765583038 0.8922762275
-30.0952091217 29.9032630920 0.7036923766
-30.1091556549 29.9208736420 0.5111083388
-30.1111660004 29.9261627197 0.3130667806
-30.1030387878 29.9209842682 0.1103599668
-17.3975315094 31.6006546021 80.6652679443
-17.3949337006 31.6003799438 80.4670257568
-17.3913173676 31.5980167389 80.2686157227
-17.3867244720 31.5936431885 80.0700607300
-17.3828639984 31.5907745361 79.8715820313
-17.3819904327 31.5940532684 79.6735153198
-17.3850421906 31.6054039001 79.4759979248
-17.3909530640 31.6226406097 79.2789001465
-17.3975276947 31.6412372589 79.0819091797
-17.4027462006 31.6570491791 78.8847351074
-17.4054126740 31.6676082611 78.6871795654
-17.4049415588 31.6717166901 78.4891433716
-17.4009914398 31.6686649323 78.2905731201
-17.3935356140 31.6584053040 78.0914459229
-17.3834190369 31.6426753998 77.8918685913
-17.3726406097 31.6255817413 77.6921539307
-17.3637542725 31.6123828888 77.4926986694
-17.3587646484 31.6071968079 77.2938385010
-17.3583469391 31.6114158630 77.0956878662
-17.3617153168 31.6234226227 76.8981475830
-17.3669757843 31.6393203735 76.7009201050
-17.3719882965 31.6547088623 76.5036544800
-17.3754119873 31.6668281555 76.3061370850
-17.3771438599 31.6754684448 76.1083297729
-17.3779373169 31.6821804047 75.9103622437
-17.3787899017 31.6890144348 75.7124023438
-17.3806533813 31.6979217529 75.5146102905
-17.3843555450 31.7106132507 75.3171310425
-17.3903713226 31.7280654907 75.1200637817
-17.3983154297 31.7494831085 74.9233551025
-17.4067039490 31.7718086243 74.7267303467
-17.4135456085 31.7909545898 74.5298461914
-17.4174747467 31.8041152954 74.3324432373
-17.4182872772 31.8108654022 74.1344833374
-17.4164543152 31.8121738434 73.9360198975
-17.4122505188 31.8086109161 73.7371063232
-17.4053993225 31.7996044159 73.5376815796
-17.3955230713 31.7843799591 73.3376617432
-17.3830623627 31.7638435364 73.1371078491
-17.3697643280 31.7415866852 72.9363555908
-17.3580741882 31.7226314545 72.7358627319
-17.3498630524 31.7108364105 72.5360031128
-17.3457469940 31.7074565887 72.3369140625
-17.3454856873 31.7120056152 72.1385726929
-17.3489418030 31.7241954803 71.9409561157
-17.3566532135 31.7451286316 71.7441864014
-17.3694915771 31.7766056061 71.5484695435
-17.3875389099 31.8187904358 71.3538360596
-17.4090137482 31.8680152893 71.1599426270
-17.4302444458 31.9167404175 70.9660568237
-17.4468688965 31.9559955597 70.7712707520
-17.4554691315 31.9787521362 70.5748519897
-17.4547653198 31.9823875427 70.3764953613
-17.4458885193 31.9692249298 70.1763992310
-17.4318332672 31.9454174042 69.9751663208
-17.4164562225 31.9188938141 69.7736129761
-17.4032974243 31.8969326019 69.5724792480
-17.3946266174 31.8841991425 69.3722686768
-17.3912429810 31.8823299408 69.1731872559
-17.3929119110 31.8908462524 68.9751968384
-17.3986663818 31.9077548981 68.7781143188
-17.4065074921 31.9289569855 68.5814971924
-17.4133090973 31.9480209351 68.3846664429
-17.4159564972 31.9585475922 68.1869049072
-17.4133739471 31.9583244324 67.9879608154
-17.4075393677 31.9514217377 67.7882537842
-17.4023380280 31.9458198547 67.5886688232
-17.4011096954 31.9483833313 67.3899841309
-17.4048233032 31.9611015320 67.1924362183
-17.4119625092 31.9808559418 66.9956893921
-17.4198741913 32.0022010803 66.7991409302
-17.4264755249 32.0208511353 66.6023025513
-17.4311008453 32.0354385376 66.4049911499
-17.4342613220 32.0470237732 66.2073440552
-17.4370231628 32.0577850342 66.0095977783
-17.4405422211 32.0701026917 65.8120346069
-17.4457092285 32.0858039856 65.6148834229
-17.4526138306 32.1050758362 65.4181594849
-17.4602394104 32.1258316040 65.2216262817
-17.4669628143 32.1447334290 65.0248794556
-17.4715690613 32.1592826843 64.8276214600
-17.4738101959 32.1689720154 64.6297683716
-17.4741306305 32.1747169495 64.4314270020
-17.4731426239 32.1777725220 64.2327499390
-17.4713726044 32.1792259216 64.0338668823
-17.4692535400 32.1799621582 63.8348731995
-17.4671344757 32.1806983948 63.6358718872
-17.4652862549 32.1819915771 63.4369239807
-17.4639205933 32.1842727661 63.2380867004
-17.4631862640 32.1878547668 63.0394058228
-17.4631500244 32.1928672791 62.8409004211
-17.4637470245 32.1991806030 62.6425552368
-17.4648132324 32.2064628601 62.4443283081
-17.4662189484 32.2144393921 62.2461853027
-17.4680671692 32.2233276367 62.0481605530
-17.4708194733 32.2340698242 61.8503799438
-17.4750289917 32.2478027344 61.6529960632
-17.4806709290 32.2644805908 61.4560089111
-17.4867115021 32.2819786072 61.2591400146
-17.4915904999 32.2970848083 61.0619583130
-17.4942665100 32.3076705933 60.8641700745
-17.4947395325 32.3137359619 60.6657638550
-17.4936656952 32.3166198730 60.4669151306
-17.4917411804 32.3177604675 60.2678146362
-17.4894256592 32.3180923462 60.0685920715
-17.4869804382 32.3181648254 59.8693161011
-17.4845466614 32.3182601929 59.6700286865
-17.4821872711 32.3185043335 59.4707450867
-17.4799308777 32.3189659119 59.2714805603
-17.4778308868 32.3197441101 59.0722465515
-17.4759788513 32.3210334778 58.8730697632
-17.4744758606 32.3230400085 58.6739845276
-17.4734058380 32.3259391785 58.4750137329
-17.4728412628 32.3298721313 58.2761840820
-17.4728965759 32.3350753784 58.0775260925
-17.4737491608 32.3419227600 57.8791046143
-17.4755954742 32.3508033752 57.6809730530
-17.4785232544 32.3619117737 57.4831695557
-17.4823989868 32.3749618530 57.2856559753
-17.4867858887 32.3890647888 57.0882987976
-17.4910125732 32.4028358459 56.8908996582
-17.4944515228 32.4149894714 56.6932601929
-17.4970455170 32.4254112244 56.4953613281
-17.4996871948 32.4359245300 56.2974739075
-17.5038890839 32.4496459961 56.1000785828
-17.5107097626 32.4687423706 55.9035110474
-17.5198230743 32.4925422668 55.7076759338
-17.5298404694 32.5181999207 55.5121459961
-17.5396327972 32.5433959961 55.3165702820
-17.5492324829 32.5681953430 55.1209487915
-17.5593223572 32.5939979553 54.9255065918
-17.5698528290 32.6207084656 54.7302246094
-17.5791149139 32.6448097229 54.5345573425
-17.5842170715 32.6603775024 54.3375511169
-17.5827407837 32.6624412537 54.1383972168
-17.5742778778 32.6501655579 53.9369354248
-17.5606880188 32.6273689270 53.7337493896
-17.5449638367 32.6001892090 53.5298042297
-17.5298023224 32.5741729736 53.3260002136
-17.5170440674 32.5530853271 53.1229438782
-17.5079345703 32.5394897461 52.9210700989
-17.5034503937 32.5353813171 52.7207221985
-17.5041694641 32.5419578552 52.5221176147
-17.5097656250 32.5585403442 52.3251686096
-17.5186805725 32.5819320679 52.1293563843
-17.5286617279 32.6075134277 51.9339332581
-17.5378360748 32.6314353943 51.7382507324
-17.5453739166 32.6520004272 51.5420188904
-17.5515556335 32.6697845459 51.3453330994
-17.5576381683 32.6873626709 51.1486167908
-17.5656490326 32.7088966370 50.9525909424
-17.5777568817 32.7388343811 50.7580184937
-17.5949192047 32.7791481018 50.5652618408
-17.6155853271 32.8266487122 50.3737831116
-17.6359004974 32.8734245300 50.1822357178
-17.6519031525 32.9113540649 49.9891967773
-17.6618309021 32.9368133545 49.7940139771
-17.6664276123 32.9513397217 49.5969314575
-17.6674880981 32.9586105347 49.3985710144
-17.6663341522 32.9613380432 49.1994056702
-17.6633644104 32.9603462219 48.9995689392
-17.6586322784 32.9557342529 48.7990646362
-17.6528415680 32.9489479065 48.5981521606
-17.6478443146 32.9437942505 48.3975105286
-17.6457843781 32.9446678162 48.1979331970
-17.6473503113 32.9529762268 47.9996871948
-17.6509666443 32.9654922485 47.8022079468
-17.6541671753 32.9771537781 47.6045722961
-17.6559162140 32.9858398438 47.4063949585
-17.6574554443 32.9940948486 47.2081336975
-17.6606731415 33.0057945251 47.0105056763
-17.6658763885 33.0215644836 46.8136329651
-17.6713123322 33.0378112793 46.6168556213
-17.6745510101 33.0495529175 46.4192466736
-17.6739177704 33.0533523560 46.2201461792
-17.6688404083 33.0480384827 46.0193214417
-17.6596145630 33.0342178345 45.8168678284
-17.6472339630 33.0139236450 45.6131477356
-17.6331748962 32.9901885986 45.4087333679
-17.6187458038 32.9657020569 45.2041244507
-17.6045761108 32.9417419434 44.9995651245
-17.5911369324 32.9192848206 44.7952499390
-17.5798664093 32.9012756348 44.5917434692
-17.5733413696 32.8929977417 44.3900871277
-17.5740871429 32.8996353149 44.1913032532
-17.5832004547 32.9234275818 43.9958686829
-17.5998306274 32.9626312256 43.8034744263
-17.6214370728 33.0120391846 43.6131248474
-17.6444053650 33.0642356873 43.4233818054
-17.6652164459 33.1120109558 43.2328224182
-17.6820449829 33.1516151428 43.0406875610
-17.6953277588 33.1839523315 42.8471450806
-17.7062988281 33.2115478516 42.6526832581
-17.7152366638 33.2349739075 42.4574050903
-17.7215805054 33.2530822754 42.2610740662
-17.7248821259 33.2649497986 42.0634918213
-17.7245750427 33.2694206238 41.8644065857
-17.7195758820 33.2642745972 41.6633529663
-17.7095413208 33.2488059998 41.4601669312
-17.6965923309 33.2273597717 41.2557144165
-17.6849021912 33.2084960938 41.0517501831
-17.6784038544 33.2002792358 40.8499450684
-17.6790580750 33.2067260742 40.6511535645
-17.6867332458 33.2275619507 40.4553489685
-17.6999378204 33.2597351074 40.2619247437
-17.7169036865 33.2996139526 40.0701446533
-17.7368488312 33.3456039429 39.8796882629
-17.7603302002 33.3988342285 39.6908111572
-17.7875347137 33.4596977234 39.5036087036
-17.8159904480 33.5231246948 39.3170204163
-17.8409366608 33.5793533325 39.1289710999
-17.8585681915 33.6205940247 38.9377861023
-17.8684730530 33.6459960938 38.7432479858
-17.8728561401 33.6600761414 38.5462951660
-17.8742733002 33.6680793762 38.3480377197
-17.8742561340 33.6731414795 38.1491394043
-17.8730869293 33.6758460999 37.9497184753
-17.8699436188 33.6745071411 37.7494049072
-17.8631439209 33.6656723022 37.5474357605
-17.8511085510 33.6461067200 37.3430862427
-17.8340606689 33.6162681580 37.1364364624
-17.8150424957 33.5824012756 36.9288368225
-17.7986869812 33.5539894104 36.7223815918
-17.7886276245 33.5384788513 36.5187377930
-17.7860679626 33.5383377075 36.3184814453
-17.7900466919 33.5515937805 36.1212081909
-17.7978954315 33.5727806091 35.9257125854
-17.8055667877 33.5936050415 35.7301559448
-17.8091373444 33.6060218811 35.5327110291
-17.8071880341 33.6071357727 35.3327140808
-17.8014831543 33.6005516052 35.1309509277
-17.7947368622 33.5918350220 34.9286804199
-17.7882366180 33.5836219788 34.7264938354
-17.7821464539 33.5762481689 34.5244750977
-17.7775859833 33.5720138550 34.3231544495
-17.7778320313 33.5776252747 34.1240806580
-17.7879562378 33.6034698486 33.9296798706
-17.8130817413 33.6600532532 33.7424354553
-17.8551826477 33.7514076233 33.5633506775
-17.9101066589 33.8690261841 33.3905105591
-17.9681453705 33.9930267334 33.2193145752
-18.0185852051 34.1014518738 33.0446205139
-18.0546169281 34.1803627014 32.8631134033
-18.0751838684 34.2275924683 32.6742172241
-18.0832901001 34.2492942810 32.4793205261
-18.0830326080 34.2538604736 32.2803649902
-18.0778236389 34.2482910156 32.0789871216
-18.0704326630 34.2382507324 31.8765144348
-18.0633983612 34.2289428711 31.6741886139
-18.0587177277 34.2244529724 31.4729938507
-18.0573501587 34.2267532349 31.2734165192
-18.0593872070 34.2360267639 31.0755138397
-18.0643424988 34.2512741089 30.8790588379
-18.0709514618 34.2699050903 30.6834335327
-18.0769157410 34.2872238159 30.4874992371
-18.0792140961 34.2970275879 30.2897338867
-18.0748691559 34.2932319641 30.0886306763
-18.0622138977 34.2724151611 29.8833141327
-18.0425872803 34.2373237610 29.6744289398
-18.0209980011 34.1982116699 29.4644832611
-18.0038490295 34.1681976318 29.2567253113
-17.9949226379 34.1550254822 29.0531063080
-17.9932136536 34.1566276550 28.8531417847
-17.9945583344 34.1644859314 28.6547317505
-17.9952564240 34.1710205078 28.4559841156
-17.9942607880 34.1740837097 28.2563571930
-17.9925460815 34.1756820679 28.0563488007
-17.9913997650 34.1784400940 27.8566226959
-17.9917221069 34.1842041016 27.6576480865
-17.9943695068 34.1947326660 27.4598789215
-18.0003032684 34.2119865417 27.2638282776
-18.0100193024 34.2369842529 27.0697708130
-18.0231342316 34.2689437866 26.8775196075
-18.0388469696 34.3062171936 26.6866683960
-18.0567741394 34.3480224609 26.4970264435
-18.0772037506 34.3949508667 26.3087539673
-18.1006374359 34.4480285645 26.1221294403
-18.1271381378 34.5073852539 25.9371986389
-18.1558990479 34.5713653564 25.7535457611
-18.1853160858 34.6366844177 25.5703201294
-18.2133159637 34.6991043091 25.3864097595
-18.2373905182 34.7534866333 25.2004566193
-18.2548141479 34.7942504883 25.0109710693
-18.2638568878 34.8178596497 24.8169898987
-18.2652397156 34.8257865906 24.6188640594
-18.2622280121 34.8247222900 24.4183425903
-18.2590427399 34.8233032227 24.2177085876
-18.2587680817 34.8278427124 24.0186538696
-18.2621479034 34.8398590088 23.8215942383
-18.2678718567 34.8566741943 23.6258258820
-18.2739925385 34.8743019104 23.4302864075
-18.2794246674 34.8905181885 23.2343750000
-18.2845363617 34.9060783386 23.0382938385
-18.2906379700 34.9236640930 22.8427696228
-18.2988452911 34.9455642700 22.6484298706
-18.3089351654 34.9713096619 22.4551582336
-18.3188838959 34.9967727661 22.2618293762
-18.3257141113 35.0158462524 22.0667667389
-18.3273181915 35.0242271423 21.8687725067
-18.3240699768 35.0226821899 21.6680355072
-18.3188743591 35.0171508789 21.4661788940
-18.3154792786 35.0153045654 21.2653198242
-18.3162002563 35.0218811035 21.0667877197
-18.3208713531 35.0365371704 20.8705024719
-18.3277492523 35.0557136536 20.6754856110
-18.3353366852 35.0763359070 20.4808864594
-18.3434581757 35.0980567932 20.2866077423
-18.3530921936 35.1228713989 20.0932178497
-18.3654823303 35.1533164978 19.9014396667
-18.3811817169 35.1905364990 19.7116069794
-18.3995761871 35.2332725525 19.5233764648
-18.4191036224 35.2783241272 19.3358516693
-18.4378089905 35.3216934204 19.1478939056
-18.4537830353 35.3594703674 18.9583854675
-18.4656333923 35.3888130188 18.7664966583
-18.4730911255 35.4091644287 18.5720500946
-18.4772529602 35.4227790833 18.3756771088
-18.4801940918 35.4338912964 18.1785850525
-18.4842453003 35.4472770691 17.9821529388
-18.4912261963 35.4666557312 17.7874622345
-18.5016422272 35.4930572510 17.5948295593
-18.5144023895 35.5242576599 17.4036178589
-18.5276241302 35.5564041138 17.2127094269
-18.5400619507 35.5869407654 17.0213623047
-18.5518665314 35.6161804199 16.8296623230
-18.5640010834 35.6460952759 16.6381874084
-18.5770015717 35.6777839661 16.4472637177
-18.5902862549 35.7100524902 16.2565402985
-18.6026878357 35.7405128479 16.0653114319
-18.6136493683 35.7680282593 15.8732357025
-18.6238250732 35.7939338684 15.6807041168
-18.6345005035 35.8208618164 15.4884996414
-18.6465358734 35.8505706787 15.2971506119
-18.6600170135 35.8832359314 15.1067171097
-18.6750297546 35.9190292358 14.9172563553
-18.6924362183 35.9597206116 14.7293081284
-18.7132148743 36.0073051453 14.5434865952
-18.7367897034 36.0606079102 14.3594503403
-18.7605552673 36.1142997742 14.1755933762
-18.7816162109 36.1624565125 13.9901123047
-18.7989921570 36.2030792236 13.8023853302
-18.8139190674 36.2386970520 13.6131696701
-18.8281364441 36.2728576660 13.4235429764
-18.8422279358 36.3067588806 13.2338705063
-18.8556289673 36.3392486572 13.0437965393
-18.8678550720 36.3693351746 12.8530111313
-18.8793354034 36.3978958130 12.6617822647
-18.8910961151 36.4270324707 12.4707555771
-18.9037837982 36.4580612183 12.2803449631
-18.9172096252 36.4905967712 12.0904331207
-18.9308757782 36.5236282349 11.9007053375
-18.9446754456 36.5569267273 11.7110948563
-18.9586524963 36.5905876160 11.5216302872
-18.9721889496 36.6233482361 11.3319158554
-18.9839630127 36.6525039673 11.1410951614
-18.9928379059 36.6757316589 10.9484300613
-18.9985752106 36.6925506592 10.7537527084
-19.0016670227 36.7039566040 10.5573654175
-19.0027656555 36.7112884521 10.3596858978
-19.0024147034 36.7156562805 10.1610565186
-19.0010757446 36.7180061340 9.9617719650
-18.9992656708 36.7193946838 9.7621688843
-18.9976024628 36.7210807800 9.5626478195
-18.9967899323 36.7245101929 9.3636741638
-18.9976043701 36.7312622070 9.1657619476
-19.0007915497 36.7428627014 8.9694108963
-19.0067462921 36.7601242065 8.7748918533
-19.0151100159 36.7823028564 8.5819787979
-19.0247726440 36.8071403503 8.3899459839
-19.0343685150 36.8318405151 8.1978893280
-19.0427284241 36.8540153503 8.0050277710
-19.0490932465 36.8721122742 7.8108477592
-19.0533561707 36.8859100342 7.6152682304
-19.0562686920 36.8969497681 7.4187865257
-19.0592212677 36.9080734253 7.2223334312
-19.0637702942 36.9224548340 7.0269560814
-19.0713253021 36.9429817200 6.8336186409
-19.0829582214 36.9718399048 6.6430559158
-19.0989322662 37.0095710754 6.4554691315
-19.1182670593 37.0541648865 6.2702059746
-19.1388931274 37.1013984680 6.0858726501
-19.1586284637 37.1468086243 5.9009819031
-19.1762943268 37.1879920959 5.7147240639
-19.1922550201 37.2256851196 5.5273375511
-19.2079029083 37.2627449036 5.3397755623
-19.2242984772 37.3013267517 5.1527662277
-19.2408466339 37.3402214050 4.9659008980
-19.2554092407 37.3750610352 4.7777032852
-19.2661342621 37.4020538330 4.5868768692
-19.2732429504 37.4216613770 4.3935613632
-19.2789421082 37.4383850098 4.1992759705
-19.2857055664 37.4572830200 4.0057415962
-19.2946605682 37.4806632996 3.8137528896
-19.3052215576 37.5073204041 3.6229069233
-19.3158836365 37.5341835022 3.4321548939
-19.3254013062 37.5587081909 3.2406210899
-19.3334045410 37.5801391602 3.0480375290
-19.3402557373 37.5992164612 2.8546569347
-19.3466682434 37.6173973083 2.6609768867
-19.3533153534 37.6360588074 2.4674742222
-19.3603916168 37.6555938721 2.2742874622
-19.3673343658 37.6748580933 2.0810191631
-19.3731784821 37.6918754578 1.8869783878
-19.3772869110 37.7053489685 1.6917049885
-19.3796653748 37.7152862549 1.4951957464
-19.3806552887 37.7223930359 1.2976884842
-19.3805828094 37.7273254395 1.0994110107
-19.3797550201 37.7307167053 0.9005805850
-19.3786392212 37.7335205078 0.7015333772
-19.3779697418 37.7372360229 0.5027970672
-19.3788166046 37.7440490723 0.3051506579
-19.3828277588 37.7573242188 0.1097995192
-6.7391524315 35.1301689148 80.6473159790
-6.7362589836 35.1254844666 80.4486541748
-6.7332839966 35.1202163696 80.2499465942
-6.7307591438 35.1181831360 80.0514068604
-6.7288904190 35.1208648682 79.8531570435
-6.7276487350 35.1280517578 79.6551742554
-6.7270102501 35.1395721436 79.4574584961
-6.7269749641 35.1554298401 79.2600326538
-6.7274360657 35.1748466492 79.0628356934
-6.7281513214 35.1960906982 78.8657684326
-6.7287979126 35.2168426514 78.6686859131
-6.7291021347 35.2351303101 78.4714508057
-6.7291569710 35.2516288757 78.2741012573
-6.7296361923 35.2711753845 78.0769653320
-6.7313508987 35.2995910645 77.8804550171
-6.7343711853 35.3373756409 77.6846160889
-6.7376995087 35.3773765564 77.4889602661
-6.7398819923 35.4091453552 77.2927627563
-6.7398386002 35.4249305725 77.0954513550
-6.7372546196 35.4224739075 76.8968353271
-6.7326111794 35.4052391052 76.6971359253
-6.7270460129 35.3813896179 76.4969100952
-6.7218856812 35.3604507446 76.2968597412
-6.7179374695 35.3482170105 76.0974121094
-6.7151641846 35.3444137573 75.8985671997
-6.7130393982 35.3452682495 75.7000656128
-6.7111039162 35.3474807739 75.5016479492
-6.7091698647 35.3497047424 75.3032150269
-6.7071967125 35.3516502380 75.1047592163
-6.7051548958 35.3531036377 74.9062423706
-6.7030134201 35.3538436890 74.7076644897
-6.7007846832 35.3539581299 74.5090255737
-6.6985416412 35.3539695740 74.3103637695
-6.6963796616 35.3545646667 74.1117324829
-6.6943259239 35.3559379578 73.9131469727
-6.6922359467 35.3570518494 73.7145385742
-6.6897549629 35.3553619385 73.5156784058
-6.6864733696 35.3479309082 73.3163223267
-6.6822552681 35.3337860107 73.1163864136
-6.6774678230 35.3155593872 72.9160690308
-6.6727991104 35.2981872559 72.7157897949
-6.6688079834 35.2856788635 72.5158920288
-6.6656761169 35.2793312073 72.3164978027
-6.6633591652 35.2788314819 72.1175842285
-6.6618618965 35.2842102051 71.9191741943
-6.6612796783 35.2961463928 71.7213439941
-6.6615529060 35.3142166138 71.5240478516
-6.6622180939 35.3350982666 71.3270187378
-6.6624951363 35.3531951904 71.1297531128
-6.6617522240 35.3639793396 70.9318313599
-6.6599726677 35.3673324585 70.7332229614
-6.6577868462 35.3677749634 70.5343475342
-6.6560564041 35.3714828491 70.3357543945
-6.6553831100 35.3827667236 70.1378555298
-6.6558485031 35.4022140503 69.9407348633
-6.6570744514 35.4271087646 69.7441329956
-6.6585397720 35.4537162781 69.5477142334
-6.6599607468 35.4800033569 69.3512802124
-6.6614489555 35.5067710876 69.1549148560
-6.6633739471 35.5366630554 68.9588699341
-6.6660819054 35.5721702576 68.7634048462
-6.6696510315 35.6138381958 68.5685729980
-6.6737976074 35.6596412659 68.3741912842
-6.6779966354 35.7058143616 68.1798858643
-6.6816887856 35.7483520508 67.9852676392
-6.6844067574 35.7839164734 67.7899780273
-6.6858515739 35.8103561401 67.5937957764
-6.6859803200 35.8273696899 67.3966674805
-6.6850209236 35.8365898132 67.1987533569
-6.6833252907 35.8405418396 67.0002822876
-6.6811871529 35.8413200378 66.8014755249
-6.6787323952 35.8398361206 66.6024169922
-6.6758980751 35.8356361389 66.4030609131
-6.6724319458 35.8269157410 66.2032012939
-6.6679477692 35.8109092712 66.0025405884
-6.6621041298 35.7851715088 65.8007965088
-6.6548938751 35.7496566772 65.5979614258
-6.6468873024 35.7084503174 65.3944396973
-6.6391825676 35.6694030762 65.1910934448
-6.6329579353 35.6409568787 64.9888458252
-6.6288414001 35.6276016235 64.7882156372
-6.6265797615 35.6275253296 64.5890274048
-6.6253452301 35.6347961426 64.3906478882
-6.6244058609 35.6441802979 64.1925048828
-6.6235775948 35.6543579102 63.9944458008
-6.6231932640 35.6677131653 63.7967453003
-6.6238155365 35.6882705688 63.5998725891
-6.6259074211 35.7193412781 63.4042167664
-6.6294679642 35.7609138489 63.2098045349
-6.6337423325 35.8075904846 63.0160217285
-6.6374287605 35.8500595093 62.8217926025
-6.6395068169 35.8810157776 62.6262512207
-6.6399750710 35.9004592896 62.4293746948
-6.6397213936 35.9147453308 62.2318992615
-6.6396899223 35.9306144714 62.0346145630
-6.6401467323 35.9499702454 61.8377532959
-6.6405425072 35.9688987732 61.6408538818
-6.6399502754 35.9807548523 61.4431037903
-6.6377234459 35.9809265137 61.2439346313
-6.6339793205 35.9702491760 61.0434188843
-6.6296110153 35.9551124573 60.8423271179
-6.6257958412 35.9439392090 60.6416931152
-6.6232972145 35.9421691895 60.4422035217
-6.6220936775 35.9496612549 60.2438545227
-6.6216406822 35.9625244141 60.0461730957
-6.6214203835 35.9770431519 59.8487052917
-6.6212282181 35.9917640686 59.6512680054
-6.6210756302 36.0067710876 59.4538688660
-6.6209979057 36.0223083496 59.2565460205
-6.6210069656 36.0384674072 59.0593109131
-6.6211585999 36.0556449890 58.8622093201
-6.6215381622 36.0744476318 58.6653289795
-6.6221055984 36.0945968628 58.4686355591
-6.6225814819 36.1140861511 58.2718658447
-6.6225728989 36.1301155090 58.0746498108
-6.6218552589 36.1410789490 57.8767700195
-6.6204943657 36.1474456787 57.6782760620
-6.6187167168 36.1508407593 57.4793739319
-6.6167225838 36.1526870728 57.2802581787
-6.6146130562 36.1537094116 57.0810203552
-6.6124210358 36.1541481018 56.8816871643
-6.6101613045 36.1540985107 56.6822738647
-6.6078586578 36.1537475586 56.4828071594
-6.6055779457 36.1535530090 56.2833480835
-6.6034569740 36.1545028687 56.0840301514
-6.6017360687 36.1583061218 55.8850975037
-6.6007184982 36.1671333313 55.6868591309
-6.6006002426 36.1823768616 55.4895172119
-6.6012024879 36.2027702332 55.2929039001
-6.6018428802 36.2234306335 55.0963439941
-6.6015620232 36.2375183105 54.8988571167
-6.5996546745 36.2399940491 54.6997184753
-6.5961132050 36.2308044434 54.4988937378
-6.5916304588 36.2149047852 54.2970771790
-6.5871620178 36.1991043091 54.0952415466
-6.5834107399 36.1884269714 53.8941154480
-6.5806398392 36.1847457886 53.6939811707
-6.5788435936 36.1880264282 53.4948501587
-6.5779724121 36.1979026794 53.2966842651
-6.5778903961 36.2134132385 53.0993461609
-6.5780739784 36.2308158875 52.9022979736
-6.5774044991 36.2421302795 52.7043495178
-6.5745167732 36.2376251221 52.5040283203
-6.5687546730 36.2126159668 52.3006019592
-6.5610399246 36.1736831665 52.0950241089
-6.5537166595 36.1375427246 51.8898086548
-6.5492453575 36.1217536926 51.6876335144
-6.5487880707 36.1345939636 51.4898071289
-6.5518336296 36.1724128723 51.2958221436
-6.5568547249 36.2243194580 51.1040458679
-6.5621619225 36.2782592773 50.9126358032
-6.5664305687 36.3247871399 50.7201271057
-6.5689487457 36.3588333130 50.5257110596
-6.5696730614 36.3800888062 50.3293190002
-6.5690436363 36.3916893005 50.1314201355
-6.5676455498 36.3978118896 49.9326553345
-6.5659546852 36.4018516541 49.7335548401
-6.5643043518 36.4061737061 49.5344886780
-6.5629858971 36.4128646851 49.3357925415
-6.5623054504 36.4241027832 49.1378250122
-6.5624933243 36.4415321350 48.9408531189
-6.5636157990 36.4656219482 48.7449684143
-6.5656385422 36.4961242676 48.5501441956
-6.5684986115 36.5325889587 48.3563194275
-6.5719285011 36.5731163025 48.1631927490
-6.5752077103 36.6125640869 47.9699211121
-6.5772781372 36.6433982849 47.7752685547
-6.5772609711 36.6593551636 47.5781707764
-6.5749368668 36.6588745117 47.3783454895
-6.5708804131 36.6460609436 47.1764450073
-6.5662326813 36.6290283203 46.9738044739
-6.5622305870 36.6166038513 46.7719078064
-6.5597362518 36.6149253845 46.5717926025
-6.5589876175 36.6256752014 46.3737716675
-6.5595993996 36.6461143494 46.1773986816
-6.5607604980 36.6704635620 45.9817085266
-6.5616064072 36.6925697327 45.7856483459
-6.5616188049 36.7087364197 45.5885810852
-6.5607676506 36.7187576294 45.3904571533
-6.5593428612 36.7246932983 45.1916236877
-6.5577206612 36.7292213440 44.9925384521
-6.5562791824 36.7350387573 44.7936706543
-6.5553998947 36.7448616028 44.5954971313
-6.5553860664 36.7608413696 44.3984069824
-6.5562496185 36.7830657959 44.2024269104
-6.5575928688 36.8087081909 44.0070686340
-6.5588045120 36.8334083557 43.8115577698
-6.5594592094 36.8541450500 43.6153564453
-6.5595593452 36.8709297180 43.4184646606
-6.5594615936 36.8863143921 43.2213211060
-6.5596466064 36.9037017822 43.0245475769
-6.5604557991 36.9255332947 42.8285903931
-6.5618577003 36.9515838623 42.6334075928
-6.5633649826 36.9783821106 42.4383850098
-6.5642728806 37.0009117126 42.2425994873
-6.5640811920 37.0156173706 42.0453910828
-6.5627441406 37.0221748352 41.8466873169
-6.5605731010 37.0228004456 41.6468811035
-6.5580058098 37.0206108093 41.4465370178
-6.5555400848 37.0191421509 41.2463073730
-6.5538201332 37.0229797363 41.0470581055
-6.5535750389 37.0373077393 40.8497657776
-6.5552425385 37.0652351379 40.6550369263
-6.5585603714 37.1049003601 40.4625434875
-6.5625772476 37.1495323181 40.2710304260
-6.5661354065 37.1908988953 40.0789375305
-6.5684390068 37.2233390808 39.8851814270
-6.5693240166 37.2456970215 39.6895256042
-6.5691571236 37.2605705261 39.4924430847
-6.5685653687 37.2724266052 39.2947845459
-6.5681920052 37.2858314514 39.0974311829
-6.5685133934 37.3041763306 38.9010353088
-6.5697050095 37.3287086487 38.7058525085
-6.5716366768 37.3584976196 38.5117149353
-6.5740113258 37.3914337158 38.3182144165
-6.5764670372 37.4249382019 38.1248550415
-6.5785527229 37.4558181763 37.9310073853
-6.5797767639 37.4805717468 37.7359733582
-6.5798010826 37.4967956543 37.5392684937
-6.5785346031 37.5038490295 37.3407402039
-6.5760130882 37.5019836426 37.1404266357
-6.5723075867 37.4917106628 36.9384117126
-6.5676674843 37.4747962952 36.7350349426
-6.5626573563 37.4552612305 36.5310935974
-6.5579924583 37.4381790161 36.3276100159
-6.5541653633 37.4270515442 36.1252975464
-6.5512585640 37.4224624634 35.9242897034
-6.5490741730 37.4230041504 35.7243080139
-6.5473575592 37.4268722534 35.5249938965
-6.5458960533 37.4325523376 35.3260421753
-6.5445127487 37.4387855530 35.1272010803
-6.5430393219 37.4443817139 34.9282188416
-6.5413269997 37.4482841492 34.7288780212
-6.5392780304 37.4497947693 34.5290298462
-6.5368752480 37.4487915039 34.3286476135
-6.5342049599 37.4458923340 34.1278533936
-6.5314679146 37.4425239563 33.9269409180
-6.5289645195 37.4408111572 33.7263603210
-6.5270409584 37.4432182312 33.5266304016
-6.5260300636 37.4521026611 33.3282623291
-6.5261874199 37.4692840576 33.1316566467
-6.5275964737 37.4953422546 32.9369506836
-6.5300354958 37.5287132263 32.7438278198
-6.5329751968 37.5656318665 32.5514945984
-6.5358595848 37.6021575928 32.3591079712
-6.5385050774 37.6369857788 32.1663894653
-6.5411868095 37.6720695496 31.9737548828
-6.5443186760 37.7103424072 31.7818450928
-6.5480813980 37.7530860901 31.5909442902
-6.5523424149 37.7993659973 31.4008541107
-6.5567836761 37.8469200134 31.2110881805
-6.5610504150 37.8932304382 31.0210971832
-6.5649347305 37.9368286133 30.8305530548
-6.5685896873 37.9787940979 30.6396903992
-6.5724906921 38.0224990845 30.4492530823
-6.5769891739 38.0704421997 30.2597999573
-6.5818095207 38.1206588745 30.0708999634
-6.5860586166 38.1668243408 29.8811435699
-6.5888323784 38.2025260925 29.6890907288
-6.5898246765 38.2255897522 29.4942264557
-6.5893688202 38.2383842468 29.2970657349
-6.5880260468 38.2448921204 29.0984859467
-6.5862169266 38.2480926514 28.8991489410
-6.5841431618 38.2494163513 28.6993789673
-6.5818815231 38.2494125366 28.4992904663
-6.5794920921 38.2485008240 28.2989826202
-6.5770988464 38.2475662231 28.0986518860
-6.5749673843 38.2484855652 27.8987331390
-6.5735788345 38.2546730042 27.7000160217
-6.5736413002 38.2711448669 27.5036697388
-6.5758862495 38.3030815125 27.3109149933
-6.5806097984 38.3525848389 27.1222686768
-6.5872287750 38.4155120850 26.9368019104
-6.5943317413 38.4818649292 26.7522010803
-6.6003351212 38.5404205322 26.5658454895
-6.6042442322 38.5841331482 26.3760623932
-6.6059341431 38.6121177673 26.1826152802
-6.6058936119 38.6278419495 25.9862937927
-6.6047925949 38.6360588074 25.7881984711
-6.6031880379 38.6407012939 25.5892505646
-6.6014447212 38.6443634033 25.3900623322
-6.5997967720 38.6487045288 25.1910247803
-6.5984416008 38.6551208496 24.9924755096
-6.5976142883 38.6652755737 24.7948188782
-6.5976009369 38.6811904907 24.5985488892
-6.5986523628 38.7046470642 24.4041061401
-6.6008367538 38.7361297607 24.2116203308
-6.6039590836 38.7742462158 24.0207710266
-6.6076426506 38.8163375854 23.8309249878
-6.6114630699 38.8593902588 23.6413536072
-6.6149878502 38.9003486633 23.4513111115
-6.6178245544 38.9364318848 23.2601127625
-6.6197466850 38.9660377502 23.0673522949
-6.6207752228 38.9893188477 22.8730545044
-6.6211309433 39.0078353882 22.6775970459
-6.6211428642 39.0239181519 22.4815444946
-6.6211953163 39.0402870178 22.2855701447
-6.6216835976 39.0597381592 22.0903701782
-6.6228818893 39.0842170715 21.8964366913
-6.6247429848 39.1133804321 21.7036952972
-6.6267933846 39.1438827515 21.5113124847
-6.6283340454 39.1707763672 21.3180465698
-6.6288514137 39.1904296875 21.1229724884
-6.6282858849 39.2024230957 20.9259719849
-6.6269698143 39.2090988159 20.7276248932
-6.6253890991 39.2139091492 20.5287971497
-6.6240210533 39.2202262878 20.3303451538
-6.6232638359 39.2308578491 20.1329917908
-6.6233396530 39.2473869324 19.9371471405
-6.6241536140 39.2691307068 19.7426490784
-6.6253156662 39.2933387756 19.5488014221
-6.6264743805 39.3175201416 19.3549633026
-6.6276731491 39.3419876099 19.1612148285
-6.6293601990 39.3699035645 18.9683780670
-6.6320910454 39.4051971436 18.7774829865
-6.6361713409 39.4500312805 18.5891075134
-6.6413283348 39.5024757385 18.4027652740
-6.6465997696 39.5557212830 18.2166862488
-6.6507554054 39.6010780334 18.0285873413
-6.6530361176 39.6331748962 17.8370437622
-6.6534905434 39.6523590088 17.6421165466
-6.6526780128 39.6625900269 17.4448318481
-6.6511874199 39.6680259705 17.2462730408
-6.6494131088 39.6714630127 17.0471763611
-6.6475839615 39.6745071411 16.8479652405
-6.6458568573 39.6782722473 16.6489372253
-6.6443877220 39.6838645935 16.4503879547
-6.6434049606 39.6928939819 16.2527542114
-6.6432895660 39.7080535889 16.0567684174
-6.6445450783 39.7328948975 15.8634014130
-6.6474933624 39.7696952820 15.6732845306
-6.6519126892 39.8168907166 15.4860191345
-6.6570882797 39.8694152832 15.3002490997
-6.6622719765 39.9220008850 15.1145486832
-6.6669769287 39.9711990356 14.9279775620
-6.6708402634 40.0144462585 14.7398271561
-6.6734857559 40.0490913391 14.5493583679
-6.6747236252 40.0737876892 14.3561859131
-6.6747941971 40.0902442932 14.1607589722
-6.6743383408 40.1029815674 13.9643115997
-6.6741213799 40.1174049377 13.7683334351
-6.6747341156 40.1376876831 13.5739860535
-6.6763882637 40.1653213501 13.3816957474
-6.6789031029 40.1990318298 13.1911211014
-6.6819415092 40.2364349365 13.0016078949
-6.6852765083 40.2759246826 12.8127145767
-6.6887550354 40.3164291382 12.6241416931
-6.6920657158 40.3557472229 12.4352731705
-6.6947274208 40.3904800415 12.2451477051
-6.6963739395 40.4180488586 12.0530271530
-6.6969647408 40.4381599426 11.8588151932
-6.6967072487 40.4522857666 11.6629152298
-6.6958742142 40.4623451233 11.4658632278
-6.6947107315 40.4700775146 11.2681446075
-6.6934251785 40.4769477844 11.0701751709
-6.6921954155 40.4842109680 10.8723134995
-6.6911888123 40.4930496216 10.6749000549
-6.6905999184 40.5048332214 10.4783315659
-6.6906485558 40.5211181641 10.2830610275
-6.6914672852 40.5428352356 10.0893707275
-6.6929211617 40.5690269470 9.8969898224
-6.6945691109 40.5965919495 9.7050275803
-6.6959447861 40.6222305298 9.5125255585
-6.6969323158 40.6451339722 9.3192443848
-6.6978354454 40.6674385071 9.1258039474
-6.6990270615 40.6917800903 8.9329748154
-6.7005791664 40.7186546326 8.7409076691
-6.7022714615 40.7465209961 8.5491523743
-6.7039031982 40.7739601135 8.3572931290
-6.7055220604 40.8013038635 8.1654272079
-6.7073831558 40.8303527832 7.9740877151
-6.7097463608 40.8629417419 7.7838220596
-6.7126607895 40.8994140625 7.5947403908
-6.7159204483 40.9383201599 7.4064173698
-6.7192673683 40.9778327942 7.2183122635
-6.7226099968 41.0173187256 7.0302357674
-6.7259640694 41.0568771362 6.8422183990
-6.7292256355 41.0957832336 6.6540408134
-6.7322373390 41.1329231262 6.4653682709
-6.7351775169 41.1695594788 6.2765765190
-6.7388038635 41.2110290527 6.0892810822
-6.7441902161 41.2648925781 5.9057869911
-6.7520933151 41.3364868164 5.7277388573
-6.7624206543 41.4251594543 5.5549731255
-6.7741894722 41.5239753723 5.3854060173
-6.7859120369 41.6224555969 5.2158508301
-6.7960000038 41.7094154358 5.0428748131
-6.8030400276 41.7748947144 4.8633966446
-6.8062267303 41.8132286072 4.6756291389
-6.8058447838 41.8264198303 4.4801387787
-6.8031706810 41.8234672546 4.2796578407
-6.7997255325 41.8150863647 4.0774784088
-6.7966117859 41.8090400696 3.8759977818
-6.7944087982 41.8094100952 3.6764912605
-6.7934012413 41.8181991577 3.4795975685
-6.7937045097 41.8362236023 3.2855854034
-6.7951898575 41.8625640869 3.0941879749
-6.7974338531 41.8942451477 2.9044861794
-6.7999043465 41.9275207520 2.7153120041
-6.8022828102 41.9601440430 2.5259616375
-6.8046178818 41.9924583435 2.3365423679
-6.8072390556 42.0267906189 2.1477882862
-6.8106083870 42.0663795471 1.9607319832
-6.8151698112 42.1143608093 1.7763782740
-6.8211035728 42.1719932556 1.5951449871
-6.8280673027 42.2368736267 1.4162839651
-6.8352589607 42.3033523560 1.2380040884
-6.8418192863 42.3653793335 1.0583709478
-6.8471431732 42.4187011719 0.8760104775
-6.8508610725 42.4607200623 0.6900696158
-6.8527898788 42.4901466370 0.5001116991
-6.8531436920 42.5084915161 0.3065991700
-6.8528442383 42.5222396851 0.1116092056
4.4947800636 35.7522468567 80.4647445679
4.4935989380 35.7329254150 80.2653732300
4.4913525581 35.7075996399 80.0655975342
4.4907355309 35.6914443970 79.8663482666
4.4933633804 35.6935462952 79.6682205200
4.4992470741 35.7139739990 79.4712600708
4.5070872307 35.7454147339 79.2750244141
4.5148510933 35.7764282227 79.0787887573
4.5205230713 35.7956657410 78.8817977905
4.5228867531 35.7962837219 78.6835784912
4.5219964981 35.7785797119 78.4841232300
4.5190448761 35.7492752075 78.2838439941
4.5156631470 35.7175445557 78.0833435059
4.5131034851 35.6904335022 77.8831100464
4.5118484497 35.6706695557 77.6833419800
4.5117859840 35.6576156616 77.4840087891
4.5125913620 35.6494445801 77.2849960327
4.5139918327 35.6446266174 77.0861968994
4.5158209801 35.6422233582 76.8875503540
4.5179681778 35.6416053772 76.6890182495
4.5203142166 35.6421089172 76.4905548096
4.5226879120 35.6427650452 76.2920989990
4.5248417854 35.6421852112 76.0935287476
4.5264286995 35.6384086609 75.8947067261
4.5270347595 35.6291084290 75.6954421997
4.5263509750 35.6125373840 75.4956054688
4.5245308876 35.5895690918 75.2952270508
4.5225262642 35.5655555725 75.0947341919
4.5219588280 35.5496368408 74.8948287964
4.5242872238 35.5500259399 74.6961822510
4.5297532082 35.5680961609 74.4989395142
4.5370831490 35.5966682434 74.3025512695
4.5443115234 35.6246643066 74.1061401367
4.5500020981 35.6440010071 73.9090423584
4.5538167953 35.6527671814 73.7110900879
4.5561609268 35.6532478333 73.5124435425
4.5575394630 35.6482849121 73.3133239746
4.5583825111 35.6403045654 73.1139373779
4.5593371391 35.6329536438 72.9145736694
4.5612797737 35.6311645508 72.7156677246
4.5647492409 35.6379814148 72.5174865723
4.5694847107 35.6519355774 72.3199234009
4.5747122765 35.6686592102 72.1226119995
4.5798096657 35.6846542358 71.9252395630
4.5845589638 35.6986885071 71.7276992798
4.5888566971 35.7101745605 71.5299377441
4.5924901962 35.7179183960 71.3318405151
4.5953006744 35.7210197449 71.1333160400
4.5973696709 35.7199401855 70.9344024658
4.5988564491 35.7155761719 70.7351760864
4.5997204781 35.7077026367 70.5355987549
4.5997123718 35.6949081421 70.3355484009
4.5986514091 35.6761741638 70.1349029541
4.5967454910 35.6526718140 69.9337692261
4.5946998596 35.6283836365 69.7325210571
4.5934844017 35.6087722778 69.5316772461
4.5939917564 35.5988731384 69.3317337036
4.5968852043 35.6024322510 69.1330718994
4.6025099754 35.6213912964 68.9358978271
4.6105613708 35.6540451050 68.7400894165
4.6198387146 35.6936111450 68.5449905396
4.6286983490 35.7308273315 68.3497009277
4.6360030174 35.7592697144 68.1535568237
4.6416168213 35.7781791687 67.9564819336
4.6460728645 35.7905540466 67.7587509155
4.6499567032 35.7997055054 67.5606918335
4.6536016464 35.8075027466 67.3624877930
4.6571216583 35.8145980835 67.1642150879
4.6605453491 35.8211479187 66.9658813477
4.6638870239 35.8272361755 66.7674942017
4.6671509743 35.8328857422 66.5690536499
4.6703171730 35.8379821777 66.3705444336
4.6733388901 35.8422660828 66.1719512939
4.6761627197 35.8454246521 65.9732208252
4.6787528992 35.8472709656 65.7743453979
4.6811251640 35.8478851318 65.5753250122
4.6833815575 35.8478431702 65.3762130737
4.6857495308 35.8484344482 65.1771697998
4.6885728836 35.8515892029 64.9783859253
4.6921615601 35.8590698242 64.7800827026
4.6965422630 35.8710174561 64.5822677612
4.7013173103 35.8851928711 64.3847122192
4.7058749199 35.8981399536 64.1870193481
4.7097940445 35.9074821472 63.9889183044
4.7130575180 35.9131240845 63.7903938293
4.7159090042 35.9164390564 63.5915985107
4.7186064720 35.9188842773 63.3926887512
4.7212967873 35.9212875366 63.1937675476
4.7240362167 35.9239654541 62.9948692322
4.7268605232 35.9271240234 62.7960166931
4.7298521996 35.9312248230 62.5972671509
4.7331895828 35.9372825623 62.3987426758
4.7371530533 35.9468727112 62.2006301880
4.7420449257 35.9617080688 62.0031509399
4.7480697632 35.9829406738 61.8064460754
4.7552371025 36.0106315613 61.6105422974
4.7632875443 36.0433120728 61.4152679443
4.7716088295 36.0775260925 61.2202072144
4.7792940140 36.1081466675 61.0247383118
4.7855024338 36.1304244995 60.8282585144
4.7899031639 36.1424903870 60.6305236816
4.7927565575 36.1458129883 60.4316978455
4.7945961952 36.1434059143 60.2321434021
4.7958827019 36.1378746033 60.0321769714
4.7968993187 36.1308135986 59.8319931030
4.7978081703 36.1231460571 59.6317138672
4.7987389565 36.1156005859 59.4314231873
4.7998399734 36.1090164185 59.2312355042
4.8012971878 36.1044387817 59.0312881470
4.8032932281 36.1029090881 58.8317184448
4.8059372902 36.1050415039 58.6326103210
4.8092150688 36.1107521057 58.4339637756
4.8130297661 36.1195030212 58.2357139587
4.8173031807 36.1308441162 58.0378036499
4.8220386505 36.1447982788 57.8402481079
4.8272261620 36.1613082886 57.6430358887
4.8325948715 36.1788406372 57.4459686279
4.8375492096 36.1940345764 57.2485961914
4.8414831161 36.2034568787 57.0504455566
4.8441109657 36.2054939270 56.8512840271
4.8454227448 36.2000885010 56.6510887146
4.8455495834 36.1879806519 56.4499511719
4.8448824883 36.1713829041 56.2481613159
4.8440937996 36.1540946960 56.0462417603
4.8437514305 36.1393280029 55.8446388245
4.8439192772 36.1274452209 55.6434097290
4.8441982269 36.1161880493 55.4422416687
4.8441491127 36.1030731201 55.2407798767
4.8437809944 36.0881538391 55.0390319824
4.8437690735 36.0752487183 54.8375396729
4.8451690674 36.0703239441 54.6371650696
4.8487477303 36.0777244568 54.4385490417
4.8544421196 36.0970993042 54.2416687012
4.8614039421 36.1236381531 54.0458374023
4.8686118126 36.1515769958 53.8502349854
4.8756160736 36.1783638000 53.6544837952
4.8828158379 36.2062530518 53.4589195251
4.8909988403 36.2397155762 53.2642021179
4.9004673958 36.2804489136 53.0705947876
4.9105439186 36.3246269226 52.8775405884
4.9200615883 36.3656425476 52.6840591431
4.9283490181 36.3997039795 52.4895629883
4.9355759621 36.4277610779 52.2941932678
4.9421062469 36.4518775940 52.0982475281
4.9477233887 36.4708251953 51.9015274048
4.9516305923 36.4800987244 51.7033386230
4.9531645775 36.4759330750 51.5030746460
4.9524774551 36.4591941833 51.3008537292
4.9506015778 36.4357223511 51.0975532532
4.9489130974 36.4133110046 50.8943710327
4.9484963417 36.3980941772 50.6922760010
4.9498920441 36.3931427002 50.4917602539
4.9532361031 36.3992156982 50.2929649353
4.9584035873 36.4156150818 50.0957984924
4.9649119377 36.4396095276 49.8998489380
4.9717931747 36.4657135010 49.7042541504
4.9777941704 36.4868392944 49.5078773499
4.9819102287 36.4972839355 49.3097991943
4.9838647842 36.4954948425 49.1097450256
4.9842662811 36.4849052429 48.9082450867
4.9843931198 36.4727554321 48.7064628601
4.9857211113 36.4674110413 48.5057678223
4.9894118309 36.4754447937 48.3072471619
4.9959812164 36.4997863770 48.1114120483
5.0052208900 36.5392570496 47.9180984497
5.0163140297 36.5892333984 47.7265663147
5.0281195641 36.6432418823 47.5357589722
5.0394754410 36.6947097778 47.3445816040
5.0494017601 36.7380867004 47.1520996094
5.0572919846 36.7699241638 46.9577102661
5.0631499290 36.7902488708 46.7614021301
5.0676832199 36.8030662537 46.5638275146
5.0720744133 36.8150825500 46.3661231995
5.0775189400 36.8330650330 46.1694412231
5.0847163200 36.8609809875 45.9744758606
5.0935301781 36.8980674744 45.7811126709
5.1030292511 36.9390296936 45.5884590149
5.1119084358 36.9764862061 45.3952369690
5.1190767288 37.0042457581 45.2003555298
5.1240448952 37.0195388794 45.0033111572
5.1268992424 37.0228462219 44.8041687012
5.1280288696 37.0163764954 44.6032943726
5.1279754639 37.0032005310 44.4012107849
5.1274304390 36.9872322083 44.1986045837
5.1270937920 36.9724464417 43.9961700439
5.1273846626 36.9612121582 43.7943420410
5.1283464432 36.9537849426 43.5931663513
5.1298632622 36.9495010376 43.3925361633
5.1318979263 36.9481544495 43.1924209595
5.1344580650 36.9497833252 42.9928283691
5.1373481750 36.9532852173 42.7935676575
5.1400527954 36.9557304382 42.5941047668
5.1420230865 36.9540176392 42.3938674927
