19.9098491669 -38.7374343872 4.2439756393
19.9401092529 -38.8043136597 4.0678267479
19.9615287781 -38.8531265259 3.8855481148
19.9741535187 -38.8839721680 3.6971359253
19.9798984528 -38.9007682800 3.5039017200
19.9809417725 -38.9079551697 3.3073532581
19.9790134430 -38.9090766907 3.1086974144
19.9759273529 -38.9078330994 2.9092049599
19.9741973877 -38.9093589783 2.7106614113
19.9765987396 -38.9193229675 2.5150468349
19.9847488403 -38.9410247803 2.3235349655
19.9981327057 -38.9734230042 2.1357827187
20.0144748688 -39.0118598938 1.9501831532
20.0310077667 -39.0506858826 1.7647584677
20.0456562042 -39.0856628418 1.5780180693
20.0576877594 -39.1152877808 1.3894243240
20.0677299500 -39.1408576965 1.1994221210
20.0772686005 -39.1653938293 1.0090755224
20.0877914429 -39.1919441223 0.8194629550
20.1000480652 -39.2220306396 0.6311337948
20.1139774323 -39.2555351257 0.4440498352
20.1294727325 -39.2922325134 0.2581412792
20.1471576691 -39.3334045410 0.0738715008
6.9454650879 -36.6126976013 80.7360687256
6.9391584396 -36.5834121704 80.5368576050
6.9311141968 -36.5416450500 80.3368301392
6.9239397049 -36.5061340332 80.1371307373
6.9187979698 -36.4852294922 79.9382781982
6.9152812958 -36.4760055542 79.7401199341
6.9124159813 -36.4714622498 79.5422363281
6.9095277786 -36.4667549133 79.3443222046
6.9064569473 -36.4607353210 79.1463088989
6.9034142494 -36.4549217224 78.9482803345
6.9008188248 -36.4523239136 78.7504425049
6.8991603851 -36.4564552307 78.5530395508
6.8988285065 -36.4701118469 78.3562698364
6.8998947144 -36.4938087463 78.1601943970
6.9019594193 -36.5246734619 77.9646148682
6.9042291641 -36.5570144653 77.7691726685
6.9059166908 -36.5851669312 77.5734558105
6.9066767693 -36.6066589355 77.3772964478
6.9066910744 -36.6227989197 77.1807708740
6.9064021111 -36.6367607117 76.9840927124
6.9062891006 -36.6519851685 76.7875061035
6.9066863060 -36.6708679199 76.5911941528
6.9073991776 -36.6920204163 76.3950653076
6.9074687958 -36.7085533142 76.1986007690
6.9058136940 -36.7127075195 76.0012130737
6.9022879601 -36.7034339905 75.8028030396
6.8978080750 -36.6873207092 75.6038436890
6.8934235573 -36.6718902588 75.4049072266
6.8896017075 -36.6605033875 75.2062454224
6.8864011765 -36.6535758972 75.0079116821
6.8839068413 -36.6517181396 74.8099441528
6.8823051453 -36.6562652588 74.6124801636
6.8817090988 -36.6680221558 74.4155807495
6.8820362091 -36.6864089966 74.2192153931
6.8829636574 -36.7090988159 74.0232086182
6.8839321136 -36.7320785522 73.8272399902
6.8843050003 -36.7507896423 73.6309356689
6.8836078644 -36.7618255615 73.4340057373
6.8816351891 -36.7637100220 73.2363052368
6.8784122467 -36.7566299438 73.0378341675
6.8742198944 -36.7426033020 72.8387527466
6.8696279526 -36.7257118225 72.6393890381
6.8653039932 -36.7107429504 72.4401626587
6.8616685867 -36.7007179260 72.2413253784
6.8587479591 -36.6958122253 72.0429153442
6.8563518524 -36.6946754456 71.8448181152
6.8543415070 -36.6963005066 71.6469497681
6.8527436256 -36.7008895874 71.4493408203
6.8517017365 -36.7094612122 71.2520751953
6.8513064384 -36.7226676941 71.0552291870
6.8513793945 -36.7392311096 70.8586959839
6.8513951302 -36.7553825378 70.6621246338
6.8507041931 -36.7664680481 70.4650955200
6.8488941193 -36.7695350647 70.2673187256
6.8459472656 -36.7644577026 70.0687637329
6.8421578407 -36.7533454895 69.8696212769
6.8380198479 -36.7397308350 69.6702117920
6.8341102600 -36.7277641296 69.4709243774
6.8308877945 -36.7207183838 69.2720870972
6.8285961151 -36.7203407288 69.0738754272
6.8274569511 -36.7282257080 68.8764495850
6.8277907372 -36.7466583252 68.6800689697
6.8296556473 -36.7760581970 68.4847793579
6.8324270248 -36.8119506836 68.2901535034
6.8350062370 -36.8464622498 68.0954284668
6.8365206718 -36.8733482361 67.8999633789
6.8367419243 -36.8909683228 67.7035751343
6.8359079361 -36.9010314941 67.5064239502
6.8343391418 -36.9058341980 67.3087310791
6.8322105408 -36.9066276550 67.1106109619
6.8295121193 -36.9033432007 66.9120559692
6.8261570930 -36.8953628540 66.7129898071
6.8221983910 -36.8830528259 66.5134429932
6.8179736137 -36.8688468933 66.3136672974
6.8140106201 -36.8565177917 66.1140594482
6.8108029366 -36.8495979309 65.9150085449
6.8087635040 -36.8510437012 65.7168273926
6.8083376884 -36.8640365601 65.5198898315
6.8098793030 -36.8911094666 65.3245010376
6.8131337166 -36.9304389954 65.1304702759
6.8168110847 -36.9727973938 64.9368133545
6.8188977242 -37.0037651062 64.7419281006
6.8177132607 -37.0113220215 64.5444488525
6.8129673004 -36.9934005737 64.3441085815
6.8060016632 -36.9595985413 64.1419372559
6.7989883423 -36.9254608154 63.9396705627
6.7937369347 -36.9039268494 63.7387847900
6.7910022736 -36.9004096985 63.5399284363
6.7905621529 -36.9132995605 63.3429489136
6.7917046547 -36.9375152588 63.1472892761
6.7937445641 -36.9681472778 62.9523925781
6.7962083817 -37.0018081665 62.7578811646
6.7986383438 -37.0352287292 62.5633659363
6.8004631996 -37.0643157959 62.3683662415
6.8012681007 -37.0861091614 62.1725196838
6.8011074066 -37.1009902954 61.9758567810
6.8004121780 -37.1120567322 61.7787399292
6.7996816635 -37.1228675842 61.5815887451
6.7993144989 -37.1362762451 61.3847579956
6.7996177673 -37.1544761658 61.1885147095
6.8007841110 -37.1788482666 60.9930419922
6.8027234077 -37.2087440491 60.7982673645
6.8049378395 -37.2406044006 60.6037635803
6.8066678047 -37.2690010071 60.4088516235
6.8072552681 -37.2892265320 60.2129364014
6.8063936234 -37.2990989685 60.0157241821
6.8041186333 -37.2988624573 59.8172302246
6.8006882668 -37.2903785706 59.6176643372
6.7965240479 -37.2766456604 59.4174041748
6.7921667099 -37.2615394592 59.2169342041
6.7881746292 -37.2490463257 59.0167694092
6.7849593163 -37.2421035767 58.8172950745
6.7826652527 -37.2417449951 58.6186637878
6.7811641693 -37.2470512390 58.4207572937
6.7801513672 -37.2558479309 58.2233085632
6.7793130875 -37.2658920288 58.0260200500
6.7785220146 -37.2762756348 57.8287773132
6.7779870033 -37.2884864807 57.6317749023
6.7782092094 -37.3061027527 57.4355049133
6.7795681953 -37.3318443298 57.2403411865
6.7816996574 -37.3630943298 57.0459442139
6.7833328247 -37.3907852173 56.8510894775
6.7830390930 -37.4047164917 56.6543655396
6.7802329063 -37.4007034302 56.4551773071
6.7754302025 -37.3824386597 56.2539939880
6.7697906494 -37.3582000732 56.0519447327
6.7645568848 -37.3368682861 55.8502540588
6.7606401443 -37.3249359131 55.6498413086
6.7583947182 -37.3249397278 55.4510841370
6.7576785088 -37.3358612061 55.2538566589
6.7580404282 -37.3544769287 55.0577239990
6.7588653564 -37.3763961792 54.8620758057
6.7595572472 -37.3973655701 54.6663017273
6.7597689629 -37.4149093628 54.4700469971
6.7594819069 -37.4288902283 54.2732849121
6.7588644028 -37.4405136108 54.0761871338
6.7580833435 -37.4509658813 53.8789138794
6.7572278976 -37.4608917236 53.6815681458
6.7563495636 -37.4706573486 53.4841918945
6.7555351257 -37.4808692932 53.2868843079
6.7549457550 -37.4926986694 53.0898132324
6.7547969818 -37.5076637268 52.8932113647
6.7552261353 -37.5267524719 52.6972351074
6.7560935020 -37.5489692688 52.5017356873
6.7569007874 -37.5707511902 52.3061904907
6.7570128441 -37.5875778198 52.1099014282
6.7560439110 -37.5966911316 51.9124450684
6.7540159225 -37.5982513428 51.7138328552
6.7511472702 -37.5938186646 51.5142860413
6.7475686073 -37.5843238831 51.3139381409
6.7432899475 -37.5698432922 51.1127929688
6.7384366989 -37.5512619019 50.9109764099
6.7334403992 -37.5316696167 50.7089614868
6.7288956642 -37.5152931213 50.5074157715
6.7252025604 -37.5049934387 50.3067893982
6.7223944664 -37.5010108948 50.1071357727
6.7202968597 -37.5020904541 49.9082679749
6.7187976837 -37.5074348450 49.7100677490
6.7179737091 -37.5175933838 49.5126304626
6.7179875374 -37.5337257385 49.3161506653
6.7188582420 -37.5559616089 49.1206626892
6.7203283310 -37.5824699402 48.9258804321
6.7220249176 -37.6105918884 48.7313842773
6.7237730026 -37.6390762329 48.5369644165
6.7256822586 -37.6687126160 48.3427581787
6.7278785706 -37.7003860474 48.1489105225
6.7301802635 -37.7328109741 47.9552116394
6.7321043015 -37.7625427246 47.7610969543
6.7331557274 -37.7860565186 47.5659675598
6.7330799103 -37.8015403748 47.3695144653
6.7318696976 -37.8089370728 47.1717109680
6.7296247482 -37.8089675903 46.9726600647
6.7264156342 -37.8021316528 46.7724380493
6.7221984863 -37.7881202698 46.5709724426
6.7168560028 -37.7660942078 46.3681106567
6.7104134560 -37.7362327576 46.1638717651
6.7033276558 -37.7018051147 45.9587936401
6.6965689659 -37.6697044373 45.7540588379
6.6913003922 -37.6482162476 45.5511016846
6.6882824898 -37.6427612305 45.3508872986
6.6874365807 -37.6527709961 45.1533432007
6.6879653931 -37.6725692749 44.9575080872
6.6889166832 -37.6953735352 44.7622108459
6.6896657944 -37.7167396545 44.5666732788
6.6900038719 -37.7351722717 44.3706359863
6.6900048256 -37.7512092590 44.1741790771
6.6899275780 -37.7666893005 43.9776306152
6.6901941299 -37.7846145630 43.7815246582
6.6912903786 -37.8084449768 43.5864868164
6.6934914589 -37.8401336670 43.3928794861
6.6966176033 -37.8784065247 43.2004852295
6.7002062798 -37.9199676514 43.0087203979
6.7040519714 -37.9633522034 42.8173294067
6.7084269524 -38.0105018616 42.6266632080
6.7135429382 -38.0629196167 42.4370117188
6.7188992500 -38.1170425415 42.2477226257
6.7234416008 -38.1653671265 42.0574226379
6.7263956070 -38.2023887634 41.8650779724
6.7277617455 -38.2281188965 41.6706695557
6.7280416489 -38.2461166382 41.4748420715
6.7277069092 -38.2597465515 41.2782058716
6.7269692421 -38.2705039978 41.0810356140
6.7259378433 -38.2791786194 40.8834686279
6.7249069214 -38.2878532410 40.6859054565
6.7243690491 -38.3000335693 40.4889984131
6.7246189117 -38.3178215027 40.2931594849
6.7254352570 -38.3396301270 40.0980987549
6.7263035774 -38.3618087769 39.9031181335
6.7268867493 -38.3819580078 39.7077674866
6.7271742821 -38.4000053406 39.5120201111
6.7273230553 -38.4170684814 39.3160934448
6.7275385857 -38.4346008301 39.1202659607
6.7280902863 -38.4545249939 38.9249076843
6.7292652130 -38.4788780212 38.7304306030
6.7311577797 -38.5083274841 38.5369644165
6.7335066795 -38.5410194397 38.3441619873
6.7358226776 -38.5734786987 38.1513404846
6.7377419472 -38.6031112671 37.9579887390
6.7392935753 -38.6301345825 37.7641410828
6.7409482002 -38.6578826904 37.5704574585
6.7434802055 -38.6918640137 37.3780441284
6.7475867271 -38.7370338440 37.1878967285
6.7532539368 -38.7932853699 37.0000228882
6.7594008446 -38.8529396057 36.8128967285
6.7643928528 -38.9043884277 36.6241683960
6.7670917511 -38.9395408630 36.4321861267
6.7674098015 -38.9577789307 36.2367935181
6.7660107613 -38.9638214111 36.0389175415
6.7637300491 -38.9636039734 35.8397521973
6.7612571716 -38.9620208740 35.6402969360
6.7590360641 -38.9622268677 35.4411888123
6.7571644783 -38.9649162292 35.2425842285
6.7552828789 -38.9675369263 35.0439529419
6.7526755333 -38.9650039673 34.8442382813
6.7487516403 -38.9531250000 34.6425590515
6.7435727119 -38.9323425293 34.4389839172
6.7377953529 -38.9073104858 34.2344779968
6.7320404053 -38.8824386597 34.0299568176
6.7264995575 -38.8590927124 33.8257141113
6.7212610245 -38.8378982544 33.6218833923
6.7168173790 -38.8223495483 33.4192085266
6.7140665054 -38.8188133240 33.2190628052
6.7138137817 -38.8330116272 33.0226898193
6.7163038254 -38.8666725159 32.8304939270
6.7210559845 -38.9163856506 32.6417770386
6.7269573212 -38.9742507935 32.4548721313
6.7325687408 -39.0300521851 32.2675819397
6.7365875244 -39.0745468140 32.0778923035
6.7382197380 -39.1021080017 31.8845596313
6.7372374535 -39.1111145020 31.6872005463
6.7338666916 -39.1031837463 31.4861297607
6.7287492752 -39.0828628540 31.2823123932
6.7229151726 -39.0574569702 31.0773372650
6.7175617218 -39.0354652405 30.8730697632
6.7136850357 -39.0239562988 30.6710796356
6.7118401527 -39.0268554688 30.4722614288
6.7120990753 -39.0446777344 30.2767581940
6.7140598297 -39.0745658875 30.0839614868
6.7168965340 -39.1106643677 29.8925781250
6.7196297646 -39.1460266113 29.7010631561
6.7215628624 -39.1757164001 29.5082988739
6.7225227356 -39.1984977722 29.3139991760
6.7227168083 -39.2158546448 29.1184844971
6.7224292755 -39.2297935486 28.9222011566
6.7218279839 -39.2415084839 28.7254161835
6.7209711075 -39.2514076233 28.5282154083
6.7199163437 -39.2599067688 28.3306922913
6.7188663483 -39.2684402466 28.1331748962
6.7182693481 -39.2801895142 27.9363937378
6.7187743187 -39.2997436523 27.7414188385
6.7209653854 -39.3312454224 27.5492248535
6.7250266075 -39.3759994507 27.3601360321
6.7305893898 -39.4313926697 27.1735706329
6.7368583679 -39.4917831421 26.9882316589
6.7428441048 -39.5501594543 26.8024826050
6.7476091385 -39.5998840332 26.6147613525
6.7505545616 -39.6367149353 26.4240512848
6.7516341209 -39.6603202820 26.2302513123
6.7512869835 -39.6738243103 26.0340728760
6.7501215935 -39.6815223694 25.8365192413
6.7486176491 -39.6868286133 25.6383914948
6.7470326424 -39.6915626526 25.4401187897
6.7454624176 -39.6963996887 25.2418632507
6.7439532280 -39.7016716003 25.0437030792
6.7426066399 -39.7080917358 24.8458137512
6.7416405678 -39.7172126770 24.6485691071
6.7413945198 -39.7314300537 24.4525566101
6.7422966957 -39.7537765503 24.2585220337
6.7447948456 -39.7874221802 24.0672492981
6.7491655350 -39.8343200684 23.8792419434
6.7552161217 -39.8931083679 23.6941890717
6.7622132301 -39.9585952759 23.5108413696
6.7693462372 -40.0250358582 23.3277969360
6.7763056755 -40.0902442932 23.1445217133
6.7832255363 -40.1551704407 22.9612445831
6.7900223732 -40.2192115784 22.7778186798
6.7960224152 -40.2776145935 22.5930595398
6.8003754616 -40.3243522644 22.4054565430
6.8026986122 -40.3567276001 22.2143096924
6.8032388687 -40.3764801025 22.0200309753
6.8025360107 -40.3874359131 21.8235530853
6.8010363579 -40.3927497864 21.6256561279
6.7989120483 -40.3936500549 21.4266376495
6.7960786819 -40.3895339966 21.2263374329
6.7923707962 -40.3792343140 21.0244483948
6.7878427505 -40.3631286621 20.8210563660
6.7829699516 -40.3445930481 20.6170082092
6.7785458565 -40.3292312622 20.4137344360
6.7753462791 -40.3225364685 20.2126464844
6.7738308907 -40.3277511597 20.0145969391
6.7739958763 -40.3448524475 19.8196010590
6.7754077911 -40.3707733154 19.6268882751
6.7774710655 -40.4012985229 19.4353866577
6.7797832489 -40.4335823059 19.2443675995
6.7822384834 -40.4668731689 19.0536384583
6.7847814560 -40.5007820129 18.8630981445
6.7871780396 -40.5336494446 18.6723155975
6.7891325951 -40.5633964539 18.4807434082
6.7906222343 -40.5898551941 18.2883319855
6.7920255661 -40.6156959534 18.0957775116
6.7938528061 -40.6445388794 17.9040336609
6.7963209152 -40.6779060364 17.7135105133
6.7991514206 -40.7138290405 17.5236968994
6.8017988205 -40.7484588623 17.3335685730
6.8038883209 -40.7791442871 17.1424198151
6.8054914474 -40.8063926697 16.9503784180
6.8070807457 -40.8335342407 16.7583312988
6.8092746735 -40.8649520874 16.5674495697
6.8125119209 -40.9037361145 16.3785800934
6.8167877197 -40.9498596191 16.1917247772
6.8216133118 -40.9998626709 16.0059642792
6.8262500763 -41.0485267639 15.8198909760
6.8301033974 -41.0916519165 15.6323623657
6.8330445290 -41.1283302307 15.4431190491
6.8354582787 -41.1612815857 15.2528905869
6.8379802704 -41.1949920654 15.0628995895
6.8411040306 -41.2329559326 14.8741035461
6.8449287415 -41.2758636475 14.6867017746
6.8491725922 -41.3217277527 14.5001564026
6.8533535004 -41.3671455383 14.3135328293
6.8569660187 -41.4085464478 14.1258411407
6.8596553802 -41.4434204102 13.9363784790
6.8613824844 -41.4715080261 13.7450571060
6.8624558449 -41.4949684143 13.5524692535
6.8633742332 -41.5173416138 13.3595924377
6.8646306992 -41.5420913696 13.1673974991
6.8665385246 -41.5714454651 12.9765110016
6.8690829277 -41.6052894592 12.7869129181
6.8718824387 -41.6409301758 12.5978517532
6.8744153976 -41.6746864319 12.4082899094
6.8763923645 -41.7045173645 12.2176446915
6.8779540062 -41.7314147949 12.0261907578
6.8795547485 -41.7585868835 11.8348350525
6.8816399574 -41.7891769409 11.6444768906
6.8842697144 -41.8236045837 11.4552412033
6.8869385719 -41.8583068848 11.2661142349
6.8888688087 -41.8877983093 11.0755205154
6.8896455765 -41.9091453552 10.8826065063
6.8895773888 -41.9245338440 10.6879863739
6.8894376755 -41.9394149780 10.4932260513
6.8898978233 -41.9585266113 10.2996978760
6.8911414146 -41.9831695557 10.1077852249
6.8928599358 -42.0111541748 9.9168634415
6.8945965767 -42.0392646790 9.7260007858
6.8962216377 -42.0665893555 9.5349311829
6.8981647491 -42.0961570740 9.3445386887
6.9011745453 -42.1332435608 9.1563787460
6.9057750702 -42.1815452576 8.9715547562
6.9118700027 -42.2403755188 8.7898855209
6.9188084602 -42.3051567078 8.6100358963
6.9257192612 -42.3697280884 8.4301958084
6.9317283630 -42.4279441833 8.2485361099
6.9361491203 -42.4749526978 8.0636034012
6.9388141632 -42.5095825195 7.8750262260
6.9402909279 -42.5358352661 7.6839747429
6.9416780472 -42.5614547729 7.4927544594
6.9441809654 -42.5949363708 7.3039121628
6.9487032890 -42.6426506042 7.1193809509
6.9554977417 -42.7063674927 6.9397225380
6.9640283585 -42.7823219299 6.7638282776
6.9732608795 -42.8632125854 6.5895137787
6.9821157455 -42.9414329529 6.4144802094
6.9896192551 -43.0101242065 6.2366361618
6.9948554039 -43.0628395081 6.0539979935
6.9971437454 -43.0947761536 5.8650703430
6.9964199066 -43.1054916382 5.6696748734
6.9934134483 -43.1001281738 5.4693484306
6.9894104004 -43.0877456665 5.2668447495
6.9857296944 -43.0776367188 5.0650095940
6.9832434654 -43.0759391785 4.8657450676
6.9822425842 -43.0847091675 4.6697001457
6.9826331139 -43.1032791138 4.4766883850
6.9841690063 -43.1299133301 4.2861919403
6.9865007401 -43.1621475220 4.0974588394
6.9890913963 -43.1962051392 3.9093215466
6.9912447929 -43.2271804810 3.7202513218
6.9923877716 -43.2510414124 3.5289795399
6.9924335480 -43.2671737671 3.3352990150
6.9918918610 -43.2791748047 3.1403255463
6.9916477203 -43.2932662964 2.9460127354
6.9926080704 -43.3158340454 2.7543804646
6.9953951836 -43.3512611389 2.5668327808
7.0000858307 -43.4000854492 2.3835630417
7.0060610771 -43.4579505920 2.2032146454
7.0122022629 -43.5169715881 2.0232956409
7.0174298286 -43.5695648193 1.8413884640
7.0212187767 -43.6120262146 1.6562972069
7.0237126350 -43.6453704834 1.4683266878
7.0254874229 -43.6736526489 1.2787609100
7.0271973610 -43.7014770508 1.0890696049
7.0292673111 -43.7318344116 0.9002171755
7.0318179131 -43.7655677795 0.7124801278
7.0349225998 -43.8031997681 0.5260338783
7.0389556885 -43.8473587036 0.3417384028
7.0445837975 -43.9027366638 0.1611305773
-4.7463822365 -37.1806411743 80.7489318848
-4.7492761612 -37.1843032837 80.5518951416
-4.7529158592 -37.1921653748 80.3551025391
-4.7570977211 -37.2030754089 80.1585006714
-4.7616252899 -37.2159347534 79.9620285034
-4.7664208412 -37.2302970886 79.7656478882
-4.7713623047 -37.2454872131 79.5693206787
-4.7759413719 -37.2586326599 79.3728790283
-4.7792973518 -37.2648963928 79.1759796143
-4.7808861732 -37.2612113953 78.9784317017
-4.7811660767 -37.2501602173 78.7803649902
-4.7815260887 -37.2395515442 78.5823059082
-4.7833728790 -37.2373199463 78.3847885132
-4.7871713638 -37.2460670471 78.1880035400
-4.7923007011 -37.2623100281 77.9917373657
-4.7977232933 -37.2802085876 77.7956008911
-4.8026719093 -37.2954368591 77.5992736816
-4.8068423271 -37.3062782288 77.4026489258
-4.8102521896 -37.3128433228 77.2057189941
-4.8130707741 -37.3160781860 77.0085449219
-4.8155021667 -37.3171272278 76.8111953735
-4.8177170753 -37.3169631958 76.6137466431
-4.8198313713 -37.3162269592 76.4162445068
-4.8219151497 -37.3153152466 76.2187194824
-4.8240079880 -37.3144607544 76.0211791992
-4.8261256218 -37.3137397766 75.8236389160
-4.8282699585 -37.3131713867 75.6260910034
-4.8304524422 -37.3128166199 75.4285507202
-4.8327288628 -37.3129882813 75.2310333252
-4.8352408409 -37.3144874573 75.0336151123
-4.8382325172 -37.3186874390 74.8363952637
-4.8420085907 -37.3273086548 74.6395187378
-4.8467674255 -37.3414611816 74.4430847168
-4.8523397446 -37.3602027893 74.2470321655
-4.8580560684 -37.3797531128 74.0510559082
-4.8629627228 -37.3947448730 73.8547134399
-4.8662605286 -37.4006690979 73.6576309204
-4.8675861359 -37.3954811096 73.4596023560
-4.8670549393 -37.3798255920 73.2606811523
-4.8652563095 -37.3570289612 73.0611114502
-4.8632140160 -37.3328514099 72.8613815308
-4.8620953560 -37.3138809204 72.6620635986
-4.8627815247 -37.3050765991 72.4635925293
-4.8656497002 -37.3085708618 72.2661666870
-4.8706693649 -37.3241958618 72.0698089600
-4.8775095940 -37.3500823975 71.8743591309
-4.8854842186 -37.3823623657 71.6795120239
-4.8935551643 -37.4151916504 71.4847335815
-4.9006509781 -37.4425201416 71.2894897461
-4.9061579704 -37.4608955383 71.0934524536
-4.9101457596 -37.4707031250 70.8966369629
-4.9131674767 -37.4750671387 70.6993103027
-4.9158916473 -37.4777526855 70.5018234253
-4.9188666344 -37.4818496704 70.3044586182
-4.9224963188 -37.4896392822 70.1074371338
-4.9271383286 -37.5031356812 69.9109573364
-4.9331979752 -37.5246315002 69.7152404785
-4.9410519600 -37.5562438965 69.5205230713
-4.9506993294 -37.5979766846 69.3268051147
-4.9613952637 -37.6456222534 69.1337127686
-4.9717617035 -37.6914138794 68.9404830933
-4.9804792404 -37.7279090881 68.7463760376
-4.9869575500 -37.7517738342 68.5510482788
-4.9914293289 -37.7643165588 68.3546066284
-4.9945635796 -37.7693176270 68.1573944092
-4.9970703125 -37.7707786560 67.9598236084
-4.9995093346 -37.7718544006 67.7622070313
-5.0022368431 -37.7745628357 67.5647354126
-5.0053949356 -37.7796936035 67.3675155640
-5.0089316368 -37.7869644165 67.1705093384
-5.0126743317 -37.7953948975 66.9736175537
-5.0164070129 -37.8037681580 66.7767181396
-5.0199275017 -37.8109474182 66.5796890259
-5.0230803490 -37.8160476685 66.3824310303
-5.0257802010 -37.8185920715 66.1848983765
-5.0280256271 -37.8185729980 65.9870758057
-5.0299015045 -37.8164634705 65.7890167236
-5.0315794945 -37.8132400513 65.5908203125
-5.0333490372 -37.8105316162 65.3926620483
-5.0356163979 -37.8106269836 65.1947937012
-5.0387558937 -37.8156547546 64.9974670410
-5.0428075790 -37.8258247375 64.8007049561
-5.0472645760 -37.8382835388 64.6041946411
-5.0512433052 -37.8480415344 64.4073867798
-5.0539350510 -37.8505363464 64.2097549438
-5.0549879074 -37.8437728882 64.0110549927
-5.0546507835 -37.8291625977 63.8114280701
-5.0536732674 -37.8109321594 63.6113510132
-5.0529432297 -37.7940979004 63.4114036560
-5.0530295372 -37.7818717957 63.2119560242
-5.0539941788 -37.7746047974 63.0130653381
-5.0555787086 -37.7708358765 62.8145637512
-5.0574975014 -37.7689552307 62.6162681580
-5.0595788956 -37.7679901123 62.4180679321
-5.0617532730 -37.7675514221 62.2199172974
-5.0639953613 -37.7674942017 62.0217971802
-5.0662851334 -37.7677040100 61.8236961365
-5.0685992241 -37.7680473328 61.6255989075
-5.0709190369 -37.7684288025 61.4274940491
-5.0732407570 -37.7688140869 61.2293777466
-5.0755758286 -37.7692794800 61.0312576294
-5.0779519081 -37.7699737549 60.8331527710
-5.0804095268 -37.7711257935 60.6350975037
-5.0830092430 -37.7730827332 60.4371261597
-5.0858445168 -37.7763671875 60.2393150330
-5.0890588760 -37.7817955017 60.0417671204
-5.0928697586 -37.7905960083 59.8446426392
-5.0975584984 -37.8043556213 59.6481552124
-5.1033449173 -37.8243179321 59.4524688721
-5.1101546288 -37.8500671387 59.2575454712
-5.1174592972 -37.8786125183 59.0630073547
-5.1244406700 -37.9053344727 58.8682556152
-5.1303844452 -37.9261894226 58.6727523804
-5.1349306107 -37.9391479492 58.4762153625
-5.1380014420 -37.9437637329 58.2785797119
-5.1396050453 -37.9400863647 58.0798263550
-5.1397666931 -37.9282569885 57.8799629211
-5.1386394501 -37.9091377258 57.6790885925
-5.1366796494 -37.8853073120 57.4775390625
-5.1346688271 -37.8611907959 57.2759056091
-5.1334280968 -37.8414192200 57.0748252869
-5.1334261894 -37.8286552429 56.8746681213
-5.1347045898 -37.8231239319 56.6754760742
-5.1371998787 -37.8244743347 56.4772186279
-5.1411247253 -37.8339118958 56.2800788879
-5.1469883919 -37.8543128967 56.0844688416
-5.1551318169 -37.8876113892 55.8906822205
-5.1651325226 -37.9314155579 55.6984062195
-5.1756973267 -37.9784088135 55.5066299438
-5.1852450371 -38.0196571350 55.3140792847
-5.1926603317 -38.0488395691 55.1198425293
-5.1976203918 -38.0641403198 54.9236373901
-5.2004656792 -38.0674743652 54.7257118225
-5.2019071579 -38.0628662109 54.5266265869
-5.2027592659 -38.0549240112 54.3270339966
-5.2037415504 -38.0477142334 54.1275253296
-5.2053885460 -38.0442695618 53.9285507202
-5.2080793381 -38.0467224121 53.7304267883
-5.2121162415 -38.0567970276 53.5334205627
-5.2177324295 -38.0758056641 53.3377456665
-5.2249321938 -38.1037788391 53.1434173584
-5.2332577705 -38.1381263733 52.9500732422
-5.2417607307 -38.1734771729 52.7569084167
-5.2493886948 -38.2038764954 52.5630302429
-5.2555537224 -38.2259979248 52.3679161072
-5.2604274750 -38.2408142090 52.1717033386
-5.2647762299 -38.2526550293 51.9750404358
-5.2694869041 -38.2665481567 51.7786941528
-5.2750411034 -38.2852134705 51.5830917358
-5.2812452316 -38.3075637817 51.3880691528
-5.2874517441 -38.3299217224 51.1930656433
-5.2930674553 -38.3489418030 50.9975547791
-5.2978701591 -38.3633575439 50.8013305664
-5.3019475937 -38.3736648560 50.6044654846
-5.3055191040 -38.3811073303 50.4071464539
-5.3088841438 -38.3873863220 50.2096366882
-5.3124756813 -38.3949432373 50.0123291016
-5.3168511391 -38.4069366455 49.8157272339
-5.3224883080 -38.4260826111 49.6202812195
-5.3294343948 -38.4526367188 49.4260406494
-5.3371076584 -38.4833106995 49.2324905396
-5.3445296288 -38.5125656128 49.0387382507
-5.3508043289 -38.5353240967 48.8439445496
-5.3554100990 -38.5486297607 48.6476173401
-5.3581490517 -38.5513572693 48.4495468140
-5.3589806557 -38.5432853699 48.2496833801
-5.3579812050 -38.5248336792 48.0480728149
-5.3554844856 -38.4978981018 47.8450088501
-5.3522453308 -38.4667549133 47.6411933899
-5.3494234085 -38.4379653931 47.4377212524
-5.3483076096 -38.4188499451 47.2358283997
-5.3498353958 -38.4147071838 47.0364341736
-5.3540706635 -38.4258995056 46.8396263123
-5.3600912094 -38.4472160339 46.6445503235
-5.3665690422 -38.4711227417 46.4499282837
-5.3725547791 -38.4922409058 46.2548446655
-5.3777475357 -38.5088691711 46.0590019226
-5.3821997643 -38.5212974548 45.8624420166
-5.3859744072 -38.5298843384 45.6652145386
-5.3890848160 -38.5347099304 45.4673309326
-5.3916049004 -38.5361862183 45.2688522339
-5.3937377930 -38.5354690552 45.0699768066
-5.3957915306 -38.5342979431 44.8710060120
-5.3981237411 -38.5347099304 44.6723022461
-5.4011182785 -38.5388755798 44.4742546082
-5.4051513672 -38.5489234924 44.2772445679
-5.4104681015 -38.5662536621 44.0815391541
-5.4169721603 -38.5903167725 43.8870506287
-5.4241557121 -38.6182327271 43.6932754517
-5.4313917160 -38.6464462280 43.4995765686
-5.4384012222 -38.6733818054 43.3056678772
-5.4453582764 -38.7000198364 43.1117286682
-5.4524779320 -38.7275772095 42.9179763794
-5.4595813751 -38.7550468445 42.7242317200
-5.4661617279 -38.7795486450 42.5299606323
-5.4718275070 -38.7988700867 42.3347549438
-5.4766058922 -38.8131523132 42.1386222839
-5.4808664322 -38.8245010376 41.9419517517
-5.4851102829 -38.8357543945 41.7452659607
-5.4898843765 -38.8500175476 41.5491409302
-5.4957642555 -38.8705482483 41.3542022705
-5.5031409264 -38.8995780945 41.1608810425
-5.5117506981 -38.9356040955 40.9689025879
-5.5203742981 -38.9717102051 40.7769775391
-5.5273041725 -38.9982070923 40.5832519531
-5.5314216614 -39.0087471008 40.3864974976
-5.5329327583 -39.0045013428 40.1869087219
-5.5331153870 -38.9927101135 39.9858512878
-5.5334849358 -38.9819793701 39.7849655151
-5.5351786613 -38.9787635803 39.5855102539
-5.5387582779 -38.9862480164 39.3881187439
-5.5441260338 -39.0038833618 39.1927032471
-5.5505104065 -39.0272865295 38.9984245300
-5.5568232536 -39.0502853394 38.8040847778
-5.5623283386 -39.0687026978 38.6088600159
-5.5670619011 -39.0827407837 38.4127769470
-5.5716838837 -39.0961418152 38.2165756226
-5.5769867897 -39.1134147644 38.0211448669
-5.5834226608 -39.1371154785 37.8270072937
-5.5908889771 -39.1666679382 37.6340599060
-5.5988526344 -39.1990470886 37.4417037964
-5.6065883636 -39.2301368713 37.2491188049
-5.6132922173 -39.2553634644 37.0553703308
-5.6181898117 -39.2703399658 36.8595657349
-5.6208534241 -39.2726249695 36.6611900330
-5.6215195656 -39.2635726929 36.4604873657
-5.6210250854 -39.2479209900 36.2584075928
-5.6202845573 -39.2308731079 36.0560112000
-5.6197028160 -39.2147216797 35.8537635803
-5.6190218925 -39.1980056763 35.6513633728
-5.6177921295 -39.1781730652 35.4482841492
-5.6160573959 -39.1554679871 35.2445716858
-5.6145858765 -39.1342544556 35.0411224365
-5.6145334244 -39.1210975647 34.8393211365
-5.6171298027 -39.1229896545 34.6406478882
-5.6235170364 -39.1464195251 34.4464950562
-5.6341323853 -39.1938705444 34.2574272156
-5.6478638649 -39.2590332031 34.0721626282
-5.6623106003 -39.3282623291 33.8878288269
-5.6753187180 -39.3893241882 33.7018318176
-5.6862268448 -39.4384536743 33.5133514404
-5.6956501007 -39.4791488647 33.3231163025
-5.7043170929 -39.5155487061 33.1319923401
-5.7122569084 -39.5478210449 32.9400138855
-5.7190647125 -39.5736579895 32.7466735840
-5.7248196602 -39.5935134888 32.5520553589
-5.7304763794 -39.6128120422 32.3573265076
-5.7371993065 -39.6381721497 32.1639328003
-5.7453989983 -39.6719245911 31.9723968506
-5.7544560432 -39.7105560303 31.7819595337
-5.7631630898 -39.7472000122 31.5911235809
-5.7703738213 -39.7753372192 31.3984432220
-5.7755837440 -39.7920989990 31.2032661438
-5.7791485786 -39.7995109558 31.0060214996
-5.7817869186 -39.8016548157 30.8076000214
-5.7838487625 -39.8005218506 30.6084365845
-5.7853584290 -39.7962455750 30.4085540771
-5.7867159843 -39.7911033630 30.2084598541
-5.7888708115 -39.7904968262 30.0093650818
-5.7925939560 -39.7988052368 29.8122730255
-5.7978210449 -39.8156661987 29.6171150208
-5.8038659096 -39.8371772766 29.4230213165
-5.8101010323 -39.8597755432 29.2291908264
-5.8163185120 -39.8822708130 29.0353546143
-5.8225865364 -39.9050598145 28.8415985107
-5.8289942741 -39.9286384583 28.6480407715
-5.8355355263 -39.9529838562 28.4546775818
-5.8420214653 -39.9770126343 28.2612590790
-5.8479342461 -39.9977836609 28.0671043396
-5.8524661064 -40.0106925964 27.8711357117
-5.8549981117 -40.0122299194 27.6725196838
-5.8556861877 -40.0032730103 27.4714412689
-5.8554949760 -39.9893074036 27.2691650391
-5.8556504250 -39.9773178101 27.0673198700
-5.8571200371 -39.9728050232 26.8672084808
-5.8604412079 -39.9788246155 26.6695671082
-5.8656964302 -39.9958534241 26.4745273590
-5.8725595474 -40.0220298767 26.2816696167
-5.8805699348 -40.0547409058 26.0903892517
-5.8894791603 -40.0925674438 25.9003601074
-5.8992590904 -40.1353530884 25.7115535736
-5.9098238945 -40.1826095581 25.5238628387
-5.9208626747 -40.2325668335 25.3368701935
-5.9318675995 -40.2823371887 25.1498832703
-5.9421830177 -40.3281822205 24.9619998932
-5.9511198997 -40.3661842346 24.7722568512
-5.9582185745 -40.3937225342 24.5800018311
-5.9634680748 -40.4107322693 24.3852024078
-5.9672756195 -40.4195327759 24.1884021759
-5.9702820778 -40.4237709045 23.9904804230
-5.9731998444 -40.4275054932 23.7924289703
-5.9767236710 -40.4346885681 23.5952186584
-5.9814505577 -40.4487228394 23.3996982574
-5.9877743721 -40.4718551636 23.2064380646
-5.9957323074 -40.5042915344 23.0155067444
-6.0048832893 -40.5435295105 22.8262977600
-6.0143785477 -40.5847282410 22.6376190186
-6.0232682228 -40.6224784851 22.4481143951
-6.0309023857 -40.6530799866 22.2568511963
-6.0371770859 -40.6759414673 22.0636653900
-6.0425071716 -40.6934204102 21.8691368103
-6.0476050377 -40.7095756531 21.6742839813
-6.0532417297 -40.7288055420 21.4802169800
-6.0600900650 -40.7549362183 21.2879180908
-6.0685977936 -40.7905235291 21.0980510712
-6.0788607597 -40.8361167908 20.9107742310
-6.0905504227 -40.8898391724 20.7256278992
-6.1030225754 -40.9480285645 20.5416851044
-6.1155424118 -41.0064888000 20.3578758240
-6.1274108887 -41.0612449646 20.1731700897
-6.1379766464 -41.1085777283 19.9866008759
-6.1467223167 -41.1455421448 19.7973899841
-6.1534509659 -41.1710090637 19.6052207947
-6.1583604813 -41.1861114502 19.4103679657
-6.1619701385 -41.1938018799 19.2135848999
-6.1650280952 -41.1983489990 19.0159721375
-6.1683440208 -41.2043685913 18.8187408447
-6.1724843979 -41.2150840759 18.6227416992
-6.1775703430 -41.2311935425 18.4281654358
-6.1834030151 -41.2515563965 18.2347240448
-6.1897091866 -41.2746238708 18.0420131683
-6.1962308884 -41.2989234924 17.8496475220
-6.2026672363 -41.3227310181 17.6571674347
-6.2085781097 -41.3435478210 17.4639072418
-6.2134065628 -41.3581924438 17.2690048218
-6.2167444229 -41.3643341064 17.0718269348
-6.2187004089 -41.3625984192 16.8725204468
-6.2199931145 -41.3570747375 16.6721782684
-6.2216038704 -41.3533668518 16.4723052979
-6.2243247032 -41.3559875488 16.2741298676
-6.2285871506 -41.3674011230 16.0783367157
-6.2345824242 -41.3887023926 15.8852386475
-6.2423443794 -41.4200820923 15.6949071884
-6.2516593933 -41.4603195190 15.5070295334
-6.2620043755 -41.5064392090 15.3208045959
-6.2727499008 -41.5548439026 15.1352558136
-6.2835574150 -41.6036071777 14.9498538971
-6.2945771217 -41.6535835266 14.7648382187
-6.3060922623 -41.7063941956 14.5806589127
-6.3179073334 -41.7609138489 14.3970098495
-6.3292188644 -41.8125648499 14.2126207352
-6.3392043114 -41.8566551208 14.0261745453
-6.3476605415 -41.8920211792 13.8373327255
-6.3550615311 -41.9213638306 13.6468362808
-6.3621315956 -41.9488182068 13.4558343887
-6.3693861961 -41.9773330688 13.2651519775
-6.3768577576 -42.0070838928 13.0748434067
-6.3840889931 -42.0354652405 12.8841733932
-6.3904404640 -42.0588264465 12.6921024323
-6.3955478668 -42.0750885010 12.4980306625
-6.3995866776 -42.0852470398 12.3022298813
-6.4031634331 -42.0927696228 12.1056756973
-6.4069247246 -42.1013450623 11.9094200134
-6.4111289978 -42.1124496460 11.7138872147
-6.4155559540 -42.1248283386 11.5187206268
-6.4198422432 -42.1364021301 11.3233261108
-6.4238972664 -42.1466560364 11.1275520325
-6.4280247688 -42.1573219299 10.9318971634
-6.4327669144 -42.1714973450 10.7372617722
-6.4386367798 -42.1921157837 10.5445041656
-6.4458465576 -42.2203865051 10.3539876938
-6.4541926384 -42.2551498413 10.1653919220
-6.4632573128 -42.2940177917 9.9780282974
-6.4727263451 -42.3351974487 9.7913808823
-6.4824619293 -42.3779067993 9.6052227020
-6.4923911095 -42.4217224121 9.4194326401
-6.5025467873 -42.4668350220 9.2340679169
-6.5132260323 -42.5149383545 9.0496358871
-6.5248441696 -42.5684127808 8.8668441772
-6.5374469757 -42.6275177002 8.6857824326
-6.5503807068 -42.6885147095 8.5053472519
-6.5624918938 -42.7448158264 8.3235769272
-6.5727057457 -42.7902793884 8.1386251450
-6.5805201530 -42.8220367432 7.9496107101
-6.5860757828 -42.8408851624 7.7567458153
-6.5898714066 -42.8496780396 7.5608649254
-6.5924482346 -42.8515014648 7.3628802299
-6.5942630768 -42.8489723206 7.1635680199
-6.5957322121 -42.8444709778 6.9636402130
-6.5973343849 -42.8407211304 6.7639236450
-6.5996694565 -42.8411636353 6.5654640198
-6.6033582687 -42.8493385315 6.3693499565
-6.6087541580 -42.8672790527 6.1762170792
-6.6157207489 -42.8941955566 5.9858441353
-6.6237840652 -42.9273834229 5.7974181175
-6.6325635910 -42.9646720886 5.6102819443
-6.6419816017 -43.0056076050 5.4243068695
-6.6520409584 -43.0502166748 5.2395052910
-6.6625566483 -43.0974349976 5.0555567741
-6.6732249260 -43.1455307007 4.8719291687
-6.6838531494 -43.1934013367 4.6882796288
-6.6943392754 -43.2404632568 4.5044274330
-6.7044906616 -43.2856101990 4.3200263977
-6.7140879631 -43.3275947571 4.1346812248
-6.7231597900 -43.3665733337 3.9484357834
-6.7320065498 -43.4042701721 3.7618246078
-6.7408938408 -43.4421997070 3.5753233433
-6.7498025894 -43.4802551270 3.3888971806
-6.7584600449 -43.5168724060 3.2020535469
-6.7665219307 -43.5500907898 3.0141670704
-6.7737855911 -43.5787391663 2.8248615265
-6.7803688049 -43.6035003662 2.6343429089
-6.7867345810 -43.6270141602 2.4434468746
-6.7935328484 -43.6530036926 2.2533583641
-6.8014092445 -43.6851692200 2.0652658939
-6.8108305931 -43.7261734009 1.8800359964
-6.8218240738 -43.7761764526 1.6977374554
-6.8337402344 -43.8314628601 1.5171916485
-6.8454031944 -43.8853034973 1.3362379074
-6.8557696342 -43.9317283630 1.1529446840
-6.8645706177 -43.9691963196 0.9667978287
-6.8723087311 -44.0005836487 0.7787131667
-6.8796958923 -44.0299644470 0.5900043845
-6.8871998787 -44.0600166321 0.4015385807
-6.8951349258 -44.0925369263 0.2139044553
-6.9040241241 -44.1305198669 0.0280879196
-16.2251338959 -34.3096046448 80.7768478394
-16.2170295715 -34.2897262573 80.5785827637
-16.2026786804 -34.2581367493 80.3794631958
-16.1868553162 -34.2237854004 80.1801071167
-16.1732807159 -34.1936492920 79.9809799194
-16.1639156342 -34.1714057922 79.7823562622
-16.1596984863 -34.1588096619 79.5843734741
-16.1610927582 -34.1567344666 79.3871307373
-16.1677684784 -34.1645622253 79.1905899048
-16.1784439087 -34.1798896790 78.9945983887
-16.1917037964 -34.2000579834 78.7989730835
-16.2068824768 -34.2238273621 78.6036376953
-16.2238616943 -34.2509727478 78.4085845947
-16.2420654297 -34.2804183960 78.2137298584
-16.2598075867 -34.3089942932 78.0188369751
-16.2745647430 -34.3319740295 77.8235321045
-16.2839527130 -34.3448905945 77.6274642944
-16.2868881226 -34.3457031250 77.4304428101
-16.2841110229 -34.3358039856 77.2325515747
-16.2776165009 -34.3189353943 77.0340728760
-16.2696132660 -34.2992362976 76.8353271484
-16.2618198395 -34.2799301147 76.6365814209
-16.2552413940 -34.2629013062 76.4379730225
-16.2501354218 -34.2486343384 76.2395706177
-16.2462005615 -34.2365570068 76.0413131714
-16.2427654266 -34.2254219055 75.8431091309
-16.2386932373 -34.2130889893 75.6447753906
-16.2324047089 -34.1965980530 75.4460449219
-16.2230167389 -34.1742973328 75.2467803955
-16.2120151520 -34.1489639282 75.0472106934
-16.2034397125 -34.1281852722 74.8479919434
-16.2021083832 -34.1209869385 74.6499404907
-16.2114524841 -34.1338157654 74.4536666870
-16.2320346832 -34.1677207947 74.2593078613
-16.2609424591 -34.2172431946 74.0664138794
-16.2928714752 -34.2724342346 73.8740997314
-16.3229217529 -34.3241043091 73.6815185547
-16.3488101959 -34.3679695129 73.4882736206
-16.3704414368 -34.4038467407 73.2943267822
-16.3879108429 -34.4319190979 73.0996856689
-16.4005756378 -34.4509773254 72.9042053223
-16.4079265594 -34.4600715637 72.7077789307
-16.4106292725 -34.4604454041 72.5105056763
-16.4103317261 -34.4551887512 72.3126754761
-16.4088211060 -34.4476585388 72.1146087646
-16.4074878693 -34.4404602051 71.9165420532
-16.4068069458 -34.4344825745 71.7185745239
-16.4056091309 -34.4275360107 71.5204925537
-16.4014472961 -34.4150314331 71.3218307495
-16.3930988312 -34.3946647644 71.1223297119
-16.3830871582 -34.3711776733 70.9224700928
-16.3766899109 -34.3544769287 70.7232666016
-16.3778171539 -34.3518867493 70.5254974365
-16.3861827850 -34.3628807068 70.3291397095
-16.3984909058 -34.3812713623 70.1335601807
-16.4115486145 -34.4010734558 69.9381408691
-16.4240550995 -34.4198341370 69.7426300049
-16.4363479614 -34.4381980896 69.5470962524
-16.4494972229 -34.4581680298 69.3517456055
-16.4646244049 -34.4818496704 69.1568145752
-16.4823055267 -34.5103263855 68.9624328613
-16.5019874573 -34.5425567627 68.7684936523
-16.5218105316 -34.5750541687 68.5746231079
-16.5390968323 -34.6027908325 68.3802490234
-16.5511970520 -34.6207923889 68.1848068237
-16.5561504364 -34.6253890991 67.9878540039
-16.5528793335 -34.6145477295 67.7891464233
-16.5412082672 -34.5879364014 67.5885925293
-16.5221462250 -34.5474586487 67.3863983154
-16.4984302521 -34.4982452393 67.1831130981
-16.4746189117 -34.4488487244 66.9797286987
-16.4557933807 -34.4088058472 66.7773590088
-16.4449596405 -34.3837623596 66.5766906738
-16.4414386749 -34.3724479675 66.3776092529
-16.4421749115 -34.3691177368 66.1794586182
-16.4443893433 -34.3685646057 65.9816284180
-16.4466915131 -34.3681755066 65.7837982178
-16.4486026764 -34.3670501709 65.5858688354
-16.4501895905 -34.3653182983 65.3878555298
-16.4520072937 -34.3640174866 65.1898727417
-16.4549617767 -34.3648529053 64.9921493530
-16.4604663849 -34.3704719543 64.7950057983
-16.4704704285 -34.3845367432 64.5989151001
-16.4862766266 -34.4095001221 64.4042129517
-16.5069274902 -34.4435501099 64.2106781006
-16.5292930603 -34.4808235168 64.0176010132
-16.5500125885 -34.5150108337 63.8241615295
-16.5669822693 -34.5421524048 63.6298522949
-16.5793380737 -34.5606384277 63.4344482422
-16.5867614746 -34.5698661804 63.2378501892
-16.5886859894 -34.5687637329 63.0399017334
-16.5837993622 -34.5548782349 62.8402519226
-16.5708618164 -34.5258750916 62.6385688782
-16.5509090424 -34.4836959839 62.4350776672
-16.5284328461 -34.4367790222 62.2308807373
-16.5093383789 -34.3962097168 62.0274581909
-16.4975719452 -34.3694000244 61.8258285522
-16.4940204620 -34.3580093384 61.6262435913
-16.4976024628 -34.3600158691 61.4284667969
-16.5060825348 -34.3712234497 61.2319450378
-16.5164451599 -34.3859634399 61.0359115601
-16.5259227753 -34.3990364075 60.8396606445
-16.5332241058 -34.4080314636 60.6428413391
-16.5391082764 -34.4143562317 60.4456520081
-16.5461978912 -34.4229507446 60.2487792969
-16.5579395294 -34.4402809143 60.0531425476
-16.5771903992 -34.4717102051 59.8595314026
-16.6059818268 -34.5210609436 59.6685142517
-16.6458072662 -34.5911369324 59.4805412292
-16.6956424713 -34.6800117493 59.2953720093
-16.7489337921 -34.7753791809 59.1112594604
-16.7949752808 -34.8571319580 58.9252853394
-16.8246536255 -34.9081573486 58.7349052429
-16.8341522217 -34.9212837219 58.5389976501
-16.8240909576 -34.8976707458 58.3376541138
-16.7980957031 -34.8441276550 58.1318092346
-16.7628536224 -34.7732162476 57.9232788086
-16.7271442413 -34.7014236450 57.7145004272
-16.6987228394 -34.6433181763 57.5076751709
-16.6816329956 -34.6064949036 57.3039855957
-16.6759204865 -34.5910377502 57.1034889221
-16.6791324615 -34.5923500061 56.9055213928
-16.6882915497 -34.6048278809 56.7092666626
-16.7011833191 -34.6243209839 56.5140991211
-16.7162799835 -34.6479606628 56.3195915222
-16.7318744659 -34.6725311279 56.1252517700
-16.7458038330 -34.6939735413 55.9304466248
-16.7561607361 -34.7087059021 55.7346000671
-16.7621421814 -34.7152175903 55.5374641418
-16.7645397186 -34.7149963379 55.3392562866
-16.7657642365 -34.7125740051 55.1406822205
-16.7690963745 -34.7141075134 54.9427299500
-16.7770652771 -34.7243537903 54.7461700439
-16.7898731232 -34.7436904907 54.5510787964
-16.8051509857 -34.7676734924 54.3567619324
-16.8194389343 -34.7897911072 54.1621627808
-16.8303489685 -34.8055648804 53.9665412903
-16.8378047943 -34.8148498535 53.7698631287
-16.8438701630 -34.8215179443 53.5727539063
-16.8517589569 -34.8316154480 53.3762092590
-16.8643627167 -34.8505706787 53.1811447144
-16.8823623657 -34.8796691895 52.9877967834
-16.9032230377 -34.9141426086 52.7953796387
-16.9226646423 -34.9459495544 52.6025466919
-16.9376182556 -34.9693222046 52.4083213806
-16.9477691650 -34.9836730957 52.2125778198
-16.9545993805 -34.9917793274 52.0157737732
-16.9596729279 -34.9965896606 51.8184089661
-16.9638519287 -34.9997177124 51.6207427979
-16.9673843384 -35.0016288757 51.4228630066
-16.9701728821 -35.0021400452 51.2247276306
-16.9718456268 -35.0005569458 51.0262145996
-16.9716777802 -34.9955139160 50.8270835876
-16.9685668945 -34.9849395752 50.6269569397
-16.9614639282 -34.9668579102 50.4254798889
-16.9503536224 -34.9412460327 50.2226257324
-16.9371986389 -34.9117889404 50.0190391541
-16.9257297516 -34.8854980469 49.8159675598
-16.9197521210 -34.8695297241 49.6146965027
-16.9212951660 -34.8677024841 49.4159393311
-16.9302368164 -34.8797721863 49.2196846008
-16.9455451965 -34.9038162231 49.0256080627
-16.9665451050 -34.9385566711 48.8335075378
-16.9926338196 -34.9828643799 48.6431961060
-17.0217685699 -35.0329017639 48.4539871216
-17.0496082306 -35.0805015564 48.2643890381
-17.0708484650 -35.1156997681 48.0725479126
-17.0820446014 -35.1320152283 47.8772354126
-17.0835208893 -35.1300582886 47.6785202026
-17.0789394379 -35.1167144775 47.4776573181
-17.0731525421 -35.1011009216 47.2763366699
-17.0701255798 -35.0906753540 47.0759620667
-17.0721035004 -35.0896606445 46.8773422241
-17.0797157288 -35.0992393494 46.6807250977
-17.0921096802 -35.1178054810 46.4858283997
-17.1070823669 -35.1412239075 46.2918739319
-17.1218605042 -35.1642723083 46.0978698730
-17.1343593597 -35.1830406189 45.9030570984
-17.1439361572 -35.1963119507 45.7071990967
-17.1511650085 -35.2051696777 45.5104866028
-17.1572589874 -35.2118949890 45.3133583069
-17.1637153625 -35.2192993164 45.1163597107
-17.1721649170 -35.2304534912 44.9200973511
-17.1839561462 -35.2478866577 44.7250785828
-17.1994476318 -35.2722816467 44.5314521790
-17.2176303864 -35.3017387390 44.3388557434
-17.2366199493 -35.3327140808 44.1465950012
-17.2545585632 -35.3617134094 43.9539642334
-17.2698650360 -35.3857650757 43.7603721619
-17.2810153961 -35.4020004272 43.5652275085
-17.2871150970 -35.4087371826 43.3681678772
-17.2894802094 -35.4084472656 43.1696777344
-17.2923259735 -35.4090652466 42.9713630676
-17.3008041382 -35.4202728271 42.7752037048
-17.3173923492 -35.4467315674 42.5821762085
-17.3400764465 -35.4846649170 42.3915405273
-17.3643493652 -35.5255775452 42.2015647888
-17.3867053986 -35.5628929138 42.0108833313
-17.4058284760 -35.5941276550 41.8189811707
-17.4210338593 -35.6179924011 41.6255722046
-17.4309692383 -35.6319427490 41.4301109314
-17.4343585968 -35.6335830688 41.2320632935
-17.4315471649 -35.6235580444 41.0315437317
-17.4248485565 -35.6062202454 40.8294525146
-17.4172649384 -35.5872192383 40.6269683838
-17.4109592438 -35.5706176758 40.4249572754
-17.4070949554 -35.5586128235 40.2238922119
-17.4071083069 -35.5538978577 40.0243644714
-17.4134902954 -35.5611648560 39.8273963928
-17.4284973145 -35.5846557617 39.6339340210
-17.4516963959 -35.6235580444 39.4438323975
-17.4790153503 -35.6702194214 39.2554588318
-17.5043945313 -35.7132263184 39.0663490295
-17.5225963593 -35.7427330017 38.8743286133
-17.5314655304 -35.7546806335 38.6784820557
-17.5326595306 -35.7521896362 38.4794578552
-17.5305080414 -35.7434005737 38.2790298462
-17.5298023224 -35.7373352051 38.0791778564
-17.5340976715 -35.7406768799 37.8813972473
-17.5450992584 -35.7566375732 37.6864280701
-17.5624504089 -35.7845420837 37.4941444397
-17.5836143494 -35.8196296692 37.3035011292
-17.6044445038 -35.8540840149 37.1127548218
-17.6205539703 -35.8796539307 36.9200401306
-17.6289463043 -35.8907089233 36.7240524292
-17.6296539307 -35.8872985840 36.5247802734
-17.6270008087 -35.8775672913 36.3240432739
-17.6285915375 -35.8758163452 36.1251144409
-17.6407699585 -35.8939933777 35.9307441711
-17.6637344360 -35.9324684143 35.7410659790
-17.6914882660 -35.9799613953 35.5535125732
-17.7168636322 -36.0229759216 35.3649787903
-17.7362480164 -36.0547142029 35.1738700867
-17.7499961853 -36.0758514404 34.9803237915
-17.7597827911 -36.0895309448 34.7850494385
-17.7662906647 -36.0970382690 34.5883369446
-17.7688560486 -36.0971260071 34.3898735046
-17.7668113708 -36.0885353088 34.1893501282
-17.7612724304 -36.0733680725 33.9872436523
-17.7555141449 -36.0577888489 33.7850036621
-17.7530860901 -36.0484771729 33.5842247009
-17.7555580139 -36.0483856201 33.3856239319
-17.7623138428 -36.0563583374 33.1889457703
-17.7719669342 -36.0697822571 32.9935760498
-17.7831745148 -36.0861358643 32.7989196777
-17.7944469452 -36.1026153564 32.6043052673
-17.8042354584 -36.1162986755 32.4090232849
-17.8116703033 -36.1255493164 32.2126693726
-17.8169631958 -36.1307678223 32.0153350830
-17.8209495544 -36.1335258484 31.8173942566
-17.8244113922 -36.1352996826 31.6192016602
-17.8278408051 -36.1370086670 31.4209842682
-17.8316173553 -36.1393737793 31.2229175568
-17.8362483978 -36.1433448792 31.0252418518
-17.8423652649 -36.1501159668 30.8282546997
-17.8505897522 -36.1608543396 30.6322536469
-17.8613739014 -36.1764106750 30.4374580383
-17.8748054504 -36.1969528198 30.2439212799
-17.8903121948 -36.2214012146 30.0513839722
-17.9065952301 -36.2473144531 29.8592395782
-17.9222373962 -36.2720222473 29.6668148041
-17.9365692139 -36.2942619324 29.4737873077
-17.9499130249 -36.3146400452 29.2803077698
-17.9630718231 -36.3346710205 29.0867557526
-17.9767799377 -36.3557395935 28.8934860229
-17.9915390015 -36.3787803650 28.7007408142
-18.0075416565 -36.4041671753 28.5086193085
-18.0244445801 -36.4312553406 28.3169593811
