53.7819786072 16.0424175262 40.6131858826
53.8162574768 16.0520668030 40.4297599792
53.8661270142 16.0667209625 40.2492446899
53.9237213135 16.0838527679 40.0702171326
53.9804496765 16.1007080078 39.8910903931
54.0291252136 16.1149787903 39.7105293274
54.0655784607 16.1253280640 39.5277366638
54.0887413025 16.1314144135 39.3424911499
54.0994071960 16.1334915161 39.1549110413
54.0991172791 16.1320533752 38.9652748108
54.0899314880 16.1277580261 38.7739410400
54.0745773315 16.1214866638 38.5814170837
54.0564765930 16.1143321991 38.3883438110
54.0394020081 16.1075057983 38.1954345703
54.0268287659 16.1021251678 38.0033607483
54.0211410522 16.0989532471 37.8125915527
54.0230064392 16.0982055664 37.6232681274
54.0313034058 16.0995216370 37.4351882935
54.0433883667 16.1020526886 37.2478446960
54.0554313660 16.1045703888 37.0605049133
54.0629730225 16.1056442261 36.8722915649
54.0620613098 16.1040039063 36.6824150085
54.0509834290 16.0991020203 36.4905319214
54.0316429138 16.0915489197 36.2969932556
54.0092964172 16.0830307007 36.1028289795
53.9906959534 16.0757141113 35.9093742371
53.9819641113 16.0715637207 35.7178535461
53.9869422913 16.0718135834 35.5290641785
54.0061607361 16.0766353607 35.3431320190
54.0366287231 16.0850677490 35.1594810486
54.0728721619 16.0953521729 34.9770317078
54.1084976196 16.1054382324 34.7944908142
54.1372032166 16.1133060455 34.6105842590
54.1533584595 16.1171436310 34.4241485596
54.1529846191 16.1156787872 34.2343406677
54.1355018616 16.1087188721 34.0410156250
54.1053695679 16.0977001190 33.8450584412
54.0720634460 16.0856609344 33.6483993530
54.0468940735 16.0762348175 33.4533767700
54.0378341675 16.0719776154 33.2616615295
54.0459938049 16.0732498169 33.0735168457
54.0666046143 16.0785179138 32.8879776001
54.0931625366 16.0856971741 32.7037010193
54.1208343506 16.0932312012 32.5196876526
54.1468582153 16.1002388000 32.3353538513
54.1692161560 16.1060676575 32.1502685547
54.1856727600 16.1100044250 31.9639549255
54.1940612793 16.1113491058 31.7759361267
54.1929397583 16.1096420288 31.5858936310
54.1819534302 16.1047668457 31.3937301636
54.1621017456 16.0970458984 31.1996402740
54.1363563538 16.0874328613 31.0042514801
54.1099777222 16.0776157379 30.8086853027
54.0894699097 16.0696830750 30.6143512726
54.0808296204 16.0655612946 30.4225616455
54.0884017944 16.0666446686 30.2342853546
54.1144561768 16.0736618042 30.0500469208
54.1582603455 16.0863780975 29.8697261810
54.2149467468 16.1032295227 29.6922798157
54.2759666443 16.1214752197 29.5158557892
54.3314857483 16.1379547119 29.3382854462
54.3730773926 16.1499633789 29.1576919556
54.3957023621 16.1558799744 28.9729270935
54.3988761902 16.1555519104 28.7838497162
54.3862457275 16.1501483917 28.5912361145
54.3632888794 16.1414299011 28.3962860107
54.3349494934 16.1309814453 28.2000904083
54.3050842285 16.1200428009 28.0035076141
54.2771263123 16.1097164154 27.8073101044
54.2539253235 16.1009178162 27.6121482849
54.2364578247 16.0939598083 27.4182529449
54.2227859497 16.0882205963 27.2251930237
54.2084236145 16.0822582245 27.0319519043
54.1881484985 16.0743999481 26.8373317719
54.1585655212 16.0635509491 26.6405372620
54.1201744080 16.0498714447 26.4416694641
54.0778579712 16.0349311829 26.2418403625
54.0395545959 16.0212802887 26.0428791046
54.0135955811 16.0115928650 25.8467311859
54.0056686401 16.0076961517 25.6547431946
54.0167007446 16.0098896027 25.4671649933
54.0428810120 16.0169487000 25.2831439972
54.0776596069 16.0267696381 25.1011676788
54.1141281128 16.0371341705 24.9196281433
54.1464004517 16.0461483002 24.7371349335
54.1699943542 16.0523777008 24.5526199341
54.1822814941 16.0549755096 24.3654441833
54.1831207275 16.0538959503 24.1755523682
54.1751441956 16.0499839783 23.9835491180
54.1631126404 16.0447692871 23.7905597687
54.1525840759 16.0400371552 23.5979080200
54.1484565735 16.0373611450 23.4067764282
54.1540565491 16.0378112793 23.2179775238
54.1708068848 16.0418415070 23.0318756104
54.1982231140 16.0492992401 22.8483715057
54.2337913513 16.0593757629 22.6668777466
54.2729644775 16.0706119537 22.4863014221
54.3098564148 16.0811138153 22.3052082062
54.3388252258 16.0890712738 22.1222133636
54.3561515808 16.0932865143 21.9363880157
54.3607788086 16.0934238434 21.7474536896
54.3539237976 16.0898723602 21.5556812286
54.3382835388 16.0834980011 21.3617191315
54.3178787231 16.0755920410 21.1665477753
54.2982597351 16.0679397583 20.9715385437
54.2860641479 16.0626716614 20.7783489227
54.2876358032 16.0618267059 20.5885791779
54.3074989319 16.0668582916 20.4033889771
54.3473052979 16.0782985687 20.2232265472
54.4050788879 16.0955104828 20.0476341248
54.4750213623 16.1166343689 19.8751811981
54.5485954285 16.1389274597 19.7037296295
54.6167182922 16.1594676971 19.5309791565
54.6716270447 16.1757640839 19.3549461365
54.7076835632 16.1860008240 19.1741657257
54.7222099304 16.1893215179 18.9879188538
54.7170104980 16.1863002777 18.7966270447
54.6989593506 16.1791515350 18.6020183563
54.6779899597 16.1710643768 18.4066276550
54.6633415222 16.1650066376 18.2128372192
54.6605224609 16.1627521515 18.0220813751
54.6704864502 16.1646060944 17.8346328735
54.6905670166 16.1697101593 17.6498222351
54.7160263062 16.1765422821 17.4664306641
54.7412986755 16.1833152771 17.2830162048
54.7608718872 16.1882572174 17.0981311798
54.7702827454 16.1899318695 16.9105968475
54.7672271729 16.1876029968 16.7197856903
54.7522163391 16.1814289093 16.5258064270
54.7282028198 16.1723613739 16.3294200897
54.6991577148 16.1616764069 16.1316604614
54.6684494019 16.1504573822 15.9334163666
54.6385078430 16.1394844055 15.7353305817
54.6119956970 16.1296119690 15.5381155014
54.5926437378 16.1220417023 15.3427753448
54.5839576721 16.1179008484 15.1502666473
54.5865440369 16.1173820496 14.9607715607
54.5967445374 16.1193103790 14.7733259201
54.6080589294 16.1215972900 14.5861864090
54.6141548157 16.1222057343 14.3976411819
54.6112937927 16.1199359894 14.2066631317
54.5989265442 16.1146087646 14.0130891800
54.5784721375 16.1066837311 13.8172855377
54.5514106750 16.0966339111 13.6196413040
54.5184135437 16.0846748352 13.4203300476
54.4802551270 16.0710582733 13.2195529938
54.4395942688 16.0566349030 13.0180301666
54.4020576477 16.0432147980 12.8173103333
54.3755187988 16.0333328247 12.6195793152
54.3674621582 16.0293903351 12.4269294739
54.3815994263 16.0325832367 12.2404289246
54.4159812927 16.0422859192 12.0595769882
54.4641075134 16.0564060211 11.8825969696
54.5178833008 16.0723438263 11.7072515488
54.5695114136 16.0875911713 11.5313644409
54.6115531921 16.0997581482 11.3528423309
54.6370277405 16.1065979004 11.1696987152
54.6406936646 16.1064243317 10.9804248810
54.6206665039 16.0986347198 10.7844476700
54.5793495178 16.0839977264 10.5823984146
54.5230293274 16.0645370483 10.3760280609
54.4598274231 16.0428619385 10.1676187515
54.3968925476 16.0212745667 9.9591989517
54.3391494751 16.0013542175 9.7521762848
54.2899017334 15.9841651917 9.5475101471
54.2512474060 15.9703817368 9.3458175659
54.2233200073 15.9600486755 9.1471576691
54.2039947510 15.9524803162 8.9509382248
54.1898651123 15.9465827942 8.7561893463
54.1774101257 15.9412240982 8.5619020462
54.1632385254 15.9353122711 8.3670921326
54.1437644958 15.9276952744 8.1707124710
54.1152687073 15.9171772003 7.9716701508
54.0746307373 15.9027538300 7.7690339088
54.0202980042 15.8839254379 7.5623250008
53.9527053833 15.8608322144 7.3516469002
53.8737792969 15.8340930939 7.1375403404
53.7860984802 15.8045377731 6.9207439423
53.6926841736 15.7731370926 6.7021346092
53.5973052979 15.7411041260 6.4828181267
53.5045051575 15.7098999023 6.2641396523
53.4193229675 15.6811447144 6.0476012230
53.3471641541 15.6565780640 5.8348307610
53.2931976318 15.6378612518 5.6273961067
53.2606468201 15.6260328293 5.4262967110
53.2491073608 15.6209621429 5.2314524651
53.2544250488 15.6213140488 5.0416541100
53.2703666687 15.6250820160 4.8550558090
53.2908515930 15.6303138733 4.6698431969
53.3113250732 15.6355409622 4.4846448898
53.3289070129 15.6398372650 4.2985882759
53.3420944214 15.6427202225 4.1112117767
53.3503875732 15.6440296173 3.9223556519
53.3537178040 15.6437425613 3.7319881916
53.3518028259 15.6417675018 3.5400140285
53.3439178467 15.6378726959 3.3462018967
53.3291320801 15.6317567825 3.1502537727
53.3067207336 15.6231880188 2.9519336224
53.2763481140 15.6120576859 2.7511243820
53.2375068665 15.5982027054 2.5476534367
53.1881980896 15.5809783936 2.3408856392
53.1241340637 15.5590076447 2.1294722557
53.0397262573 15.5304899216 1.9116472006
52.9302444458 15.4939050674 1.6859000921
52.7936935425 15.4486103058 1.4515599012
52.6319351196 15.3952035904 1.2091575861
52.4509315491 15.3356018066 0.9605123997
52.2591667175 15.2725372314 0.7082516551
52.0639266968 15.2083520889 0.4546473920
51.8672637939 15.1437082291 0.2003404647
26.2715721130 -43.9086532593 61.4908752441
26.2727508545 -43.9084854126 61.2998275757
26.2715129852 -43.9045181274 61.1082115173
26.2688808441 -43.8983650208 60.9162635803
26.2666263580 -43.8928070068 60.7243843079
26.2663574219 -43.8903617859 60.5329589844
26.2683334351 -43.8914451599 60.3420562744
26.2713088989 -43.8940963745 60.1513862610
26.2736015320 -43.8956756592 59.9605522156
26.2742233276 -43.8946304321 59.7693099976
26.2733116150 -43.8911781311 59.5776939392
26.2720680237 -43.8872032166 59.3859825134
26.2724285126 -43.8857498169 59.1946525574
26.2764320374 -43.8900146484 59.0042037964
26.2854938507 -43.9022216797 58.8150024414
26.3001136780 -43.9231605530 58.6271858215
26.3199939728 -43.9523620605 58.4407043457
26.3441257477 -43.9882392883 58.2553176880
26.3707027435 -44.0279579163 58.0705947876
26.3970642090 -44.0673332214 57.8858718872
26.4199581146 -44.1012725830 57.7003211975
26.4363307953 -44.1249656677 57.5131568909
26.4442634583 -44.1354026794 57.3238677979
26.4436378479 -44.1324005127 57.1323890686
26.4362449646 -44.1187667847 56.9391555786
26.4253158569 -44.0995826721 56.7449798584
26.4147567749 -44.0809783936 56.5508651733
26.4083003998 -44.0688171387 56.3577880859
26.4085350037 -44.0671653748 56.1664428711
26.4160327911 -44.0769195557 55.9770050049
26.4293460846 -44.0958061218 55.7891197205
26.4460182190 -44.1199722290 55.6021461487
26.4637260437 -44.1457672119 55.4154815674
26.4807205200 -44.1704368591 55.2286567688
26.4957275391 -44.1919860840 55.0413284302
26.5077590942 -44.2088623047 54.8532180786
26.5159969330 -44.2197799683 54.6640968323
26.5196762085 -44.2235374451 54.4737396240
26.5180053711 -44.2188949585 54.2819175720
26.5103607178 -44.2048683167 54.0884323120
26.4968223572 -44.1815795898 53.8932914734
26.4787425995 -44.1511611938 53.6968498230
26.4587898254 -44.1177940369 53.4998321533
26.4402122498 -44.0865936279 53.3031425476
26.4256057739 -44.0616264343 53.1075172424
26.4158153534 -44.0442237854 52.9132118225
26.4097328186 -44.0326499939 52.7199249268
26.4050979614 -44.0233421326 52.5270271301
26.3996067047 -44.0126953125 52.3338623047
26.3916625977 -43.9981918335 52.1399726868
26.3806896210 -43.9789314270 51.9451828003
26.3672904968 -43.9558601379 51.7496528625
26.3531398773 -43.9316062927 51.5538635254
26.3404464722 -43.9096412659 51.3584594727
26.3312053680 -43.8930969238 51.1640281677
26.3268203735 -43.8841896057 50.9709930420
26.3282012939 -43.8843307495 50.7796440125
26.3357944489 -43.8942375183 50.5901298523
26.3492679596 -43.9133758545 50.4023780823
26.3670768738 -43.9393272400 50.2159423828
26.3865032196 -43.9678230286 50.0300292969
26.4041290283 -43.9934883118 49.8436050415
26.4164638519 -44.0108451843 49.6556167603
26.4208717346 -44.0157432556 49.4652366638
26.4167785645 -44.0072860718 49.2722702026
26.4063472748 -43.9888763428 49.0773429871
26.3938007355 -43.9671401978 48.8817329407
26.3838977814 -43.9495544434 48.6868972778
26.3804931641 -43.9421806335 48.4940414429
26.3854637146 -43.9479637146 48.3037719727
26.3981437683 -43.9658622742 48.1159095764
26.4157524109 -43.9915008545 47.9296150208
26.4345588684 -44.0190238953 47.7437248230
26.4508819580 -44.0426445007 47.5570869446
26.4615612030 -44.0573959351 47.3686904907
26.4645442963 -44.0600624084 47.1778640747
26.4597110748 -44.0504417419 46.9845466614
26.4491195679 -44.0317764282 46.7893600464
26.4361019135 -44.0092964172 46.5933609009
26.4238262177 -43.9879837036 46.3975601196
26.4144058228 -43.9711570740 46.2026481628
26.4088821411 -43.9604492188 46.0089683533
26.4075317383 -43.9562988281 45.8166275024
26.4100608826 -43.9582481384 45.6255455017
26.4156169891 -43.9649505615 45.4354515076
26.4227237701 -43.9740905762 45.2458763123
26.4294013977 -43.9825592041 45.0561637878
26.4336338043 -43.9871826172 44.8656463623
26.4341506958 -43.9859657288 44.6738929749
26.4309654236 -43.9789352417 44.4808959961
26.4251766205 -43.9678115845 44.2870063782
26.4182586670 -43.9549140930 44.0927124023
26.4115295410 -43.9423141479 43.8984603882
26.4060096741 -43.9316101074 43.7045898438
26.4024467468 -43.9239845276 43.5113639832
26.4013042450 -43.9201622009 43.3189468384
26.4026699066 -43.9202804565 43.1273765564
26.4061298370 -43.9236907959 42.9365196228
26.4107093811 -43.9288597107 42.7460517883
26.4150257111 -43.9336128235 42.5554885864
26.4176616669 -43.9357299805 42.3643493652
26.4175701141 -43.9335556030 42.1722526550
26.4143447876 -43.9264564514 41.9790496826
26.4084281921 -43.9151306152 41.7848892212
26.4012374878 -43.9018020630 41.5902557373
26.3950004578 -43.8899726868 41.3959312439
26.3922061920 -43.8835525513 41.2028045654
26.3948898315 -43.8857421875 41.0116081238
26.4039649963 -43.8979759216 40.8226890564
26.4188137054 -43.9192810059 40.6358489990
26.4373683929 -43.9464149475 40.4503669739
26.4567527771 -43.9748497009 40.2652168274
26.4741592407 -44.0001754761 40.0793876648
26.4874820709 -44.0190887451 39.8921127319
26.4955348969 -44.0297164917 39.7029418945
26.4979972839 -44.0315589905 39.5117378235
26.4953765869 -44.0254096985 39.3186721802
26.4889698029 -44.0133132935 39.1241989136
26.4807624817 -43.9983825684 38.9290351868
26.4731407166 -43.9843750000 38.7340621948
26.4683933258 -43.9748840332 38.5401306152
26.4681491852 -43.9724693298 38.3478507996
26.4729690552 -43.9780158997 38.1574516296
26.4823341370 -43.9907073975 37.9687576294
26.4949703217 -44.0085372925 37.7813034058
26.5092849731 -44.0290069580 37.5945014954
26.5236892700 -44.0496215820 37.4077606201
26.5367774963 -44.0681648254 37.2205429077
26.5474567413 -44.0829200745 37.0324325562
26.5550765991 -44.0928688049 36.8431701660
26.5594921112 -44.0977821350 36.6526908875
26.5610771179 -44.0982437134 36.4611244202
26.5606460571 -44.0955352783 36.2687797546
26.5592880249 -44.0913696289 36.0760650635
26.5582122803 -44.0876541138 35.8834457397
26.5586071014 -44.0862426758 35.6913909912
26.5614471436 -44.0886764526 35.5002746582
26.5672531128 -44.0957717896 35.3103179932
26.5758590698 -44.1072731018 35.1214675903
26.5863361359 -44.1217117310 34.9333610535
26.5971393585 -44.1366653442 34.7453956604
26.6064586639 -44.1492843628 34.5568618774
26.6126880646 -44.1570472717 34.3671150208
26.6148319244 -44.1583862305 34.1757469177
26.6128253937 -44.1532058716 33.9827194214
26.6077003479 -44.1431198120 33.7884292603
26.6014213562 -44.1312179565 33.5936546326
26.5964031219 -44.1212959290 33.3993606567
26.5948333740 -44.1167984009 33.2064399719
26.5980949402 -44.1198959351 33.0154647827
26.6064567566 -44.1310081482 32.8265609741
26.6190280914 -44.1487426758 32.6393814087
26.6339435577 -44.1701622009 32.4531784058
26.6487789154 -44.1914558411 32.2669715881
26.6611080170 -44.2088088989 32.0797615051
26.6689872742 -44.2191658020 31.8907337189
26.6712188721 -44.2206459045 31.6993808746
26.6674785614 -44.2127342224 31.5055503845
26.6583862305 -44.1964073181 31.3094768524
26.6456089020 -44.1742897034 31.1118354797
26.6317996979 -44.1505470276 30.9137229919
26.6201496124 -44.1301994324 30.7164726257
26.6136093140 -44.1178817749 30.5213356018
26.6141262054 -44.1166648865 30.3291511536
26.6221294403 -44.1272163391 30.1401214600
26.6361961365 -44.1473007202 29.9536743164
26.6532039642 -44.1720085144 29.7684993744
26.6692104340 -44.1951446533 29.5829296112
26.6807918549 -44.2113227844 29.3954963684
26.6859703064 -44.2174377441 29.2053375244
26.6845016479 -44.2130966187 29.0123233795
26.6778602600 -44.2006225586 28.8170661926
26.6690006256 -44.1846580505 28.6208248138
26.6615619659 -44.1709327698 28.4251689911
26.6587276459 -44.1644401550 28.2314872742
26.6624183655 -44.1682128906 28.0406360626
26.6731929779 -44.1831245422 27.8528785706
26.6903438568 -44.2080574036 27.6679306030
26.7119598389 -44.2400169373 27.4849777222
26.7352008820 -44.2745323181 27.3027801514
26.7569923401 -44.3067665100 27.1199913025
26.7748050690 -44.3327445984 26.9354782104
26.7870063782 -44.3498992920 26.7485084534
26.7929172516 -44.3571624756 26.5587577820
26.7928791046 -44.3550720215 26.3663539886
26.7883186340 -44.3458671570 26.1719188690
26.7815151215 -44.3331375122 25.9764537811
26.7750377655 -44.3209228516 25.7811126709
26.7710132599 -44.3125572205 25.5868530273
26.7704410553 -44.3096275330 25.3941364288
26.7729167938 -44.3114891052 25.2027912140
26.7769145966 -44.3157424927 25.0121345520
26.7805042267 -44.3193550110 24.8212928772
26.7820949554 -44.3198242188 24.6295356750
26.7809371948 -44.3159713745 24.4365158081
26.7772979736 -44.3082160950 24.2423419952
26.7723045349 -44.2983283997 24.0475254059
26.7675533295 -44.2888221741 23.8528003693
26.7646617889 -44.2822418213 23.6589164734
26.7648429871 -44.2804946899 23.4664421082
26.7686576843 -44.2844619751 23.2756519318
26.7760486603 -44.2940521240 23.0865287781
26.7865676880 -44.3085632324 22.8988761902
26.7995376587 -44.3269271851 22.7123908997
26.8140354156 -44.3476943970 22.5266437531
26.8288707733 -44.3689956665 22.3410816193
26.8426513672 -44.3886375427 22.1550483704
26.8539466858 -44.4043693542 21.9678592682
26.8615322113 -44.4142684937 21.7789268494
26.8646583557 -44.4171485901 21.5878791809
26.8631706238 -44.4127807617 21.3946285248
26.8574657440 -44.4017715454 21.1993465424
26.8484306335 -44.3855285645 21.0024452209
26.8375720978 -44.3664131165 20.8046360016
26.8270378113 -44.3478126526 20.6069469452
26.8191242218 -44.3333282471 20.4104919434
26.8154067993 -44.3254470825 20.2160396576
26.8161182404 -44.3245315552 20.0237216949
26.8200664520 -44.3287086487 19.8329696655
26.8250312805 -44.3344841003 19.6427154541
26.8286094666 -44.3380775452 19.4517860413
26.8291835785 -44.3369445801 19.2593822479
26.8263511658 -44.3304557800 19.0652961731
26.8205757141 -44.3193321228 18.8697433472
26.8127517700 -44.3049926758 18.6731548309
26.8042316437 -44.2895545959 18.4761962891
26.7968578339 -44.2759208679 18.2797756195
26.7925910950 -44.2671737671 18.0848751068
26.7930545807 -44.2658653259 17.8923130035
26.7993888855 -44.2737960815 17.7026767731
26.8121166229 -44.2917823792 17.5162506104
26.8305702209 -44.3187751770 17.3327198029
26.8524665833 -44.3511848450 17.1509571075
26.8745002747 -44.3838119507 16.9693050385
26.8937473297 -44.4120559692 16.7862873077
26.9086284637 -44.4334297180 16.6010932922
26.9189033508 -44.4475593567 16.4135837555
26.9252777100 -44.4555549622 16.2241039276
26.9290790558 -44.4594955444 16.0333156586
26.9319152832 -44.4619255066 15.8420352936
26.9352722168 -44.4651679993 15.6510171890
26.9401817322 -44.4708595276 15.4607963562
26.9471168518 -44.4797363281 15.2716217041
26.9559841156 -44.4916496277 15.0834522247
26.9662170410 -44.5057144165 14.8960018158
26.9769439697 -44.5205535889 14.7088222504
26.9871673584 -44.5346069336 14.5213975906
26.9959182739 -44.5463409424 14.3332204819
27.0022945404 -44.5543327332 14.1438131332
27.0054512024 -44.5572662354 13.9527273178
27.0046634674 -44.5539932251 13.7595691681
26.9994907379 -44.5438194275 13.5640945435
26.9900379181 -44.5269088745 13.3663415909
26.9771614075 -44.5046119690 13.1667490005
26.9625415802 -44.4795722961 12.9661931992
26.9484024048 -44.4552917480 12.7658491135
26.9367942810 -44.4349899292 12.5668067932
26.9287796021 -44.4203414917 12.3696441650
26.9242153168 -44.4111213684 12.1742963791
26.9221878052 -44.4058952332 11.9802865982
26.9215736389 -44.4028930664 11.7870216370
26.9212589264 -44.4003601074 11.5939064026
26.9200916290 -44.3964843750 11.4003210068
26.9169731140 -44.3895416260 11.2056713104
26.9112129211 -44.3784370422 11.0095729828
26.9028358459 -44.3632164001 10.8120326996
26.8926506042 -44.3451538086 10.6134805679
26.8821334839 -44.3265647888 10.4147129059
26.8733272552 -44.3106689453 10.2168464661
26.8685302734 -44.3010826111 10.0211439133
26.8696784973 -44.3008499146 9.8286819458
26.8776283264 -44.3113212585 9.6399507523
26.8915176392 -44.3311386108 9.4545021057
26.9084262848 -44.3557052612 9.2707424164
26.9239559174 -44.3781089783 9.0862522125
26.9339580536 -44.3918075562 8.8987245560
26.9362049103 -44.3933067322 8.7069025040
26.9307670593 -44.3827095032 8.5107984543
26.9193515778 -44.3627052307 8.3113355637
26.9047336578 -44.3376617432 8.1100463867
26.8905220032 -44.3132553101 7.9089398384
26.8805522919 -44.2955284119 7.7101731300
26.8776454926 -44.2889137268 7.5153474808
26.8824634552 -44.2944526672 7.3248615265
26.8934497833 -44.3097038269 7.1378650665
26.9076595306 -44.3300285339 6.9527106285
26.9214611053 -44.3497085571 6.7673482895
26.9310226440 -44.3627166748 6.5795979500
26.9334030151 -44.3644218445 6.3877687454
26.9280052185 -44.3538894653 6.1914949417
26.9168815613 -44.3343429565 5.9919219017
26.9034385681 -44.3111419678 5.7909827232
26.8908481598 -44.2892875671 5.5904927254
26.8812313080 -44.2721099854 5.3916749954
26.8755741119 -44.2611656189 5.1951103210
26.8741893768 -44.2569427490 5.0009937286
26.8773994446 -44.2599563599 4.8095264435
26.8858642578 -44.2712364197 4.6211075783
26.9001522064 -44.2916831970 4.4360885620
26.9198913574 -44.3207130432 4.2542715073
26.9432334900 -44.3554115295 4.0745968819
26.9671020508 -44.3909378052 3.8952763081
26.9880046844 -44.4217987061 3.7142636776
27.0028133392 -44.4430656433 3.5297102928
27.0090789795 -44.4508895874 3.3401522636
27.0051441193 -44.4426574707 3.1445796490
26.9904804230 -44.4175338745 2.9426438808
26.9660892487 -44.3770980835 2.7349016666
26.9342193604 -44.3248901367 2.5226507187
26.8972949982 -44.2647247314 2.3073081970
26.8571414948 -44.1994743347 2.0899448395
26.8153514862 -44.1316490173 1.8714984655
26.7740173340 -44.0645408630 1.6532157660
26.7354583740 -44.0017967224 1.4364889860
26.7011013031 -43.9456672668 1.2221866846
26.6710300446 -43.8962860107 1.0103727579
26.6446208954 -43.8526649475 0.8006872535
26.6212139130 -43.8137702942 0.5927433372
26.5999908447 -43.7783126831 0.3860572278
26.5795459747 -43.7440795898 0.1797830909
54.2223815918 1.6288676262 61.6110610962
54.2370872498 1.6282904148 61.4226188660
54.2687225342 1.6285302639 61.2360229492
54.3182449341 1.6296331882 61.0514183044
54.3817634583 1.6314119101 60.8684082031
54.4498710632 1.6334127188 60.6859703064
54.5109672546 1.6350754499 60.5028305054
54.5561256409 1.6359695196 60.3179740906
54.5825233459 1.6359581947 60.1310539246
54.5938758850 1.6352206469 59.9424629211
54.5978050232 1.6341249943 59.7530326843
54.6017608643 1.6330304146 59.5636062622
54.6101913452 1.6321518421 59.3746910095
54.6243362427 1.6315494776 59.1864356995
54.6436843872 1.6311982870 58.9987983704
54.6676216125 1.6310689449 58.8117103577
54.6961364746 1.6311608553 58.6251792908
54.7290992737 1.6314677000 58.4391975403
54.7650680542 1.6319200993 58.2536087036
54.8012962341 1.6323852539 58.0680847168
54.8352012634 1.6327384710 57.8823204041
54.8656959534 1.6329270601 57.6961784363
54.8927993774 1.6329520941 57.5096588135
54.9158401489 1.6327806711 57.3226699829
54.9322700500 1.6322901249 57.1348953247
54.9390678406 1.6313338280 56.9459571838
54.9357757568 1.6298899651 56.7557754517
54.9262237549 1.6281431913 56.5648078918
54.9170036316 1.6264125109 56.3738632202
54.9142227173 1.6249928474 56.1837081909
54.9209327698 1.6240323782 55.9947319031
54.9364624023 1.6234983206 55.8068695068
54.9575309753 1.6232322454 55.6197204590
54.9804954529 1.6230580807 55.4328308105
55.0030555725 1.6228644848 55.2459144592
55.0242080688 1.6226028204 55.0588340759
55.0430984497 1.6222317219 54.8714790344
55.0584449768 1.6216894388 54.6836814880
55.0692367554 1.6209267378 54.4953002930
55.0757560730 1.6199574471 54.3063697815
55.0797348022 1.6188651323 54.1171035767
55.0835304260 1.6177638769 53.9278106689
55.0893287659 1.6167597771 53.7387847900
55.0990524292 1.6159454584 53.5502777100
55.1145820618 1.6154123545 53.3625564575
55.1375007629 1.6152371168 53.1758422852
55.1680412292 1.6154309511 52.9901733398
55.2043304443 1.6159036160 52.8053169250
55.2429580688 1.6164896488 52.6208152771
55.2803115845 1.6170144081 52.4361801147
55.3133964539 1.6173324585 52.2509956360
55.3396301270 1.6173189878 52.0648956299
55.3563957214 1.6168467999 51.8775100708
55.3611373901 1.6157921553 51.6884613037
55.3523292542 1.6140811443 51.4975166321
55.3308906555 1.6117577553 51.3047828674
55.3008422852 1.6090167761 51.1107978821
55.2681617737 1.6061478853 50.9164009094
55.2383232117 1.6034166813 50.7223587036
55.2143440247 1.6009690762 50.5291137695
55.1964340210 1.5988156796 50.3367042542
55.1829185486 1.5968748331 50.1449012756
55.1713752747 1.5950297117 49.9533576965
55.1595306396 1.5931696892 49.7617492676
55.1455917358 1.5912081003 49.5698165894
55.1282348633 1.5890804529 49.3773574829
55.1063613892 1.5867336988 49.1842079163
55.0790557861 1.5841230154 48.9902267456
55.0460357666 1.5812349319 48.7953529358
55.0086784363 1.5781360865 48.5997924805
54.9705200195 1.5749980211 48.4040565491
54.9360656738 1.5720393658 48.2088241577
54.9087181091 1.5694252253 48.0146179199
54.8898124695 1.5672205687 47.8216476440
54.8792724609 1.5654217005 47.6299171448
54.8763542175 1.5639927387 47.4393310547
54.8793296814 1.5628498793 47.2496337891
54.8845825195 1.5618175268 47.0602836609
54.8867187500 1.5606338978 46.8704566956
54.8804855347 1.5590437651 46.6793251038
54.8632698059 1.5569201708 46.4864730835
54.8362274170 1.5543191433 46.2920608521
54.8035469055 1.5514439344 46.0967254639
54.7709007263 1.5485702753 45.9013519287
54.7438926697 1.5459702015 45.7068214417
54.7268791199 1.5438551903 45.5138320923
54.7225189209 1.5423550606 45.3228340149
54.7317886353 1.5415169001 45.1339950562
54.7536621094 1.5412913561 44.9471817017
54.7848854065 1.5415203571 44.7618904114
54.8205299377 1.5419645309 44.5773468018
54.8548126221 1.5423425436 44.3926124573
54.8809432983 1.5423245430 44.2065925598
54.8904075623 1.5414965153 44.0178756714
54.8738555908 1.5394036770 43.8248977661
54.8243675232 1.5357091427 43.6264801025
54.7411499023 1.5303741693 43.4224281311
54.6307678223 1.5237170458 43.2137718201
54.5044708252 1.5162853003 43.0023307800
54.3732414246 1.5086123943 42.7899055481
54.2439842224 1.5010343790 42.5776519775
54.1197471619 1.4936994314 42.3660774231
54.0031509399 1.4867352247 42.1556358337
53.8997840881 1.4804136753 41.9472846985
53.8187484741 1.4751780033 41.7425956726
53.7704620361 1.4715352058 41.5433845520
53.7639846802 1.4699267149 41.3512611389
53.8051452637 1.4706368446 41.1672973633
53.8945159912 1.4736938477 40.9916801453
54.0254859924 1.4787765741 40.8233528137
54.1851921082 1.4852595329 40.6601600647
54.3586158752 1.4924113750 40.4995384216
54.5313720703 1.4995321035 40.3390007019
54.6892585754 1.5059301853 40.1760597229
54.8186798096 1.5109432936 40.0082969666
54.9111251831 1.5141563416 39.8341560364
54.9676742554 1.5156217813 39.6537666321
54.9982414246 1.5158219337 39.4688224792
55.0159721375 1.5153969526 39.2816200256
55.0317344666 1.5148760080 39.0940818787
55.0518646240 1.5145682096 38.9073410034
55.0787734985 1.5145907402 38.7218322754
55.1122512817 1.5149335861 38.5375404358
55.1503524780 1.5155019760 38.3541183472
55.1902236938 1.5161569118 38.1710586548
55.2289657593 1.5167571306 37.9878311157
55.2639427185 1.5171740055 37.8039550781
55.2927360535 1.5172895193 37.6189765930
55.3135070801 1.5170141459 37.4325523376
55.3254890442 1.5163105726 37.2445182800
55.3287429810 1.5151813030 37.0548782349
55.3237533569 1.5136499405 36.8636970520
55.3119850159 1.5117876530 36.6712379456
55.2971000671 1.5097734928 36.4781761169
55.2852210999 1.5079057217 36.2856559753
55.2829551697 1.5065068007 36.0949249268
55.2941627502 1.5057650805 35.9067306519
55.3179893494 1.5056393147 35.7209358215
55.3495597839 1.5058914423 35.5366363525
55.3823356628 1.5062025785 35.3525962830
55.4105453491 1.5062911510 35.1677169800
55.4306716919 1.5059853792 34.9813117981
55.4416618347 1.5052337646 34.7931632996
55.4441986084 1.5040695667 34.6033897400
55.4397392273 1.5025634766 34.4122543335
55.4298400879 1.5007920265 34.2200508118
55.4160614014 1.4988309145 34.0270729065
55.4004974365 1.4967824221 33.8337211609
55.3866844177 1.4948192835 33.6406860352
55.3798904419 1.4931988716 33.4490089417
55.3858032227 1.4921988249 33.2598266602
55.4080238342 1.4919958115 33.0738754272
55.4459495544 1.4925597906 32.8910636902
55.4941368103 1.4936257601 32.7103347778
55.5436859131 1.4947584867 32.5299301147
55.5852584839 1.4955017567 32.3479766846
55.6124687195 1.4955433607 32.1631813049
55.6235160828 1.4947952032 31.9751510620
55.6201477051 1.4933425188 31.7842121124
55.6052017212 1.4913237095 31.5909137726
55.5810317993 1.4888539314 31.3957157135
55.5503807068 1.4860670567 31.1991596222
55.5183601379 1.4832127094 31.0022773743
55.4923858643 1.4806537628 30.8065929413
55.4791564941 1.4787179232 30.6134929657
55.4814949036 1.4775434732 30.4235858917
55.4979515076 1.4770592451 30.2365951538
55.5242576599 1.4770570993 30.0516643524
55.5544776917 1.4772465229 29.8675746918
55.5816268921 1.4772859812 29.6828708649
55.5990867615 1.4768513441 29.4961643219
55.6027107239 1.4757399559 29.3065662384
55.5922431946 1.4739389420 29.1139965057
55.5707473755 1.4715980291 28.9190788269
55.5424003601 1.4689214230 28.7226753235
55.5105171204 1.4660716057 28.5254802704
55.4773368835 1.4631581306 28.3279647827
55.4450683594 1.4602887630 28.1305961609
55.4165306091 1.4576020241 27.9339828491
55.3947067261 1.4552433491 27.7387695313
55.3816680908 1.4533150196 27.5454177856
55.3779411316 1.4518423080 27.3540534973
55.3824501038 1.4507730007 27.1644630432
55.3927040100 1.4499850273 26.9761199951
55.4050865173 1.4493012428 26.7882442474
55.4156723022 1.4485297203 26.5999870300
55.4216880798 1.4475343227 26.4107322693
55.4227905273 1.4462980032 26.2203998566
55.4213485718 1.4449371099 26.0295009613
55.4215660095 1.4436573982 25.8389606476
55.4275436401 1.4426600933 25.6496887207
55.4412269592 1.4420403242 25.4621295929
55.4613075256 1.4417341948 25.2760028839
55.4834823608 1.4415310621 25.0903644562
55.5017585754 1.4411365986 24.9038696289
55.5107345581 1.4402863979 24.7153034210
55.5082893372 1.4388762712 24.5241718292
55.4965934753 1.4370124340 24.3309402466
55.4805297852 1.4349342585 24.1367015839
55.4650421143 1.4328840971 23.9425678253
55.4535980225 1.4310321808 23.7493267059
55.4481582642 1.4294745922 23.5574359894
55.4496421814 1.4282566309 23.3671150208
55.4582710266 1.4273889065 23.1784248352
55.4736938477 1.4268548489 22.9913024902
55.4948043823 1.4265998602 22.8055038452
55.5192527771 1.4265089035 22.6204929352
55.5434188843 1.4264042377 22.4354400635
55.5634117126 1.4260947704 22.2494411469
55.5764999390 1.4254466295 22.0618495941
55.5818290710 1.4244174957 21.8724575043
55.5801124573 1.4230426550 21.6814136505
55.5729789734 1.4214016199 21.4890899658
55.5624809265 1.4195953608 21.2959594727
55.5511360168 1.4177473783 21.1026096344
55.5424499512 1.4160298109 20.9098682404
55.5412368774 1.4146790504 20.7188816071
55.5522804260 1.4139304161 20.5307998657
55.5773124695 1.4138690233 20.3460597992
55.6126174927 1.4143124819 20.1637973785
55.6500015259 1.4148582220 19.9820671082
55.6807823181 1.4150798321 19.7987899780
55.6997222900 1.4147197008 19.6126937866
55.7060394287 1.4137393236 19.4235649109
55.7017898560 1.4122397900 19.2318820953
55.6899795532 1.4103684425 19.0383548737
55.6737670898 1.4082807302 18.8437347412
55.6561317444 1.4061225653 18.6487407684
55.6393241882 1.4040051699 18.4539222717
55.6247291565 1.4019962549 18.2596187592
55.6134986877 1.4001526833 18.0661163330
55.6073760986 1.3985600471 17.8738517761
55.6087341309 1.3973354101 17.6834182739
55.6194610596 1.3965712786 17.4952964783
55.6392211914 1.3962516785 17.3094215393
55.6646423340 1.3962106705 17.1249694824
55.6903762817 1.3961853981 16.9406204224
55.7113838196 1.3959273100 16.7551155090
55.7246894836 1.3952907324 16.5676994324
55.7299346924 1.3942574263 16.3782711029
55.7288398743 1.3929121494 16.1872463226
55.7240829468 1.3913866282 15.9952898026
55.7181358337 1.3898023367 15.8030204773
55.7125587463 1.3882362843 15.6108312607
55.7079429626 1.3867173195 15.4188718796
55.7041397095 1.3852384090 15.2271070480
55.7007904053 1.3837817907 15.0354471207
55.6981391907 1.3823592663 14.8439550400
55.6975898743 1.3810402155 14.6529912949
55.7009735107 1.3799149990 14.4630308151
55.7085647583 1.3789968491 14.2741518021
55.7176742554 1.3781536818 14.0856676102
55.7233963013 1.3771435022 13.8963098526
55.7211227417 1.3757394552 13.7048788071
55.7095108032 1.3738753796 13.5110101700
55.6921653748 1.3717285395 13.3156270981
55.6764106750 1.3696597815 13.1206302643
55.6694602966 1.3680248260 12.9279136658
55.6745872498 1.3669850826 12.7383518219
55.6898002625 1.3664423227 12.5514402390
55.7093353271 1.3661128283 12.3656816483
55.7263603210 1.3656597137 12.1792755127
55.7349357605 1.3647900820 11.9906454086
55.7307929993 1.3632934093 11.7986440659
55.7119979858 1.3610739708 11.6027317047
55.6803817749 1.3582222462 11.4033718109
55.6426620483 1.3550691605 11.2023363113
55.6090469360 1.3521180153 11.0023469925
55.5890998840 1.3498411179 10.8059806824
55.5879211426 1.3484895229 10.6146316528
55.6053962708 1.3480583429 10.4283056259
55.6378974915 1.3483686447 10.2460536957
55.6796569824 1.3491358757 10.0663423538
55.7235450745 1.3500084877 9.8872518539
55.7628974915 1.3506577015 9.7069749832
55.7942848206 1.3509138823 9.5245656967
55.8185386658 1.3508182764 9.3402385712
55.8385810852 1.3505150080 9.1547803879
55.8558883667 1.3500766754 8.9685888290
55.8685112000 1.3494070768 8.7811222076
55.8720207214 1.3482878208 8.5911521912
55.8625221252 1.3465260267 8.3975858688
55.8396720886 1.3441047668 8.2003040314
55.8079299927 1.3412442207 8.0005207062
55.7753486633 1.3383417130 7.8004579544
55.7504081726 1.3358165026 7.6024799347
55.7386436462 1.3339418173 7.4081435204
55.7407608032 1.3327529430 7.2176728249
55.7532691956 1.3320773840 7.0301127434
55.7707405090 1.3316471577 6.8439559937
55.7880859375 1.3312107325 6.6577777863
55.8017120361 1.3305906057 6.4705634117
55.8096427917 1.3296891451 6.2817478180
55.8111495972 1.3284701109 6.0911130905
55.8060646057 1.3269250393 5.8986005783
55.7939376831 1.3250321150 5.7040710449
55.7736282349 1.3227342367 5.5071845055
55.7442131042 1.3199858665 5.3076624870
55.7071685791 1.3168599606 5.1059117317
55.6680107117 1.3136292696 4.9035038948
55.6357574463 1.3107397556 4.7030282021
55.6203460693 1.3086827993 4.5073628426
55.6295356750 1.3078427315 4.3187813759
55.6664505005 1.3083740473 4.1382317543
55.7286643982 1.3101574183 3.9650609493
55.8093872070 1.3128571510 3.7973408699
55.8999938965 1.3160465956 3.6325917244
55.9925231934 1.3193316460 3.4685056210
56.0810241699 1.3224182129 3.3033461571
56.1612205505 1.3250942230 3.1358516216
56.2294235229 1.3271774054 2.9649243355
56.2829933167 1.3285367489 2.7897646427
56.3222198486 1.3291863203 2.6104316711
56.3504905701 1.3292936087 2.4278998375
56.3712806702 1.3290307522 2.2431795597
56.3849372864 1.3284147978 2.0563611984
56.3884696960 1.3272974491 1.8665407896
56.3779029846 1.3254818916 1.6725163460
56.3508262634 1.3228483200 1.4735414982
56.3075942993 1.3194142580 1.2696931362
56.2511863708 1.3153271675 1.0618356466
56.1861801147 1.3108135462 0.8513199687
56.1173973083 1.3061120510 0.6395810843
56.0487785339 1.3014181852 0.4278022051
55.9830627441 1.2968674898 0.2168109268
55.9219703674 1.2925455570 0.0071344464
13.9052467346 -48.8661003113 61.0635261536
13.9167909622 -48.8991203308 60.8765563965
13.9335775375 -48.9487762451 60.6918182373
13.9504356384 -48.9986648560 60.5071716309
13.9630050659 -49.0349426270 60.3207664490
13.9690895081 -49.0506401062 60.1316490173
13.9687099457 -49.0458221436 59.9397811890
13.9633064270 -49.0250549316 59.7457466125
13.9548616409 -48.9946403503 59.5503616333
13.9454488754 -48.9611473083 59.3545112610
13.9370288849 -48.9308090210 59.1590461731
13.9311561584 -48.9085540771 58.9646453857
13.9287157059 -48.8971900940 58.7717208862
13.9299974442 -48.8976402283 58.5804176331
13.9349975586 -48.9098968506 58.3907623291
13.9435815811 -48.9335250854 58.2027130127
13.9554233551 -48.9674949646 58.0161514282
13.9699106216 -49.0098609924 57.8308181763
13.9861688614 -49.0578536987 57.6463356018
14.0030937195 -49.1079597473 57.4622116089
14.0192470551 -49.1556205750 57.2777976990
14.0328006744 -49.1950302124 57.0922470093
14.0418043137 -49.2199935913 56.9046440125
14.0448417664 -49.2260208130 56.7143058777
14.0417308807 -49.2125320435 56.5211105347
14.0337963104 -49.1837310791 56.3256340027
14.0234708786 -49.1473350525 56.1289939880
14.0134983063 -49.1120605469 55.9324645996
14.0062351227 -49.0853843689 55.7371635437
14.0032310486 -49.0722312927 55.5438461304
14.0048923492 -49.0738868713 55.3527336121
14.0102958679 -49.0874214172 55.1634140015
14.0174818039 -49.1066207886 54.9749641418
14.0242147446 -49.1243782043 54.7863121033
14.0287265778 -49.1350822449 54.5965995789
14.0301427841 -49.1359634399 54.4053840637
14.0286493301 -49.1276016235 54.2127342224
14.0253486633 -49.1135063171 54.0191764832
14.0217313766 -49.0984001160 53.8254356384
14.0189933777 -49.0860900879 53.6321105957
14.0176992416 -49.0783615112 53.4394760132
14.0179061890 -49.0754013062 53.2475814819
14.0195045471 -49.0768547058 53.0563735962
14.0224409103 -49.0825576782 52.8658370972
14.0267467499 -49.0926132202 52.6759986877
14.0323944092 -49.1069221497 52.4868469238
14.0390529633 -49.1244468689 52.2982254028
14.0458974838 -49.1425628662 52.1097183228
14.0516271591 -49.1571350098 51.9206504822
14.0548400879 -49.1637153625 51.7302932739
14.0546483994 -49.1594886780 51.5381698608
14.0510587692 -49.1444702148 51.3442611694
14.0448246002 -49.1210517883 51.1489372253
14.0370197296 -49.0926437378 50.9527511597
14.0287847519 -49.0628738403 50.7562942505
14.0213289261 -49.0355720520 50.5602035522
14.0159111023 -49.0147438049 50.3651542664
14.0135803223 -49.0037193298 50.1717224121
14.0147571564 -49.0038337708 49.9801521301
14.0190296173 -49.0137786865 49.7902412415
14.0253639221 -49.0302734375 49.6014518738
14.0325765610 -49.0495567322 49.4131584167
14.0397176743 -49.0686111450 49.2248420715
14.0461397171 -49.0853843689 49.0361518860
14.0513305664 -49.0982475281 48.8468017578
14.0548057556 -49.1056632996 48.6565132141
14.0563106537 -49.1068191528 48.4651412964
14.0561456680 -49.1026687622 48.2728309631
14.0551977158 -49.0960388184 48.0800781250
14.0545740128 -49.0904312134 47.8874893188
14.0550899506 -49.0884475708 47.6955261230
14.0569400787 -49.0906944275 47.5043029785
14.0596599579 -49.0957107544 47.3135719299
14.0623550415 -49.1006469727 47.1228294373
14.0640497208 -49.1024055481 46.9315109253
14.0640029907 -49.0986328125 46.7391967773
14.0619115829 -49.0883636475 46.5456924438
14.0580196381 -49.0723762512 46.3511314392
14.0531940460 -49.0534210205 46.1559982300
14.0488328934 -49.0359420776 45.9611053467
14.0464944839 -49.0248832703 45.7673645020
14.0473470688 -49.0239677429 45.5754661560
14.0518360138 -49.0345993042 45.3856964111
14.0596981049 -49.0559501648 45.1979255676
14.0701255798 -49.0854492188 45.0116882324
14.0818109512 -49.1189460754 44.8262329102
14.0930280685 -49.1509513855 44.6405372620
14.1019783020 -49.1757621765 44.4535217285
14.1073226929 -49.1891136169 44.2643699646
14.1084823608 -49.1891708374 44.0727081299
14.1055812836 -49.1763305664 43.8785896301
14.0993204117 -49.1528091431 43.6824073792
14.0909729004 -49.1226615906 43.4849205017
14.0823478699 -49.0916328430 43.2872161865
14.0754508972 -49.0660896301 43.0905189514
14.0719118118 -49.0512161255 42.8958511353
14.0725193024 -49.0495147705 42.7037124634
14.0771150589 -49.0604896545 42.5140304565
14.0847930908 -49.0812568665 42.3262748718
14.0942096710 -49.1075477600 42.1396217346
14.1038722992 -49.1346206665 41.9531517029
14.1123342514 -49.1578826904 41.7659568787
14.1183347702 -49.1733169556 41.5772361755
14.1209774017 -49.1780853271 41.3864097595
14.1200532913 -49.1715202332 41.1933212280
14.1163244247 -49.1560401917 40.9984359741
14.1115570068 -49.1372642517 40.8028602600
14.1081390381 -49.1227722168 40.6081199646
14.1082983017 -49.1196479797 40.4156455994
14.1131877899 -49.1315574646 40.2262115479
14.1223802567 -49.1571350098 40.0395660400
14.1341114044 -49.1907844543 39.8545951843
14.1460733414 -49.2251701355 39.6698112488
14.1562099457 -49.2537536621 39.4838752747
14.1631660461 -49.2722320557 39.2958908081
14.1663751602 -49.2788009644 39.1054611206
14.1660013199 -49.2739830017 38.9126701355
14.1628160477 -49.2602310181 38.7180099487
14.1579036713 -49.2409896851 38.5221786499
14.1522617340 -49.2194252014 38.3258285522
14.1466197968 -49.1978645325 38.1294441223
14.1416435242 -49.1784133911 37.9334716797
14.1381874084 -49.1637992859 37.7384834290
14.1371860504 -49.1569824219 37.5451278687
14.1392097473 -49.1597824097 37.3537979126
14.1440649033 -49.1715812683 37.1643867493
14.1507415771 -49.1891708374 36.9762229919
14.1577291489 -49.2077484131 36.7882919312
14.1634607315 -49.2223320007 36.5995140076
14.1665925980 -49.2286567688 36.4089660645
14.1660318375 -49.2232398987 36.2158775330
14.1609563828 -49.2034759521 36.0196571350
14.1510152817 -49.1682395935 35.8200302124
14.1365680695 -49.1186790466 35.6172180176
14.1186027527 -49.0579376221 35.4118843079
14.0983018875 -48.9897689819 35.2048263550
14.0766983032 -48.9174537659 34.9967575073
14.0547456741 -48.8440322876 34.7883415222
14.0335140228 -48.7728958130 34.5803298950
14.0141324997 -48.7076454163 34.3735237122
13.9976110458 -48.6514778137 34.1686553955
13.9847841263 -48.6070594788 33.9663391113
13.9763364792 -48.5765609741 33.7670822144
13.9727210999 -48.5614242554 33.5712356567
13.9740400314 -48.5619735718 33.3789100647
13.9800176620 -48.5773353577 33.1899337769
13.9901838303 -48.6060142517 33.0039978027
14.0042114258 -48.6469650269 32.8208923340
14.0220890045 -48.7001609802 32.6406326294
14.0438184738 -48.7656097412 32.4632453918
14.0687475204 -48.8412284851 32.2882728577
14.0951652527 -48.9215812683 32.1144905090
14.1205711365 -48.9987182617 31.9400634766
14.1423149109 -49.0642166138 31.7630329132
14.1581888199 -49.1110534668 31.5817413330
14.1669492722 -49.1352691650 31.3952312469
14.1687765121 -49.1374397278 31.2035903931
14.1653051376 -49.1227645874 31.0079917908
14.1590147018 -49.0991210938 30.8102607727
14.1524095535 -49.0744781494 30.6122550964
14.1475448608 -49.0553703308 30.4155178070
14.1459379196 -49.0466194153 30.2212066650
14.1485338211 -49.0512351990 30.0300579071
14.1555252075 -49.0698242188 29.8422412872
14.1661081314 -49.0998382568 29.6571750641
14.1784677505 -49.1355018616 29.4734973907
14.1901865005 -49.1691284180 29.2893695831
14.1990509033 -49.1936798096 29.1030902863
14.2038440704 -49.2052841187 28.9137077332
14.2047004700 -49.2043685913 28.7212963104
14.2029075623 -49.1950263977 28.5268287659
14.2003326416 -49.1831970215 28.3317356110
14.1987867355 -49.1746368408 28.1374187469
14.1996183395 -49.1736450195 27.9449405670
14.2035980225 -49.1826591492 27.7549133301
14.2109184265 -49.2023010254 27.5675125122
14.2211847305 -49.2313117981 27.3824443817
14.2334394455 -49.2666473389 27.1989784241
14.2462787628 -49.3038444519 27.0160140991
14.2579298019 -49.3372612000 26.8321495056
14.2663125992 -49.3602867126 26.6457290649
14.2694416046 -49.3665962219 26.4551448822
14.2663002014 -49.3529663086 26.2595520020
14.2576284409 -49.3217391968 26.0595054626
14.2458801270 -49.2807312012 25.8569412231
14.2342853546 -49.2402076721 25.6544399261
14.2256469727 -49.2090873718 25.4542617798
14.2215995789 -49.1925697327 25.2577533722
14.2225732803 -49.1920242310 25.0652923584
14.2281188965 -49.2060241699 24.8765430450
14.2371358871 -49.2310600281 24.6906375885
14.2479915619 -49.2619514465 24.5062618256
14.2588195801 -49.2927551270 24.3218994141
14.2679710388 -49.3182258606 24.1361923218
14.2742900848 -49.3346862793 23.9481792450
14.2771053314 -49.3400001526 23.7572841644
14.2761688232 -49.3333740234 23.5632820129
14.2718162537 -49.3158874512 23.3664264679
14.2652940750 -49.2914924622 23.1677341461
14.2588186264 -49.2672462463 22.9690399170
14.2550086975 -49.2514839172 22.7725391388
14.2558622360 -49.2505569458 22.5799255371
14.2618923187 -49.2660942078 22.3916568756
14.2719736099 -49.2945251465 22.2068195343
14.2839498520 -49.3289833069 22.0236167908
14.2955360413 -49.3622016907 21.8401222229
14.3049449921 -49.3884925842 21.6548156738
14.3110074997 -49.4041404724 21.4666862488
14.3130388260 -49.4069595337 21.2751274109
14.3107357025 -49.3959846497 21.0798568726
14.3041963577 -49.3715362549 20.8809280396
14.2939357758 -49.3352432251 20.6787567139
14.2807559967 -49.2896575928 20.4740123749
14.2654953003 -49.2374534607 20.2674026489
14.2488536835 -49.1808547974 20.0595188141
14.2313632965 -49.1215476990 19.8508148193
14.2134647369 -49.0609436035 19.6416683197
14.1956558228 -49.0006256104 19.4325141907
14.1786718369 -48.9429283142 19.2239933014
14.1634836197 -48.8909416199 19.0169658661
14.1510648727 -48.8477706909 18.8122978210
14.1421251297 -48.8156700134 18.6106338501
14.1370277405 -48.7957954407 18.4123153687
14.1358814240 -48.7884902954 18.2174625397
14.1387033463 -48.7938194275 18.0261192322
14.1455640793 -48.8119964600 17.8383712769
14.1566162109 -48.8435173035 17.6543807983
14.1719331741 -48.8886108398 17.4742412567
14.1911201477 -48.9460220337 17.2976245880
14.2128992081 -49.0116806030 17.1234073639
14.2351179123 -49.0787429810 16.9496688843
14.2553701401 -49.1395492554 16.7742347717
14.2718276978 -49.1882781982 16.5954437256
14.2837524414 -49.2225799561 16.4125976563
14.2915019989 -49.2435951233 16.2259941101
14.2962017059 -49.2549018860 16.0366325378
14.2992677689 -49.2610092163 15.8457851410
14.3019990921 -49.2660560608 15.6546344757
14.3053674698 -49.2731246948 15.4640674591
14.3100147247 -49.2842674255 15.2746810913
14.3163852692 -49.3008956909 15.0868911743
14.3248300552 -49.3241233826 14.9010343552
14.3355026245 -49.3544425964 14.7172651291
14.3480100632 -49.3906097412 14.5352344513
14.3611402512 -49.4287567139 14.3538255692
14.3731622696 -49.4633750916 14.1714258194
14.3826646805 -49.4899711609 13.9867105484
14.3891601563 -49.5070037842 13.7992076874
14.3928422928 -49.5150718689 13.6090774536
14.3939046860 -49.5148048401 13.4164857864
14.3923578262 -49.5062294006 13.2214250565
14.3885107040 -49.4903335571 13.0241718292
14.3833990097 -49.4704093933 12.8256912231
14.3784980774 -49.4511566162 12.6273775101
14.3749761581 -49.4362907410 12.4303445816
14.3731861115 -49.4269447327 12.2349376678
14.3727550507 -49.4219207764 12.0408115387
14.3730087280 -49.4190750122 11.8473272324
14.3733491898 -49.4165039063 11.6539163589
14.3734197617 -49.4130783081 11.4602346420
14.3730792999 -49.4083442688 11.2661466599
14.3722753525 -49.4021263123 11.0715961456
14.3708925247 -49.3940734863 10.8764705658
14.3686857224 -49.3833923340 10.6805267334
14.3653459549 -49.3691062927 10.4834594727
14.3607645035 -49.3508644104 10.2851552963
14.3553886414 -49.3300895691 10.0860433578
14.3504047394 -49.3105659485 9.8872814178
14.3474540710 -49.2975158691 9.6904821396
14.3479528427 -49.2954483032 9.4970531464
14.3524169922 -49.3060073853 9.3075246811
14.3601255417 -49.3268966675 9.1212091446
14.3692550659 -49.3523139954 8.9363231659
14.3774566650 -49.3747749329 8.7505435944
14.3826522827 -49.3876647949 8.5617980957
14.3837318420 -49.3874473572 8.3689594269
14.3809995651 -49.3750877380 8.1723060608
14.3762693405 -49.3563728333 7.9736313820
14.3723907471 -49.3403625488 7.7757773399
14.3721418381 -49.3359107971 7.5815443993
14.3770017624 -49.3477325439 7.3924465179
14.3865213394 -49.3743896484 7.2080602646
14.3987159729 -49.4095726013 7.0264105797
14.4112558365 -49.4458503723 6.8451509476
