-5.6603808403 -39.5099258423 36.9081382751
-5.6662993431 -39.5307044983 36.7136726379
-5.6713814735 -39.5467376709 36.5182571411
-5.6763563156 -39.5621643066 36.3227195740
-5.6822037697 -39.5825424194 36.1282081604
-5.6894955635 -39.6111259460 35.9354019165
-5.6978750229 -39.6458930969 35.7438926697
-5.7061882019 -39.6802787781 35.5523376465
-5.7132978439 -39.7078361511 35.3593940735
-5.7188148499 -39.7263450623 35.1645851135
-5.7231373787 -39.7380714417 34.9683685303
-5.7271428108 -39.7479934692 34.7717781067
-5.7318940163 -39.7621536255 34.5760765076
-5.7381129265 -39.7846527100 34.3821411133
-5.7455768585 -39.8142242432 34.1897201538
-5.7532401085 -39.8449325562 33.9975624084
-5.7601270676 -39.8712348938 33.8044929504
-5.7659912109 -39.8917236328 33.6102027893
-5.7711710930 -39.9083213806 33.4150962830
-5.7761139870 -39.9235763550 33.2197036743
-5.7811632156 -39.9394340515 33.0244483948
-5.7866559029 -39.9578132629 32.8297462463
-5.7930736542 -39.9814529419 32.6361961365
-5.8009867668 -40.0135917664 32.4445114136
-5.8107452393 -40.0562210083 32.2551460266
-5.8221101761 -40.1079864502 32.0678215027
-5.8341455460 -40.1635665894 31.8813858032
-5.8455276489 -40.2154350281 31.6941909790
-5.8551187515 -40.2571258545 31.5048046112
-5.8624057770 -40.2857208252 31.3125591278
-5.8675293922 -40.3020172119 31.1176052094
-5.8709540367 -40.3086509705 30.9205093384
-5.8731098175 -40.3080711365 30.7217960358
-5.8742194176 -40.3015441895 30.5217361450
-5.8743033409 -40.2891807556 30.3203449249
-5.8732752800 -40.2704887390 30.1175003052
-5.8710727692 -40.2451171875 29.9131069183
-5.8678479195 -40.2139320374 29.7073497772
-5.8641834259 -40.1802368164 29.5009708405
-5.8611536026 -40.1501541138 29.2953586578
-5.8600473404 -40.1310043335 29.0921916962
-5.8618392944 -40.1283378601 28.8927631378
-5.8667898178 -40.1436424255 28.6974487305
-5.8744468689 -40.1743392944 28.5056877136
-5.8839616776 -40.2156066895 28.3163967133
-5.8944029808 -40.2621536255 28.1283683777
-5.9049029350 -40.3090324402 27.9404640198
-5.9147682190 -40.3523025513 27.7517662048
-5.9236555099 -40.3900146484 27.5618114471
-5.9316258430 -40.4225044250 27.3706703186
-5.9389343262 -40.4512367249 27.1786746979
-5.9457702637 -40.4772796631 26.9860668182
-5.9521970749 -40.5009956360 26.7929325104
-5.9582877159 -40.5228004456 26.5993614197
-5.9641819000 -40.5434837341 26.4055404663
-5.9700284004 -40.5638999939 26.2116680145
-5.9760093689 -40.5850830078 26.0179920197
-5.9824671745 -40.6089782715 25.8249797821
-5.9899349213 -40.6386260986 25.6333675385
-5.9989385605 -40.6770172119 25.4438858032
-6.0096640587 -40.7252159119 25.2568054199
-6.0217003822 -40.7808799744 25.0715847015
-6.0340809822 -40.8385047913 24.8868961334
-6.0456538200 -40.8915328979 24.7011528015
-6.0556154251 -40.9353981018 24.5132255554
-6.0638751984 -40.9695701599 24.3229732513
-6.0709700584 -40.9971122742 24.1311244965
-6.0776009560 -41.0220108032 23.9386482239
-6.0842275620 -41.0468902588 23.7461853027
-6.0910806656 -41.0730590820 23.5540618896
-6.0983695984 -41.1017150879 23.3625736237
-6.1062355042 -41.1336517334 23.1719264984
-6.1144719124 -41.1677093506 22.9818344116
-6.1224803925 -41.2004623413 22.7914485931
-6.1295962334 -41.2281341553 22.5998191833
-6.1354455948 -41.2485961914 22.4064006805
-6.1400136948 -41.2617607117 22.2111568451
-6.1435036659 -41.2687835693 22.0143699646
-6.1461987495 -41.2712745667 21.8164291382
-6.1483964920 -41.2709312439 21.6177616119
-6.1503958702 -41.2694587708 21.4187927246
-6.1524820328 -41.2684783936 21.2199344635
-6.1549181938 -41.2694931030 21.0215702057
-6.1579566002 -41.2739372253 20.8240737915
-6.1618785858 -41.2834167480 20.6278629303
-6.1670384407 -41.2999534607 20.4334697723
-6.1738586426 -41.3259506226 20.2415294647
-6.1826357841 -41.3631019592 20.0524959564
-6.1931157112 -41.4099578857 19.8660163879
-6.2041254044 -41.4598388672 19.6803703308
-6.2138061523 -41.5021476746 19.4928016663
-6.2205648422 -41.5278053284 19.3009204865
-6.2240972519 -41.5350685120 19.1042366028
-6.2256255150 -41.5309104919 18.9045486450
-6.2271757126 -41.5268745422 18.7048740387
-6.2304630280 -41.5327415466 18.5077953339
-6.2361235619 -41.5521354675 18.3142948151
-6.2436590195 -41.5822257996 18.1236419678
-6.2519903183 -41.6168518066 17.9342212677
-6.2601842880 -41.6506996155 17.7446250916
-6.2679009438 -41.6818275452 17.5543327332
-6.2753634453 -41.7115058899 17.3636798859
-6.2829947472 -41.7421493530 17.1733112335
-6.2910566330 -41.7752494812 16.9836292267
-6.2995238304 -41.8106651306 16.7946033478
-6.3081154823 -41.8467903137 16.6058025360
-6.3163542747 -41.8809051514 16.4164886475
-6.3237147331 -41.9100112915 16.2258453369
-6.3299388885 -41.9326400757 16.0334606171
-6.3353290558 -41.9505119324 15.8397922516
-6.3407568932 -41.9685974121 15.6461935043
-6.3472990990 -41.9930419922 15.4543495178
-6.3556432724 -42.0277671814 15.2653532028
-6.3657131195 -42.0723419189 15.0791034698
-6.3768577576 -42.1230506897 14.8945941925
-6.3883409500 -42.1756973267 14.7106742859
-6.3995518684 -42.2267913818 14.5263776779
-6.4098386765 -42.2726173401 14.3406686783
-6.4184207916 -42.3087158203 14.1522922516
-6.4246211052 -42.3312225342 13.9601488113
-6.4281573296 -42.3385314941 13.7637605667
-6.4292469025 -42.3318748474 13.5634460449
-6.4285974503 -42.3152885437 13.3603134155
-6.4273848534 -42.2954864502 13.1562385559
-6.4270415306 -42.2806434631 12.9535284042
-6.4287123680 -42.2772979736 12.7540435791
-6.4327650070 -42.2875442505 12.5584058762
-6.4388995171 -42.3096771240 12.3661527634
-6.4466934204 -42.3412857056 12.1766204834
-6.4559106827 -42.3810234070 11.9894418716
-6.4664201736 -42.4281387329 11.8044176102
-6.4781389236 -42.4821624756 11.6214265823
-6.4910244942 -42.5428543091 11.4404134750
-6.5047869682 -42.6085548401 11.2609119415
-6.5185709000 -42.6743850708 11.0815210342
-6.5312647820 -42.7339935303 10.9003973007
-6.5422883034 -42.7840690613 10.7165660858
-6.5519618988 -42.8264350891 10.5305414200
-6.5610408783 -42.8654098511 10.3435678482
-6.5699439049 -42.9033813477 10.1563386917
-6.5783948898 -42.9387741089 9.9683904648
-6.5857095718 -42.9676780701 9.7785663605
-6.5913920403 -42.9872589111 9.5860204697
-6.5955305099 -42.9980163574 9.3908834457
-6.5987672806 -43.0036277771 9.1942234039
-6.6020374298 -43.0094299316 8.9976129532
-6.6062788963 -43.0207786560 8.8026466370
-6.6121377945 -43.0413703918 8.6104345322
-6.6196570396 -43.0714492798 8.4210672379
-6.6281833649 -43.1072845459 8.2334470749
-6.6367783546 -43.1435127258 8.0459794998
-6.6449160576 -43.1771316528 7.8577613831
-6.6528496742 -43.2095870972 7.6692233086
-6.6613006592 -43.2449989319 7.4816055298
-6.6707363129 -43.2860412598 7.2957239151
-6.6808252335 -43.3308258057 7.1110153198
-6.6905398369 -43.3734664917 6.9257020950
-6.6988544464 -43.4081115723 6.7379970551
-6.7054290771 -43.4328079224 6.5472908020
-6.7107324600 -43.4502410889 6.3543834686
-6.7156696320 -43.4655799866 6.1608438492
-6.7210636139 -43.4835319519 5.9681124687
-6.7272906303 -43.5062484741 5.7768573761
-6.7343130112 -43.5335121155 5.5870194435
-6.7420821190 -43.5650482178 5.3985238075
-6.7508225441 -43.6021385193 5.2117757797
-6.7607507706 -43.6460227966 5.0271697044
-6.7715229988 -43.6947364807 4.8441090584
-6.7821664810 -43.7427177429 4.6608695984
-6.7917122841 -43.7844276428 4.4757218361
-6.7999000549 -43.8183670044 4.2881860733
-6.8072118759 -43.8473052979 4.0991125107
-6.8142833710 -43.8748664856 3.9096314907
-6.8213500977 -43.9024009705 3.7201645374
-6.8282585144 -43.9290351868 3.5304355621
-6.8348655701 -43.9539451599 3.3401839733
-6.8413233757 -43.9780006409 3.1496813297
-6.8480696678 -44.0037117004 2.9597213268
-6.8556895256 -44.0344200134 2.7713711262
-6.8647160530 -44.0731735229 2.5856120586
-6.8752999306 -44.1208457947 2.4027371407
-6.8869204521 -44.1744537354 2.2218093872
-6.8985314369 -44.2280044556 2.0409219265
-6.9092073441 -44.2762107849 1.8583729267
-6.9186997414 -44.3176498413 1.6736947298
-6.9273157120 -44.3540763855 1.4874411821
-6.9352536201 -44.3866233826 1.2999675274
-6.9421272278 -44.4130783081 1.1105505228
-6.9472384453 -44.4294509888 0.9178832769
-6.9503684044 -44.4344787598 0.7215356231
-6.9522747993 -44.4325065613 0.5229001045
-6.9544000626 -44.4317893982 0.3246575594
-6.9580926895 -44.4400367737 0.1293351650
-16.1524963379 -34.1734352112 80.7677001953
-16.1493606567 -34.1628723145 80.5699691772
-16.1432361603 -34.1466979980 80.3718185425
-16.1365661621 -34.1295127869 80.1735687256
-16.1313133240 -34.1149711609 79.9754714966
-16.1280841827 -34.1042289734 79.7776031494
-16.1258716583 -34.0953941345 79.5798492432
-16.1229515076 -34.0852279663 79.3819656372
-16.1186294556 -34.0724334717 79.1838760376
-16.1140480042 -34.0591545105 78.9857101440
-16.1113090515 -34.0493240356 78.7877807617
-16.1122875214 -34.0464630127 78.5903396606
-16.1183052063 -34.0530548096 78.3936004639
-16.1301651001 -34.0705986023 78.1976928711
-16.1477470398 -34.0988731384 78.0026321411
-16.1697425842 -34.1354255676 77.8082351685
-16.1943397522 -34.1768531799 77.6142654419
-16.2203178406 -34.2208747864 77.4205474854
-16.2471275330 -34.2664527893 77.2270050049
-16.2738494873 -34.3118705750 77.0335083008
-16.2984809875 -34.3533706665 76.8397369385
-16.3184471130 -34.3861198425 76.6452941895
-16.3317737579 -34.4064216614 76.4498596191
-16.3377418518 -34.4129219055 76.2532882690
-16.3365001678 -34.4059028625 76.0555725098
-16.3282604218 -34.3857574463 75.8567199707
-16.3132896423 -34.3529891968 75.6567459106
-16.2931022644 -34.3104362488 75.4558715820
-16.2714424133 -34.2651176453 75.2546844482
-16.2534828186 -34.2267379761 75.0540313721
-16.2436218262 -34.2035484314 74.8546524048
-16.2437477112 -34.1990890503 74.6568984985
-16.2530021667 -34.2117462158 74.4606704712
-16.2686805725 -34.2364540100 74.2655334473
-16.2876834869 -34.2673988342 74.0709915161
-16.3076133728 -34.3000869751 73.8766403198
-16.3266849518 -34.3311614990 73.6821746826
-16.3428745270 -34.3568305969 73.4872360229
-16.3537616730 -34.3725585938 73.2913818359
-16.3575630188 -34.3749885559 73.0942840576
-16.3542613983 -34.3640975952 72.8959045410
-16.3456726074 -34.3432922363 72.6965408325
-16.3342552185 -34.3171730042 72.4966201782
-16.3217277527 -34.2889709473 72.2964401245
-16.3089199066 -34.2602424622 72.0961685181
-16.2969245911 -34.2330398560 71.8959884644
-16.2881145477 -34.2118072510 71.6963577271
-16.2855358124 -34.2022666931 71.4978561401
-16.2912063599 -34.2082023621 71.3008956909
-16.3050193787 -34.2294158936 71.1054840088
-16.3250560760 -34.2623062134 70.9113006592
-16.3484668732 -34.3015251160 70.7177963257
-16.3720302582 -34.3410301208 70.5243682861
-16.3926868439 -34.3750839233 70.3304138184
-16.4083633423 -34.3997955322 70.1355133057
-16.4184951782 -34.4141044617 69.9395294189
-16.4237194061 -34.4192047119 69.7425689697
-16.4250240326 -34.4169502258 69.5448074341
-16.4230575562 -34.4085578918 69.3463668823
-16.4181385040 -34.3946189880 69.1473083496
-16.4109935760 -34.3765106201 68.9477462769
-16.4034576416 -34.3576622009 68.7480697632
-16.3981513977 -34.3429985046 68.5488281250
-16.3973464966 -34.3367843628 68.3504867554
-16.4019680023 -34.3407478333 68.1532745361
-16.4114284515 -34.3537940979 67.9570846558
-16.4242534637 -34.3731536865 67.7616271973
-16.4390506744 -34.3962173462 67.5666046143
-16.4548473358 -34.4211578369 67.3718185425
-16.4704093933 -34.4456558228 67.1770019531
-16.4838180542 -34.4661140442 66.9817428589
-16.4932746887 -34.4791564941 66.7856292725
-16.4980316162 -34.4833755493 66.5884704590
-16.4982109070 -34.4790039063 66.3902893066
-16.4941959381 -34.4667625427 66.1911468506
-16.4866313934 -34.4478530884 65.9911727905
-16.4767494202 -34.4245948792 65.7906341553
-16.4661941528 -34.4000740051 65.5898895264
-16.4563655853 -34.3769111633 65.3892745972
-16.4480495453 -34.3565902710 65.1889572144
-16.4417324066 -34.3400192261 64.9890670776
-16.4383640289 -34.3289833069 64.7898330688
-16.4397850037 -34.3269348145 64.5916976929
-16.4478759766 -34.3374061584 64.3951187134
-16.4627838135 -34.3606834412 64.2001724243
-16.4820899963 -34.3922119141 64.0063018799
-16.5022659302 -34.4253730774 63.8126678467
-16.5211658478 -34.4561424255 63.6187629700
-16.5388164520 -34.4845619202 63.4245872498
-16.5559825897 -34.5120773315 63.2303199768
-16.5727596283 -34.5388641357 63.0359840393
-16.5888633728 -34.5643844604 62.8415069580
-16.6046066284 -34.5892295837 62.6469650269
-16.6207904816 -34.6149024963 62.4525566101
-16.6378135681 -34.6421508789 62.2583808899
-16.6553325653 -34.6703300476 62.0643615723
-16.6723823547 -34.6976318359 61.8702507019
-16.6870708466 -34.7205009460 61.6755638123
-16.6963386536 -34.7331886292 61.4795036316
-16.6969909668 -34.7296981812 61.2812232971
-16.6879215240 -34.7079582214 61.0804061890
-16.6716842651 -34.6727523804 60.8776779175
-16.6538085938 -34.6344680786 60.6744537354
-16.6403503418 -34.6044769287 60.4723320007
-16.6356906891 -34.5910110474 60.2724800110
-16.6417446136 -34.5976600647 60.0754508972
-16.6579627991 -34.6234016418 59.8811416626
-16.6815013885 -34.6628913879 59.6888198853
-16.7081489563 -34.7082138062 59.4973869324
-16.7342376709 -34.7524909973 59.3058509827
-16.7580661774 -34.7925300598 59.1137542725
-16.7794113159 -34.8278999329 58.9210166931
-16.7979698181 -34.8580436707 58.7275505066
-16.8127231598 -34.8810348511 58.5330657959
-16.8225383759 -34.8947563171 58.3372230530
-16.8269233704 -34.8982734680 58.1398696899
-16.8262825012 -34.8923530579 57.9410972595
-16.8220672607 -34.8797187805 57.7412986755
-16.8167800903 -34.8650703430 57.5411643982
-16.8133792877 -34.8539657593 57.3415336609
-16.8141803741 -34.8507499695 57.1430778503
-16.8200187683 -34.8569946289 56.9460525513
-16.8300437927 -34.8711051941 56.7502365112
-16.8421611786 -34.8891525269 56.5550346375
-16.8541088104 -34.9068756104 56.3597984314
-16.8647289276 -34.9221076965 56.1641883850
-16.8744659424 -34.9356765747 55.9683227539
-16.8845748901 -34.9499511719 55.7725791931
-16.8957443237 -34.9662132263 55.5771560669
-16.9073143005 -34.9832305908 55.3818664551
-16.9178295135 -34.9982604980 55.1862678528
-16.9262542725 -35.0093727112 54.9900550842
-16.9326324463 -35.0166320801 54.7932243347
-16.9377155304 -35.0214653015 54.5959968567
-16.9423618317 -35.0254707336 54.3986320496
-16.9472980499 -35.0300254822 54.2013511658
-16.9532604218 -35.0365028381 54.0043792725
-16.9610519409 -35.0464248657 53.8079719543
-16.9712505341 -35.0608634949 53.6123123169
-16.9835834503 -35.0793190002 53.4173240662
-16.9966239929 -35.0990982056 53.2225761414
-17.0084037781 -35.1165084839 53.0274467468
-17.0175800323 -35.1290321350 52.8315086365
-17.0239582062 -35.1362953186 52.6346855164
-17.0279026031 -35.1389846802 52.4370880127
-17.0295429230 -35.1373443604 52.2387428284
-17.0287857056 -35.1311988831 52.0396156311
-17.0260906219 -35.1214065552 51.8398399353
-17.0229301453 -35.1107406616 51.6398849487
-17.0211257935 -35.1026268005 51.4403457642
-17.0215950012 -35.0987815857 51.2415275574
-17.0238323212 -35.0982627869 51.0432701111
-17.0265502930 -35.0986404419 50.8451576233
-17.0287780762 -35.0981025696 50.6468734741
-17.0306262970 -35.0968513489 50.4484481812
-17.0333976746 -35.0973281860 50.2503166199
-17.0389747620 -35.1030845642 50.0531158447
-17.0487041473 -35.1166458130 49.8573036194
-17.0624790192 -35.1378059387 49.6628646851
-17.0788936615 -35.1639328003 49.4693412781
-17.0964355469 -35.1921768188 49.2762222290
-17.1146392822 -35.2216682434 49.0833625793
-17.1344165802 -35.2541160583 48.8910675049
-17.1575756073 -35.2929229736 48.6999740601
-17.1856918335 -35.3410491943 48.5106391907
-17.2185382843 -35.3980674744 48.3229980469
-17.2531528473 -35.4584121704 48.1360435486
-17.2847347260 -35.5130577087 47.9481048584
-17.3089084625 -35.5537757874 47.7576332092
-17.3232898712 -35.5760917664 47.5637550354
-17.3272533417 -35.5788116455 47.3662109375
-17.3210868835 -35.5625000000 47.1650657654
-17.3064212799 -35.5301971436 46.9608535767
-17.2874927521 -35.4898834229 46.7550582886
-17.2710990906 -35.4543342590 46.5501022339
-17.2640075684 -35.4362716675 46.3484344482
-17.2694396973 -35.4417533875 46.1512641907
-17.2853641510 -35.4669685364 45.9578971863
-17.3059825897 -35.5010032654 45.7662658691
-17.3252601624 -35.5325202942 45.5741806030
-17.3398036957 -35.5551414490 45.3803901672
-17.3492660522 -35.5682029724 45.1847457886
-17.3548965454 -35.5740585327 44.9876899719
-17.3581562042 -35.5754623413 44.7897529602
-17.3602733612 -35.5747108459 44.5913810730
-17.3623695374 -35.5739212036 44.3929824829
-17.3655891418 -35.5752449036 44.1949958801
-17.3710327148 -35.5807533264 43.9978370667
-17.3794765472 -35.5918998718 43.8018074036
-17.3908309937 -35.6085205078 43.6068878174
-17.4035606384 -35.6277275085 43.4125022888
-17.4147243500 -35.6439933777 43.2175331116
-17.4212951660 -35.6516151428 43.0208129883
-17.4220981598 -35.6483955383 42.8218765259
-17.4187049866 -35.6372795105 42.6212997437
-17.4142665863 -35.6242027283 42.4202880859
-17.4114475250 -35.6141624451 42.2198753357
-17.4112644196 -35.6090850830 42.0204696655
-17.4134578705 -35.6084747314 41.8219680786
-17.4174060822 -35.6111679077 41.6241493225
-17.4227066040 -35.6164016724 41.4268531799
-17.4292869568 -35.6240425110 41.2300567627
-17.4374179840 -35.6346015930 41.0338745117
-17.4476737976 -35.6491584778 40.8385429382
-17.4605884552 -35.6687164307 40.6442832947
-17.4760341644 -35.6930351257 40.4510536194
-17.4929370880 -35.7200965881 40.2584342957
-17.5099830627 -35.7474250793 40.0658988953
-17.5267982483 -35.7743225098 39.8732986450
-17.5444622040 -35.8028182983 39.6810684204
-17.5646972656 -35.8361511230 39.4899139404
-17.5881252289 -35.8754920959 39.3001060486
-17.6127624512 -35.9171066284 39.1108360291
-17.6342620850 -35.9528198242 38.9203186035
-17.6483249664 -35.9745407104 38.7267723083
-17.6535377502 -35.9796180725 38.5295753479
-17.6521434784 -35.9722595215 38.3296241760
-17.6482887268 -35.9602699280 38.1286239624
-17.6456451416 -35.9505615234 37.9281005859
-17.6464080811 -35.9472579956 37.7289810181
-17.6517448425 -35.9525642395 37.5317726135
-17.6623191833 -35.9677238464 37.3367729187
-17.6779994965 -35.9924888611 37.1439514160
-17.6974258423 -36.0243072510 36.9527435303
-17.7184906006 -36.0592079163 36.7622680664
-17.7393608093 -36.0937423706 36.5717506409
-17.7587528229 -36.1254997253 36.3806343079
-17.7755298615 -36.1523323059 36.1884269714
-17.7887229919 -36.1724243164 35.9946937561
-17.7981853485 -36.1854934692 35.7993621826
-17.8047466278 -36.1931076050 35.6027717590
-17.8095645905 -36.1974372864 35.4054222107
-17.8134288788 -36.1999702454 35.2076492310
-17.8166847229 -36.2013626099 35.0096015930
-17.8195858002 -36.2020835876 34.8113861084
-17.8226394653 -36.2030906677 34.6132278442
-17.8267517090 -36.2060966492 34.4155273438
-17.8331623077 -36.2134208679 34.2188415527
-17.8431434631 -36.2274665833 34.0237426758
-17.8575057983 -36.2497634888 33.8306121826
-17.8760852814 -36.2799949646 33.6393966675
-17.8977050781 -36.3159484863 33.4495773315
-17.9207096100 -36.3545112610 33.2604217529
-17.9433784485 -36.3924446106 33.0711593628
-17.9637794495 -36.4261093140 32.8809089661
-17.9795989990 -36.4511528015 32.6886100769
-17.9885845184 -36.4633255005 32.4932136536
-17.9893798828 -36.4600868225 32.2940711975
-17.9822883606 -36.4419975281 32.0912895203
-17.9693641663 -36.4129257202 31.8857803345
-17.9535961151 -36.3785018921 31.6789016724
-17.9377689362 -36.3439636230 31.4719352722
-17.9241523743 -36.3135833740 31.2659339905
-17.9149646759 -36.2915420532 31.0619411469
-17.9123420715 -36.2818641663 30.8609733582
-17.9174289703 -36.2866973877 30.6635971069
-17.9296722412 -36.3050041199 30.4695777893
-17.9472084045 -36.3332748413 30.2780704498
-17.9679241180 -36.3675346375 30.0880966187
-17.9901237488 -36.4045906067 29.8988647461
-18.0125389099 -36.4420509338 29.7097740173
-18.0342750549 -36.4782333374 29.5204029083
-18.0549049377 -36.5123367310 29.3305435181
-18.0741767883 -36.5438842773 29.1400680542
-18.0914859772 -36.5717315674 28.9486827850
-18.1059246063 -36.5941772461 28.7559394836
-18.1170120239 -36.6103134155 28.5615940094
-18.1251411438 -36.6208801270 28.3658256531
-18.1312847137 -36.6277084351 28.1690940857
-18.1364765167 -36.6327400208 27.9718933105
-18.1416206360 -36.6376800537 27.7746658325
-18.1476554871 -36.6443023682 27.5778694153
-18.1557102203 -36.6547279358 27.3820667267
-18.1668758392 -36.6710090637 27.1877994537
-18.1815299988 -36.6938667297 26.9952716827
-18.1989326477 -36.7218971252 26.8041267395
-18.2176647186 -36.7524337769 26.6136741638
-18.2363891602 -36.7829551697 26.4232463837
-18.2538223267 -36.8110466003 26.2322063446
-18.2682743073 -36.8335189819 26.0396995544
-18.2781677246 -36.8474121094 25.8449192047
-18.2835712433 -36.8528480530 25.6478824615
-18.2867774963 -36.8541412354 25.4497299194
-18.2908210754 -36.8570137024 25.2519931793
-18.2974987030 -36.8648452759 25.0555858612
-18.3070526123 -36.8780975342 24.8606433868
-18.3192577362 -36.8963432312 24.6670646667
-18.3338489532 -36.9190826416 24.4747238159
-18.3496608734 -36.9441261292 24.2830295563
-18.3640670776 -36.9665184021 24.0906352997
-18.3741626740 -36.9807929993 23.8960342407
-18.3790473938 -36.9852447510 23.6987419128
-18.3809947968 -36.9841690063 23.4999179840
-18.3841495514 -36.9853668213 23.3017101288
-18.3917751312 -36.9949874878 23.1058254242
-18.4045848846 -37.0143699646 22.9126548767
-18.4213924408 -37.0412940979 22.7216014862
-18.4407138824 -37.0729484558 22.5318946838
-18.4613285065 -37.1070442200 22.3429069519
-18.4818935394 -37.1410446167 22.1539268494
-18.5009574890 -37.1722183228 21.9641895294
-18.5177669525 -37.1991462708 21.7732887268
-18.5327777863 -37.2226829529 21.5814514160
-18.5471954346 -37.2451057434 21.3893222809
-18.5619926453 -37.2682418823 21.1974143982
-18.5770397186 -37.2918472290 21.0056648254
-18.5909786224 -37.3133697510 20.8133373260
-18.6020660400 -37.3295173645 20.6194915771
-18.6094093323 -37.3386077881 20.4236297607
-18.6134719849 -37.3415222168 20.2259883881
-18.6155490875 -37.3406867981 20.0272598267
-18.6169452667 -37.3385696411 19.8281459808
-18.6185512543 -37.3368492126 19.6291294098
-18.6208362579 -37.3364105225 19.4304733276
-18.6240386963 -37.3376922607 19.2323055267
-18.6284294128 -37.3412208557 19.0347843170
-18.6346530914 -37.3482017517 18.8382663727
-18.6439476013 -37.3609695435 18.6434478760
-18.6580009460 -37.3827056885 18.4512748718
-18.6781768799 -37.4159889221 18.2625293732
-18.7043151855 -37.4605026245 18.0771446228
-18.7339038849 -37.5115280151 17.8937397003
-18.7627601624 -37.5611724854 17.7099895477
-18.7871665955 -37.6024322510 17.5237960815
-18.8058452606 -37.6328887939 17.3344249725
-18.8201675415 -37.6551399231 17.1426277161
-18.8328361511 -37.6742744446 16.9499149323
-18.8465671539 -37.6954116821 16.7578182220
-18.8635616302 -37.7226982117 16.5675964355
-18.8851203918 -37.7585945129 16.3800048828
-18.9108543396 -37.8023605347 16.1948394775
-18.9383296967 -37.8494110107 16.0107212067
-18.9643383026 -37.8936958313 15.8258180618
-18.9869346619 -37.9315528870 15.6390037537
-19.0061111450 -37.9629631042 15.4502582550
-19.0226078033 -37.9893150330 15.2599964142
-19.0369014740 -38.0115242004 15.0684843063
-19.0499038696 -38.0312919617 14.8762416840
-19.0639877319 -38.0531005859 14.6846456528
-19.0820674896 -38.0824432373 14.4954013824
-19.1051578522 -38.1212348938 14.3091192245
-19.1314048767 -38.1659774780 14.1247329712
-19.1578369141 -38.2110748291 13.9405088425
-19.1824951172 -38.2528266907 13.7552919388
-19.2044963837 -38.2895698547 13.5685548782
-19.2227230072 -38.3191947937 13.3796243668
-19.2354183197 -38.3383903503 13.1874427795
-19.2412872314 -38.3447151184 12.9912166595
-19.2407932281 -38.3390388489 12.7911949158
-19.2362499237 -38.3257293701 12.5887327194
-19.2306976318 -38.3105125427 12.3856344223
-19.2266654968 -38.2981643677 12.1834144592
-19.2258205414 -38.2918243408 11.9830818176
-19.2292366028 -38.2935218811 11.7852964401
-19.2373638153 -38.3041000366 11.5903482437
-19.2497692108 -38.3227500916 11.3979959488
-19.2654170990 -38.3475189209 11.2076263428
-19.2835731506 -38.3770103455 11.0188064575
-19.3044013977 -38.4115486145 10.8316469193
-19.3284950256 -38.4522476196 10.6465215683
-19.3555622101 -38.4985542297 10.4632644653
-19.3834514618 -38.5464134216 10.2805681229
-19.4087047577 -38.5893020630 10.0963068008
-19.4284648895 -38.6218261719 9.9087076187
-19.4420242310 -38.6426620483 9.7173118591
-19.4507732391 -38.6544189453 9.5229530334
-19.4571590424 -38.6617202759 9.3271331787
-19.4639339447 -38.6697578430 9.1315526962
-19.4735946655 -38.6832351685 8.9377717972
-19.4874801636 -38.7046813965 8.7466382980
-19.5050125122 -38.7330093384 8.5578069687
-19.5241279602 -38.7643280029 8.3700008392
-19.5427436829 -38.7947044373 8.1819124222
-19.5599880219 -38.8224906921 7.9929914474
-19.5762958527 -38.8485107422 7.8035068512
-19.5924396515 -38.8742256165 7.6139445305
-19.6082496643 -38.8993072510 7.4241952896
-19.6220073700 -38.9205207825 7.2331657410
-19.6311740875 -38.9330673218 7.0392274857
-19.6340827942 -38.9338111877 6.8412985802
-19.6314353943 -38.9240722656 6.6398019791
-19.6265525818 -38.9101104736 6.4368443489
-19.6242103577 -38.9009475708 6.2354874611
-19.6288051605 -38.9048690796 6.0385746956
-19.6427249908 -38.9263877869 5.8476753235
-19.6653957367 -38.9644203186 5.6624579430
-19.6935367584 -39.0127754211 5.4808297157
-19.7231369019 -39.0638847351 5.3002090454
-19.7521133423 -39.1138191223 5.1192436218
-19.7810726166 -39.1637229919 4.9383282661
-19.8113193512 -39.2160568237 4.7583150864
-19.8422813416 -39.2697448730 4.5788359642
-19.8710803986 -39.3193511963 4.3980021477
-19.8944606781 -39.3587303162 4.2136611938
-19.9109516144 -39.3851127625 4.0248241425
-19.9213905334 -39.4000701904 3.8320138454
-19.9278812408 -39.4075775146 3.6365978718
-19.9325866699 -39.4117126465 3.4399957657
-19.9372329712 -39.4157371521 3.2433485985
-19.9432125092 -39.4222831726 3.0475842953
-19.9517669678 -39.4336814880 2.8535346985
-19.9637699127 -39.4515914917 2.6617980003
-19.9791336060 -39.4758491516 2.4723289013
-19.9965114594 -39.5039062500 2.2842354774
-20.0140666962 -39.5322990417 2.0962896347
-20.0309257507 -39.5593757629 1.9079043865
-20.0478515625 -39.5865821838 1.7195916176
-20.0661735535 -39.6164245605 1.5322514772
-20.0857486725 -39.6486358643 1.3457943201
-20.1041316986 -39.6785926819 1.1585599184
-20.1183071136 -39.7006072998 0.9684898853
-20.1276950836 -39.7135887146 0.7751711011
-20.1355438232 -39.7236633301 0.5808052421
-20.1476497650 -39.7417716980 0.3893603086
-20.1695518494 -39.7783813477 0.2046609521
-20.2038364410 -39.8383636475 0.0285270270
-25.7949047089 -27.3961544037 81.3491058350
-25.7882041931 -27.3866386414 81.1512908936
-25.7776737213 -27.3734340668 80.9531326294
-25.7698822021 -27.3628673553 80.7551651001
-25.7707138062 -27.3606014252 80.5578918457
-25.7813949585 -27.3678245544 80.3614273071
-25.7975864410 -27.3803520203 80.1654357910
-25.8123435974 -27.3915023804 79.9693298340
-25.8202629089 -27.3960647583 79.7726440430
-25.8199768066 -27.3927230835 79.5752334595
-25.8140106201 -27.3839111328 79.3773040771
-25.8066272736 -27.3737335205 79.1792297363
-25.8014621735 -27.3656921387 78.9813156128
-25.8005828857 -27.3617801666 78.7837753296
-25.8048610687 -27.3628330231 78.5866851807
-25.8146362305 -27.3691825867 78.3900985718
-25.8299369812 -27.3808536530 78.1940307617
-25.8500442505 -27.3971538544 77.9984283447
-25.8727264404 -27.4159393311 77.8030853271
-25.8940544128 -27.4334163666 77.6076354980
-25.9095325470 -27.4452590942 77.4116439819
-25.9160480499 -27.4484691620 77.2147827148
-25.9132900238 -27.4427452087 77.0169982910
-25.9041061401 -27.4308300018 76.8185577393
-25.8938789368 -27.4179096222 76.6199722290
-25.8887443542 -27.4098949432 76.4218750000
-25.8930015564 -27.4109268188 76.2247161865
-25.9072399139 -27.4215755463 76.0285720825
-25.9285526276 -27.4390392303 75.8331756592
-25.9526863098 -27.4592208862 75.6380920410
-25.9765014648 -27.4790973663 75.4430084229
-25.9990310669 -27.4977359772 75.2478027344
-26.0205402374 -27.5153903961 75.0525207520
-26.0407028198 -27.5317478180 74.8571090698
-26.0577716827 -27.5451259613 74.6613769531
-26.0696353912 -27.5534877777 74.4650878906
-26.0754585266 -27.5560302734 74.2681274414
-26.0759963989 -27.5534801483 74.0705718994
-26.0723743439 -27.5469207764 73.8725357056
-26.0649566650 -27.5367031097 73.6740417480
-26.0536193848 -27.5227088928 73.4750747681
-26.0390968323 -27.5056457520 73.2757034302
-26.0237674713 -27.4878044128 73.0761947632
-26.0107250214 -27.4721641541 72.8769149780
-26.0019531250 -27.4606399536 72.6780929565
-25.9974365234 -27.4532146454 72.4797515869
-25.9958171844 -27.4485836029 72.2817306519
-25.9955615997 -27.4452648163 72.0838546753
-25.9955940247 -27.4422225952 71.8859939575
-25.9953422546 -27.4389076233 71.6880874634
-25.9946002960 -27.4351196289 71.4900970459
-25.9934406281 -27.4309291840 71.2920455933
-25.9921913147 -27.4266510010 71.0939559937
-25.9913825989 -27.4227962494 70.8959121704
-25.9916572571 -27.4199867249 70.6979827881
-25.9937152863 -27.4188976288 70.5002670288
-25.9983711243 -27.4203090668 70.3028717041
-26.0066204071 -27.4251842499 70.1059341431
-26.0195140839 -27.4345378876 69.9095993042
-26.0375251770 -27.4488220215 69.7139358521
-26.0595397949 -27.4669666290 69.5188217163
-26.0825195313 -27.4860401154 69.3238601685
-26.1027946472 -27.5025062561 69.1285552979
-26.1183757782 -27.5144519806 68.9326400757
-26.1301918030 -27.5227661133 68.7362213135
-26.1412715912 -27.5303707123 68.5397109985
-26.1548824310 -27.5404148102 68.3435516357
-26.1728477478 -27.5546569824 68.1480026245
-26.1945590973 -27.5725097656 67.9529876709
-26.2170944214 -27.5911579132 67.7581024170
-26.2369213104 -27.6071968079 67.5628662109
-26.2523365021 -27.6189823151 67.3670272827
-26.2644824982 -27.6276149750 67.1707229614
-26.2758388519 -27.6354866028 66.9743194580
-26.2874164581 -27.6435718536 66.7779464722
-26.2972793579 -27.6500072479 66.5813369751
-26.3020191193 -27.6515007019 66.3839721680
-26.2999935150 -27.6464710236 66.1856079102
-26.2931365967 -27.6367835999 65.9865112305
-26.2855434418 -27.6263866425 65.7872848511
-26.2805137634 -27.6184616089 65.5884017944
-26.2789707184 -27.6138973236 65.3900222778
-26.2799968719 -27.6118087769 65.1920089722
-26.2821140289 -27.6107730865 64.9941482544
-26.2840557098 -27.6095676422 64.7962493896
-26.2849063873 -27.6073074341 64.5981674194
-26.2839889526 -27.6033458710 64.3998031616
-26.2807254791 -27.5971221924 64.2010498047
-26.2745742798 -27.5881099701 64.0018310547
-26.2654266357 -27.5762119293 63.8021049500
-26.2545967102 -27.5626888275 63.6020851135
-26.2456150055 -27.5509471893 63.4023246765
-26.2438621521 -27.5461769104 63.2036857605
-26.2548789978 -27.5537204742 63.0070800781
-26.2816047668 -27.5764122009 62.8130149841
-26.3211727142 -27.6114864349 62.6210670471
-26.3639221191 -27.6496315002 62.4296913147
-26.3977146149 -27.6791400909 62.2369041443
-26.4153461456 -27.6930637360 62.0414924622
-26.4183025360 -27.6928329468 61.8436584473
-26.4140529633 -27.6856555939 61.6446113586
-26.4107799530 -27.6794185638 61.4457054138
-26.4137897491 -27.6792392731 61.2478370667
-26.4242725372 -27.6862697601 61.0512237549
-26.4398593903 -27.6982212067 60.8554801941
-26.4566516876 -27.7113361359 60.6599540710
-26.4715404510 -27.7226142883 60.4641151428
-26.4832630157 -27.7308406830 60.2677383423
-26.4922103882 -27.7363872528 60.0708808899
-26.4998264313 -27.7406520844 59.8737945557
-26.5081138611 -27.7455654144 59.6768188477
-26.5187225342 -27.7527160645 59.4802513123
-26.5313663483 -27.7618293762 59.2840499878
-26.5428028107 -27.7697792053 59.0876350403
-26.5483226776 -27.7720222473 58.8901672363
-26.5454673767 -27.7661857605 58.6911849976
-26.5365753174 -27.7545242310 58.4910926819
-26.5276737213 -27.7428569794 58.2909622192
-26.5251255035 -27.7373142242 58.0919609070
-26.5332736969 -27.7420921326 57.8949050903
-26.5545673370 -27.7595481873 57.7002677917
-26.5904884338 -27.7911186218 57.5083580017
-26.6408500671 -27.8366165161 57.3191833496
-26.7013359070 -27.8918857574 57.1319770813
-26.7627220154 -27.9480247498 56.9450263977
-26.8146800995 -27.9950695038 56.7563858032
-26.8516025543 -28.0276088715 56.5649719238
-26.8746376038 -28.0467491150 56.3709640503
-26.8885307312 -28.0570735931 56.1752281189
-26.8974399567 -28.0625877380 55.9785423279
-26.9031600952 -28.0650253296 55.7812385559
-26.9055194855 -28.0642204285 55.5832786560
-26.9034271240 -28.0591201782 55.3844375610
-26.8961544037 -28.0490207672 55.1845626831
-26.8847808838 -28.0349655151 54.9838562012
-26.8726615906 -28.0201873779 54.7829627991
-26.8638763428 -28.0086288452 54.5826911926
-26.8607978821 -28.0025749207 54.3835296631
-26.8632411957 -28.0018501282 54.1854476929
-26.8698196411 -28.0051136017 53.9881858826
-26.8797073364 -28.0115699768 53.7915878296
-26.8931865692 -28.0214920044 53.5957183838
-26.9107894897 -28.0353946686 53.4006958008
-26.9318923950 -28.0526752472 53.2064056396
-26.9540576935 -28.0709781647 53.0123519897
-26.9739952087 -28.0871353149 52.8178634644
-26.9894046783 -28.0989208221 52.6224517822
-26.9999275208 -28.1059913635 52.4260368347
-27.0066413879 -28.1093864441 52.2288322449
-27.0110607147 -28.1105670929 52.0311355591
-27.0145664215 -28.1108646393 51.8332405090
-27.0182476044 -28.1113338470 51.6353721619
-27.0227451324 -28.1125888824 51.4376678467
-27.0280780792 -28.1146507263 51.2401313782
-27.0336971283 -28.1169891357 51.0426521301
-27.0388507843 -28.1188755035 50.8450660706
-27.0430946350 -28.1198863983 50.6472740173
-27.0466938019 -28.1202754974 50.4493331909
-27.0507068634 -28.1210613251 50.2514724731
-27.0567626953 -28.1238212585 50.0540504456
-27.0665302277 -28.1301631927 49.8574371338
-27.0807437897 -28.1407947540 49.6618041992
-27.0981464386 -28.1545047760 49.4668846130
-27.1154346466 -28.1681060791 49.2719535828
-27.1288604736 -28.1779785156 49.0761756897
-27.1363563538 -28.1821269989 48.8790817261
-27.1383399963 -28.1809539795 48.6807403564
-27.1368255615 -28.1764049530 48.4815979004
-27.1341629028 -28.1707477570 48.2821769714
-27.1323757172 -28.1659355164 48.0829353333
-27.1330089569 -28.1634578705 47.8842277527
-27.1370811462 -28.1643009186 47.6862907410
-27.1450042725 -28.1688613892 47.4892272949
-27.1565933228 -28.1769618988 47.2930107117
-27.1713027954 -28.1880722046 47.0975227356
-27.1886539459 -28.2017345428 46.9026565552
-27.2086181641 -28.2179183960 46.7084159851
-27.2314682007 -28.2368907928 46.5148696899
-27.2570228577 -28.2584743500 46.3219833374
-27.2841205597 -28.2815475464 46.1294898987
-27.3111896515 -28.3045940399 45.9370231628
-27.3372688293 -28.3266849518 45.7443504333
-27.3618602753 -28.3473396301 45.5513534546
-27.3839054108 -28.3655357361 45.3577690125
-27.4016819000 -28.3796119690 45.1631851196
-27.4140605927 -28.3884773254 44.9673118591
-27.4215049744 -28.3925762177 44.7702445984
-27.4258289337 -28.3936614990 44.5724182129
-27.4294528961 -28.3940715790 44.3744125366
-27.4348888397 -28.3962326050 44.1768417358
-27.4441375732 -28.4020748138 43.9801979065
-27.4576683044 -28.4120521545 43.7846145630
-27.4738445282 -28.4245834351 43.5896911621
-27.4898605347 -28.4369583130 43.3947410583
-27.5035533905 -28.4470920563 43.1992225647
-27.5143394470 -28.4544181824 43.0029830933
-27.5227069855 -28.4594116211 42.8061408997
-27.5293884277 -28.4627742767 42.6088714600
-27.5351848602 -28.4652824402 42.4113731384
-27.5413627625 -28.4681587219 42.2139663696
-27.5498332977 -28.4732494354 42.0171394348
-27.5624542236 -28.4823474884 41.8213691711
-27.5797004700 -28.4959125519 41.6267929077
-27.5998783112 -28.5123100281 41.4329833984
-27.6199417114 -28.5285968781 41.2391624451
-27.6372222900 -28.5421962738 41.0446395874
-27.6503944397 -28.5518283844 40.8490638733
-27.6590118408 -28.5570621490 40.6523094177
-27.6625442505 -28.5573825836 40.4542198181
-27.6601066589 -28.5519371033 40.2545547485
-27.6513824463 -28.5404186249 40.0532112122
-27.6382255554 -28.5246200562 39.8506622314
-27.6253376007 -28.5090789795 39.6481475830
-27.6184177399 -28.4993038177 39.4471817017
-27.6208686829 -28.4985771179 39.2486877441
-27.6323661804 -28.5065917969 39.0526046753
-27.6505813599 -28.5210952759 38.8583335876
-27.6733970642 -28.5400390625 38.6653175354
-27.6991882324 -28.5618610382 38.4731292725
-27.7261772156 -28.5848407745 38.2812957764
-27.7528591156 -28.6075229645 38.0894126892
-27.7790565491 -28.6297378540 37.8974227905
-27.8056983948 -28.6523838043 37.7055892944
-27.8333702087 -28.6760234833 37.5140686035
-27.8612918854 -28.6999073029 37.3226470947
-27.8873062134 -28.7219467163 37.1307334900
-27.9083499908 -28.7391853333 36.9374694824
-27.9216861725 -28.7489795685 36.7420768738
-27.9268531799 -28.7508792877 36.5444107056
-27.9266948700 -28.7476329803 36.3452453613
-27.9261302948 -28.7439956665 36.1459465027
-27.9297714233 -28.7444210052 35.9478187561
-27.9403629303 -28.7515602112 35.7516479492
-27.9584617615 -28.7659549713 35.5576095581
-27.9825344086 -28.7861213684 35.3652877808
-28.0092964172 -28.8088874817 35.1737594604
-28.0347290039 -28.8303699493 34.9818801880
-28.0556507111 -28.8474922180 34.7887344360
-28.0708694458 -28.8591041565 34.5939636230
-28.0810737610 -28.8658714294 34.3977546692
-28.0877685547 -28.8692493439 34.2005310059
-28.0923328400 -28.8705673218 34.0026817322
-28.0958061218 -28.8708286285 33.8045082092
-28.0990581512 -28.8708782196 33.6062545776
-28.1029186249 -28.8715152740 33.4081726074
-28.1081409454 -28.8734683990 33.2104835510
-28.1152763367 -28.8772697449 33.0133476257
-28.1245651245 -28.8831520081 32.8168487549
-28.1359653473 -28.8910732269 32.6209754944
-28.1493606567 -28.9009246826 32.4257011414
-28.1648483276 -28.9127998352 32.2310600281
-28.1828842163 -28.9271354675 32.0371932983
-28.2041454315 -28.9445896149 31.8443107605
-28.2290611267 -28.9655742645 31.6525516510
-28.2572498322 -28.9897251129 31.4618110657
-28.2875404358 -29.0159053802 31.2717399597
-28.3187904358 -29.0430164337 31.0819969177
-28.3506145477 -29.0706825256 30.8924713135
-28.3832340240 -29.0991153717 30.7032260895
-28.4170761108 -29.1287326813 30.5143985748
-28.4527435303 -29.1601161957 30.3261756897
-28.4906444550 -29.1936569214 30.1386890411
-28.5300045013 -29.2286109924 29.9517040253
-28.5683422089 -29.2625751495 29.7644557953
-28.6021251678 -29.2921390533 29.5758419037
-28.6281261444 -29.3141803741 29.3848419189
-28.6443672180 -29.3267879486 29.1908149719
-28.6500892639 -29.3292274475 28.9934997559
-28.6451053619 -29.3213157654 28.7928085327
-28.6296424866 -29.3032760620 28.5887832642
-28.6052932739 -29.2766437531 28.3819026947
-28.5761051178 -29.2453327179 28.1734237671
-28.5480499268 -29.2151165009 27.9652385712
-28.5266685486 -29.1913528442 27.7591190338
-28.5149898529 -29.1769657135 27.5560493469
-28.5133609772 -29.1722946167 27.3561687469
-28.5204906464 -29.1760921478 27.1590881348
-28.5344791412 -29.1865196228 26.9642162323
-28.5538883209 -29.2021884918 26.7711086273
-28.5787982941 -29.2231769562 26.5798034668
-28.6107368469 -29.2509593964 26.3908138275
-28.6510810852 -29.2868709564 26.2046089172
-28.6992034912 -29.3303050995 26.0210018158
-28.7516860962 -29.3779544830 25.8388957977
-28.8028793335 -29.4243583679 25.6564407349
-28.8465538025 -29.4634933472 25.4715805054
-28.8780250549 -29.4908313751 25.2827453613
-28.8955497742 -29.5046825409 25.0893249512
-28.9002056122 -29.5060901642 24.8916397095
-28.8950462341 -29.4980068207 24.6906719208
-28.8843383789 -29.4845581055 24.4878234863
-28.8725509644 -29.4700660706 24.2845802307
-28.8630199432 -29.4577522278 24.0820560455
-28.8572387695 -29.4490661621 23.8807621002
-28.8553104401 -29.4441051483 23.6807422638
-28.8567409515 -29.4423923492 23.4818420410
-28.8609485626 -29.4433650970 23.2838706970
-28.8675136566 -29.4466171265 23.0866928101
-28.8764896393 -29.4522018433 22.8903331757
-28.8885574341 -29.4607753754 22.6950321198
-28.9045619965 -29.4731559753 22.5010852814
-28.9244518280 -29.4892959595 22.3084888458
-28.9467010498 -29.5077152252 22.1167259216
-28.9692859650 -29.5264625549 21.9251003265
-28.9913997650 -29.5447540283 21.7333354950
-29.0137157440 -29.5632419586 21.5416660309
-29.0366802216 -29.5823574066 21.3502426147
-29.0588798523 -29.6007308960 21.1585769653
-29.0775337219 -29.6156768799 20.9656944275
-29.0905265808 -29.6251487732 20.7708377838
-29.0978145599 -29.6290988922 20.5739803314
-29.1012439728 -29.6293201447 20.3757572174
-29.1035480499 -29.6284523010 20.1771259308
-29.1074371338 -29.6291160583 19.9790420532
-29.1150588989 -29.6333904266 19.7822780609
-29.1277084351 -29.6425285339 19.5873031616
-29.1455287933 -29.6566696167 19.3941841125
-29.1671886444 -29.6745243073 19.2024536133
-29.1901607513 -29.6936511993 19.0112190247
-29.2122058868 -29.7118797302 18.8196735382
-29.2330856323 -29.7289791107 18.6277313232
-29.2547321320 -29.7468242645 18.4360866547
-29.2795600891 -29.7677440643 18.2456169128
-29.3083591461 -29.7925090790 18.0566196442
-29.3392772675 -29.8193225861 17.8684310913
-29.3684005737 -29.8444023132 17.6796245575
-29.3918247223 -29.8639678955 17.4887657166
-29.4078369141 -29.8763618469 17.2952079773
-29.4174880981 -29.8826026917 17.0993232727
-29.4233322144 -29.8851604462 16.9020328522
-29.4279174805 -29.8864994049 16.7042713165
-29.4332561493 -29.8885669708 16.5067806244
-29.4411659241 -29.8931236267 16.3102378845
-29.4535846710 -29.9020404816 16.1153736115
-29.4721488953 -29.9169063568 15.9228096008
-29.4972019196 -29.9380493164 15.7326917648
-29.5273475647 -29.9641208649 15.5445127487
-29.5605697632 -29.9931716919 15.3575286865
-29.5956764221 -30.0240440369 15.1712970734
-29.6319541931 -30.0560531616 14.9855556488
-29.6673374176 -30.0871944427 14.7995223999
-29.6978855133 -30.1136589050 14.6117000580
-29.7200088501 -30.1319713593 14.4207096100
-29.7330856323 -30.1415290833 14.2262907028
-29.7396450043 -30.1447811127 14.0293855667
-29.7434310913 -30.1453456879 13.8314123154
-29.7477531433 -30.1464328766 13.6336355209
-29.7548198700 -30.1501750946 13.4369077682
-29.7650623322 -30.1569900513 13.2414007187
-29.7766418457 -30.1650981903 13.0464134216
-29.7863769531 -30.1714229584 12.8507146835
-29.7917728424 -30.1735477448 12.6533298492
-29.7926177979 -30.1712665558 12.4541654587
-29.7913665771 -30.1669578552 12.2541685104
-29.7922191620 -30.1646842957 12.0549755096
-29.7990989685 -30.1682453156 11.8581314087
-29.8139381409 -30.1795101166 11.6644124985
-29.8370532990 -30.1987838745 11.4739637375
-29.8687458038 -30.2263603210 11.2869272232
-29.9093647003 -30.2625789642 11.1034631729
-29.9575443268 -30.3061161041 10.9230556488
-30.0095081329 -30.3533191681 10.7442216873
-30.0609016418 -30.3999691010 10.5652370453
-30.1089897156 -30.4434223175 10.3850069046
-30.1528968811 -30.4828281403 10.2031736374
-30.1923713684 -30.5179443359 10.0196237564
-30.2268257141 -30.5482006073 9.8341093063
-30.2555274963 -30.5728912354 9.6463222504
-30.2786483765 -30.5921764374 9.4563150406
-30.2977390289 -30.6075649261 9.2647027969
-30.3146343231 -30.6208248138 9.0722169876
-30.3299942017 -30.6325988770 8.8791208267
-30.3434619904 -30.6425418854 8.6852645874
-30.3549518585 -30.6505699158 8.4906082153
-30.3654861450 -30.6576728821 8.2955656052
-30.3770618439 -30.6657829285 8.1009511948
-30.3918476105 -30.6770038605 7.9076614380
-30.4110469818 -30.6924953461 7.7161989212
-30.4342441559 -30.7118587494 7.5264043808
-30.4599914551 -30.7336921692 7.3376898766
-30.4867324829 -30.7564888000 7.1494174004
-30.5124874115 -30.7783298492 6.9607658386
-30.5339374542 -30.7960033417 6.7703509331
-30.5472240448 -30.8057727814 6.5765528679
-30.5507030487 -30.8060455322 6.3786597252
-30.5466842651 -30.7990589142 6.1776151657
-30.5399990082 -30.7894878387 5.9754261971
-30.5348224640 -30.7813777924 5.7738442421
-30.5328979492 -30.7764186859 5.5736079216
-30.5341110229 -30.7744960785 5.3746776581
-30.5380401611 -30.7752037048 5.1768827438
-30.5449542999 -30.7788009644 4.9803462029
-30.5556678772 -30.7860794067 4.7854204178
-30.5705013275 -30.7973461151 4.5922546387
-30.5885543823 -30.8117313385 4.4004731178
-30.6083030701 -30.8277587891 4.2094326019
-30.6291351318 -30.8448371887 4.0188765526
-30.6521797180 -30.8640556335 3.8292918205
-30.6795501709 -30.8874664307 3.6415951252
-30.7127437592 -30.9165153503 3.4564437866
-30.7513999939 -30.9508571625 3.2736980915
-30.7932834625 -30.9883270264 3.0924041271
-30.8355102539 -31.0261287689 2.9113180637
-30.8762550354 -31.0624961853 2.7296457291
-30.9155292511 -31.0974388123 2.5473883152
-30.9542427063 -31.1318397522 2.3649399281
-30.9926204681 -31.1659164429 2.1823978424
-31.0296897888 -31.1987285614 1.9993338585
-31.0637817383 -31.2286548615 1.8150101900
-31.0929450989 -31.2538089752 1.6285605431
-31.1154422760 -31.2725067139 1.4392033815
-31.1307983398 -31.2842864990 1.2467107773
-31.1406688690 -31.2907524109 1.0517976284
-31.1485233307 -31.2952671051 0.8559907675
-31.1584777832 -31.3018150330 0.6611152887
-31.1742630005 -31.3140106201 0.4688416719
-31.1991691589 -31.3350429535 0.2806556523
-31.2367992401 -31.3684024811 0.0981947631
-32.8688850403 -18.0164241791 80.9462203979
-32.8707237244 -18.0148620605 80.7490081787
-32.8747215271 -18.0143508911 80.5519256592
-32.8823394775 -18.0155982971 80.3550720215
-32.8957328796 -18.0196533203 80.1586151123
-32.9167022705 -18.0273914337 79.9626846313
-32.9449310303 -18.0386581421 79.7672653198
-32.9768486023 -18.0517177582 79.5721359253
-33.0066528320 -18.0637512207 79.3768768311
-33.0290336609 -18.0721759796 79.1811218262
-33.0412139893 -18.0756416321 78.9846420288
-33.0428886414 -18.0739994049 78.7874069214
-33.0349922180 -18.0677051544 78.5894470215
-33.0188674927 -18.0574111938 78.3908538818
-32.9964752197 -18.0440692902 78.1917495728
-32.9712409973 -18.0293426514 77.9923858643
-32.9483528137 -18.0157585144 77.7931518555
-32.9334106445 -18.0060367584 77.5944900513
-32.9298591614 -18.0018520355 77.3966674805
-32.9370384216 -18.0028858185 77.1996688843
-32.9505958557 -18.0070190430 77.0031738281
-32.9650459290 -18.0115871429 76.8067550659
-32.9765586853 -18.0147285461 76.6100997925
-32.9838180542 -18.0157985687 76.4131088257
-32.9867439270 -18.0147628784 76.2157516479
-32.9850769043 -18.0114936829 76.0180053711
-32.9784774780 -18.0058269501 75.8198318481
-32.9681282043 -17.9983348846 75.6213150024
-32.9578704834 -17.9908885956 75.4227828979
-32.9528579712 -17.9859924316 75.2246627808
-32.9564094543 -17.9852581024 75.0272674561
-32.9681663513 -17.9885177612 74.8305664063
-32.9856605530 -17.9945659637 74.6343688965
-33.0072212219 -18.0025901794 74.4385452271
-33.0328712463 -18.0126056671 74.2430953979
-33.0625000000 -18.0245552063 74.0480270386
-33.0941543579 -18.0374908447 73.8531646729
-33.1249885559 -18.0500297546 73.6582565308
-33.1537590027 -18.0615634918 73.4631881714
-33.1819038391 -18.0727920532 73.2680892944
-33.2119483948 -18.0849456787 73.0731887817
-33.2448196411 -18.0984745026 72.8785781860
-33.2784843445 -18.1123905182 72.6840744019
-33.3090896606 -18.1248188019 72.4893188477
-33.3333282471 -18.1341514587 72.2939758301
-33.3498229980 -18.1397151947 72.0979003906
-33.3587150574 -18.1415805817 71.9011001587
-33.3608474731 -18.1401596069 71.7036285400
-33.3576354980 -18.1361389160 71.5056228638
-33.3512840271 -18.1305885315 71.3072814941
-33.3445053101 -18.1248321533 71.1088790894
-33.3397407532 -18.1200523376 70.9106521606
-33.3383522034 -18.1169166565 70.7127532959
-33.3402252197 -18.1153678894 70.5151596069
-33.3439979553 -18.1147422791 70.3177566528
-33.3478965759 -18.1141777039 70.1203536987
-33.3506202698 -18.1130428314 69.9228210449
-33.3516197205 -18.1110668182 69.7250900269
-33.3508605957 -18.1082382202 69.5271682739
-33.3486404419 -18.1046962738 69.3290710449
-33.3456115723 -18.1007595062 69.1308670044
-33.3429450989 -18.0970001221 68.9326858521
-33.3423156738 -18.0942306519 68.7347106934
-33.3455352783 -18.0933361053 68.5371322632
-33.3539810181 -18.0949821472 68.3401260376
-33.3682479858 -18.0994625092 68.1437530518
-33.3880920410 -18.1066570282 67.9480056763
-33.4121055603 -18.1158809662 67.7527389526
-33.4369850159 -18.1255245209 67.5575866699
-33.4574584961 -18.1330242157 67.3619537354
-33.4683418274 -18.1358585358 67.1652450562
