-6.9726123810 -50.3421173096 12.7291688919
-6.9645514488 -50.2993812561 12.5241670609
-6.9568901062 -50.2588500977 12.3197431564
-6.9501867294 -50.2236213684 12.1167984009
-6.9452352524 -50.1980819702 11.9166250229
-6.9427585602 -50.1862258911 11.7204055786
-6.9432144165 -50.1905899048 11.5289106369
-6.9469184875 -50.2129135132 11.3426809311
-6.9540853500 -50.2543869019 11.1621007919
-6.9645047188 -50.3138465881 10.9868640900
-6.9772949219 -50.3864173889 10.8155660629
-6.9912681580 -50.4655265808 10.6462888718
-7.0055060387 -50.5461006165 10.4775390625
-7.0192728043 -50.6240653992 10.3081102371
-7.0314450264 -50.6932182312 10.1361484528
-7.0405340195 -50.7453155518 9.9591779709
-7.0455031395 -50.7746315002 9.7754526138
-7.0464549065 -50.7817344666 9.5850992203
-7.0444898605 -50.7727050781 9.3899021149
-7.0410027504 -50.7552642822 9.1921510696
-7.0370354652 -50.7351646423 8.9935684204
-7.0330038071 -50.7147102356 8.7948455811
-7.0286970139 -50.6927337646 8.5956268311
-7.0233125687 -50.6648025513 8.3945636749
-7.0155978203 -50.6239852905 8.1895360947
-7.0043344498 -50.5635452271 7.9784655571
-6.9890465736 -50.4808540344 7.7605104446
-6.9703335762 -50.3792228699 7.5366435051
-6.9495553970 -50.2661743164 7.3091344833
-6.9282507896 -50.1502189636 7.0805778503
-6.9077115059 -50.0384979248 6.8531680107
-6.8887987137 -49.9357719421 6.6283836365
-6.8720979691 -49.8452758789 6.4072432518
-6.8583369255 -49.7710304260 6.1910171509
-6.8484640121 -49.7182884216 5.9813671112
-6.8431305885 -49.6906471252 5.7794547081
-6.8422327042 -49.6875305176 5.5851488113
-6.8450217247 -49.7047958374 5.3972039223
-6.8504557610 -49.7366867065 5.2138533592
-6.8574881554 -49.7774162292 5.0333094597
-6.8653922081 -49.8229637146 4.8543262482
-6.8740005493 -49.8724021912 4.6766204834
-6.8834543228 -49.9265174866 4.5004463196
-6.8935647011 -49.9842605591 4.3254818916
-6.9034156799 -50.0405693054 4.1501293182
-6.9115676880 -50.0874824524 3.9718558788
-6.9166188240 -50.1172561646 3.7881765366
-6.9176549911 -50.1248283386 3.5974462032
-6.9143877029 -50.1086120605 3.3991110325
-6.9071340561 -50.0703506470 3.1936869621
-6.8967409134 -50.0147399902 2.9826357365
-6.8842449188 -49.9475021362 2.7677662373
-6.8703374863 -49.8724594116 2.5502867699
-6.8552608490 -49.7909545898 2.3306162357
-6.8393020630 -49.7045745850 2.1092553139
-6.8230686188 -49.6166801453 1.8872829676
-6.8070688248 -49.5300750732 1.6656092405
-6.7913608551 -49.4450836182 1.4443414211
-6.7759594917 -49.3617897034 1.2235090733
-6.7614235878 -49.2832832336 1.0041257143
-6.7487902641 -49.2152938843 0.7880763412
-6.7390227318 -49.1631507874 0.5771290064
-6.7326393127 -49.1297149658 0.3722559214
-6.7297425270 -49.1155509949 0.1736791283
25.5496120453 -22.1996440887 90.8312911987
25.5586948395 -22.2051715851 90.6303100586
25.5780239105 -22.2192401886 90.4295349121
25.6040039063 -22.2388553619 90.2289352417
25.6327838898 -22.2608013153 90.0284194946
25.6625423431 -22.2835655212 89.8279571533
25.6945228577 -22.3081836700 89.6275863647
25.7317466736 -22.3371696472 89.4273834229
25.7761611938 -22.3721523285 89.2274169922
25.8257236481 -22.4114284515 89.0276412964
25.8734416962 -22.4491672516 88.8278732300
25.9099674225 -22.4775753021 88.6278686523
25.9279365540 -22.4905147552 88.4273681641
25.9241924286 -22.4853496552 88.2262496948
25.8994178772 -22.4626541138 88.0244750977
25.8579540253 -22.4260406494 87.8221359253
25.8079662323 -22.3823223114 87.6194534302
25.7592926025 -22.3396968842 87.4167175293
25.7191982269 -22.3042240143 87.2141876221
25.6901950836 -22.2779979706 87.0119552612
25.6719341278 -22.2607288361 86.8100433350
25.6648902893 -22.2528095245 86.6084976196
25.6726875305 -22.2572650909 86.4074630737
25.7015628815 -22.2792949677 86.2072219849
25.7572917938 -22.3237152100 86.0080261230
25.8419322968 -22.3922443390 85.8100357056
25.9531116486 -22.4829006195 85.6132125854
26.0853538513 -22.5911216736 85.4173965454
26.2303695679 -22.7099971771 85.2223052979
26.3760185242 -22.8294010162 85.0274581909
26.5078144073 -22.9372558594 84.8322296143
26.6147537231 -23.0243873596 84.6361160278
26.6945381165 -23.0888748169 84.4389572144
26.7524681091 -23.1351432800 84.2409286499
26.7953357697 -23.1688499451 84.0422897339
26.8265438080 -23.1928348541 83.8431625366
26.8458786011 -23.2069206238 83.6435089111
26.8521900177 -23.2101459503 83.4432525635
26.8457241058 -23.2027168274 83.2423629761
26.8289794922 -23.1867141724 83.0409469604
26.8061637878 -23.1656494141 82.8391799927
26.7815704346 -23.1431007385 82.6372833252
26.7575511932 -23.1210327148 82.4353637695
26.7336807251 -23.0990867615 82.2334060669
26.7077293396 -23.0754051208 82.0312805176
26.6779651642 -23.0485420227 81.8289031982
26.6461753845 -23.0199909210 81.6263580322
26.6200275421 -22.9961433411 81.4240570068
26.6121234894 -22.9875125885 81.2227478027
26.6353988647 -23.0048809052 81.0232086182
26.6984062195 -23.0553894043 80.8260040283
26.8032855988 -23.1408176422 80.6313629150
26.9452896118 -23.2572097778 80.4390869141
27.1128520966 -23.3949203491 80.2485809326
27.2891712189 -23.5399379730 80.0588531494
27.4556961060 -23.6767902374 79.8687896729
27.5972137451 -23.7927856445 79.6773910522
27.7068901062 -23.8822269440 79.4841842651
27.7886505127 -23.9483871460 79.2893295288
27.8552093506 -24.0018692017 79.0935974121
27.9208850861 -24.0546131134 78.8979034424
27.9909763336 -24.1110439301 78.7025909424
28.0551395416 -24.1625308990 78.5069808960
28.0924301147 -24.1916007996 78.3096160889
28.0856761932 -24.1839370728 78.1092605591
28.0341243744 -24.1389064789 77.9057388306
27.9551143646 -24.0709705353 77.7001876831
27.8741302490 -24.0013866425 77.4943618774
27.8105792999 -23.9463443756 77.2896575928
27.7693195343 -23.9098930359 77.0864715576
27.7422103882 -23.8852462769 76.8842620850
27.7162990570 -23.8615970612 76.6820831299
27.6828193665 -23.8316326141 76.4792785645
27.6423587799 -23.7958469391 76.2758789063
27.6046257019 -23.7623367310 76.0726165771
27.5840988159 -23.7431755066 75.8706283569
27.5940113068 -23.7494087219 75.6709747314
27.6423377991 -23.7876853943 75.4743804932
27.7319927216 -23.8604412079 75.2811660767
27.8615589142 -23.9664936066 75.0913009644
28.0222015381 -24.0984725952 74.9041671753
28.1954765320 -24.2409896851 74.7183151245
28.3587627411 -24.3751792908 74.5318908691
28.4944019318 -24.4863052368 74.3433914185
28.5939865112 -24.5673542023 74.1520309448
28.6575584412 -24.6183624268 73.9577331543
28.6920070648 -24.6450729370 73.7610092163
28.7084712982 -24.6567802429 73.5627670288
28.7174453735 -24.6622371674 73.3638763428
28.7247867584 -24.6663341522 73.1648406982
28.7320327759 -24.6703510284 72.9657974243
28.7397232056 -24.6747379303 72.7667922974
28.7499027252 -24.6812019348 72.5680236816
28.7655563354 -24.6922321320 72.3697509766
28.7874431610 -24.7084655762 72.1720809937
28.8117332458 -24.7267017365 71.9746475220
28.8315963745 -24.7412471771 71.7768325806
28.8420486450 -24.7479381561 71.5781402588
28.8437747955 -24.7473487854 71.3786163330
28.8433227539 -24.7449436188 71.1788711548
28.8504829407 -24.7488880157 70.9798583984
28.8744449615 -24.7668514252 70.7824935913
28.9196338654 -24.8025302887 70.5872573853
28.9826831818 -24.8531093597 70.3938522339
29.0535163879 -24.9101867676 70.2013244629
29.1214313507 -24.9648284912 70.0085983276
29.1816558838 -25.0130538940 69.8151779175
29.2367458344 -25.0569953918 69.6213226318
29.2923545837 -25.1013717651 69.4275894165
29.3514347076 -25.1486473083 69.2342910767
29.4099464417 -25.1954460144 69.0410156250
29.4552421570 -25.2312183380 68.8464279175
29.4698467255 -25.2413806915 68.6486206055
29.4424762726 -25.2165126801 68.4463119507
29.3795890808 -25.1620082855 68.2401123047
29.3052787781 -25.0979690552 68.0325469971
29.2480754852 -25.0482044220 67.8267440796
29.2279663086 -25.0293941498 67.6249313354
29.2534732819 -25.0486526489 67.4281692505
29.3246955872 -25.1060619354 67.2365570068
29.4355049133 -25.1965103149 67.0495147705
29.5751647949 -25.3110389709 66.8659133911
29.7311992645 -25.4392337799 66.6844024658
29.8915691376 -25.5710487366 66.5036163330
30.0454177856 -25.6974258423 66.3223190308
30.1846523285 -25.8116054535 66.1395416260
30.3064250946 -25.9112148285 65.9549179077
30.4134025574 -25.9984779358 65.7687225342
30.5094528198 -26.0766239166 65.5813827515
30.5929203033 -26.1442699432 65.3926696777
30.6535797119 -26.1928787231 65.2013168335
30.6776428223 -26.2109432220 65.0056076050
30.6583385468 -26.1928138733 64.8046112061
30.6051197052 -26.1463756561 64.5994033813
30.5441207886 -26.0934429169 64.3931350708
30.5063648224 -26.0599098206 64.1896591187
30.5108089447 -26.0615978241 63.9914054871
30.5571174622 -26.0982303619 63.7984352112
30.6340579987 -26.1604328156 63.6094207764
30.7326889038 -26.2407398224 63.4232826233
30.8510837555 -26.3375473022 63.2398338318
30.9897956848 -26.4513149261 63.0591888428
31.1461639404 -26.5798225403 62.8810462952
31.3132762909 -26.7173004150 62.7045440674
31.4826698303 -26.8566856384 62.5285949707
31.6464939117 -26.9914245605 62.3521614075
31.7974262238 -27.1154041290 62.1742553711
31.9285373688 -27.2228412628 61.9939193726
32.0346107483 -27.3093776703 61.8103981018
32.1140747070 -27.3737030029 61.6234207153
32.1699218750 -27.4183158875 61.4333381653
32.2085914612 -27.4485874176 61.2409706116
32.2373619080 -27.4705963135 61.0472869873
32.2620429993 -27.4891910553 60.8530731201
32.2858161926 -27.5070304871 60.6587600708
32.3089752197 -27.5243568420 60.4643821716
32.3296852112 -27.5396385193 60.2696876526
32.3462715149 -27.5514774323 60.0744285583
32.3602638245 -27.5611495972 59.8788146973
32.3784637451 -27.5743370056 59.6838150024
32.4126396179 -27.6008625031 59.4911384583
32.4762725830 -27.6519794464 59.3027801514
32.5791206360 -27.7358398438 59.1202278137
32.7226028442 -27.8536224365 58.9437828064
32.8992424011 -27.9990940094 58.7724418640
33.0961227417 -28.1614685059 58.6043663025
33.2986907959 -28.3285923004 58.4374389648
33.4929885864 -28.4888153076 58.2695770264
33.6677398682 -28.6327209473 58.0990676880
33.8166427612 -28.7550449371 57.9249076843
33.9384002686 -28.8547115326 57.7468414307
34.0343093872 -28.9327945709 57.5650024414
34.1063804626 -28.9909725189 57.3796386719
34.1574974060 -29.0316581726 57.1911392212
34.1916999817 -29.0582237244 57.0000839233
34.2133331299 -29.0742912292 56.8071098328
34.2260475159 -29.0829124451 56.6127586365
34.2328071594 -29.0865631104 56.4174804688
34.2366409302 -29.0877685547 56.2217330933
34.2416343689 -29.0899448395 56.0261688232
34.2535591125 -29.0979061127 55.8317108154
34.2794609070 -29.1175384521 55.6395072937
34.3262557983 -29.1546192169 55.4507102966
34.4002571106 -29.2144203186 55.2663879395
34.5081100464 -29.3024883270 55.0876960754
34.6553230286 -29.4234294891 54.9156150818
34.8400154114 -29.5756664276 54.7499275208
35.0477333069 -29.7471370697 54.5883293152
35.2552833557 -29.9184722900 54.4270172119
35.4415931702 -30.0720691681 54.2624702454
35.5964736938 -30.1994266510 54.0929336548
35.7215957642 -30.3019313812 53.9186096191
35.8250694275 -30.3863582611 53.7408027649
35.9150123596 -30.4594917297 53.5608482361
35.9959182739 -30.5250720978 53.3794746399
36.0684509277 -30.5836677551 53.1967811584
36.1318817139 -30.6346607208 53.0126190186
36.1866607666 -30.6784267426 52.8270492554
36.2341995239 -30.7161483765 52.6402893066
36.2746620178 -30.7479591370 52.4523582458
36.3070068359 -30.7729930878 52.2630538940
36.3322563171 -30.7920989990 52.0725364685
36.3561096191 -30.8100414276 51.8817977905
36.3884239197 -30.8350486755 51.6925964355
36.4404754639 -30.8765411377 51.5069618225
36.5218963623 -30.9425678253 51.3266754150
36.6380882263 -31.0376338959 51.1527786255
36.7884941101 -31.1612796783 50.9852561951
36.9657211304 -31.3073329926 50.8228378296
37.1560173035 -31.4643020630 50.6630783081
37.3425674438 -31.6181449890 50.5029182434
37.5112075806 -31.7570343018 50.3397369385
37.6548461914 -31.8750400543 50.1721839905
37.7735748291 -31.9722404480 50.0002136230
37.8712425232 -32.0518531799 49.8244895935
37.9516372681 -32.1170349121 49.6456680298
38.0167045593 -32.1694183350 49.4640731812
38.0670852661 -32.2095298767 49.2797966003
38.1035003662 -32.2379837036 49.0929336548
38.1274681091 -32.2560348511 48.9037475586
38.1410598755 -32.2654228210 48.7126007080
38.1465682983 -32.2680511475 48.5199089050
38.1463203430 -32.2658767700 48.3261070251
38.1427879333 -32.2609596252 48.1316566467
38.1389045715 -32.2557449341 47.9371185303
38.1386070251 -32.2535247803 47.7432670593
38.1471099854 -32.2586631775 47.5511283875
38.1701583862 -32.2759475708 47.3618583679
38.2125205994 -32.3093681335 47.1764335632
38.2776947021 -32.3618469238 46.9955902100
38.3693084717 -32.4364166260 46.8201103210
38.4910087585 -32.5361175537 46.6507835388
38.6420516968 -32.6603393555 46.4875335693
38.8124618530 -32.8007431030 46.3284149170
38.9844436646 -32.9424629211 46.1698760986
39.1406059265 -33.0709648132 46.0083770752
39.2718658447 -33.1786689758 45.8420333862
39.3782386780 -33.2655792236 45.6707878113
39.4635772705 -33.3349189758 45.4953765869
39.5312728882 -33.3895187378 45.3164443970
39.5843009949 -33.4318656921 45.1345710754
39.6263542175 -33.4650421143 44.9504890442
39.6606826782 -33.4917640686 44.7648468018
39.6882591248 -33.5128479004 44.5778350830
39.7080650330 -33.5274353027 44.3892211914
39.7194099426 -33.5349578857 44.1988410950
39.7239837646 -33.5368194580 44.0070343018
39.7256889343 -33.5362854004 43.8146133423
39.7281303406 -33.5363655090 43.6223411560
39.7319145203 -33.5375709534 43.4303474426
39.7349777222 -33.5381698608 43.2381973267
39.7358665466 -33.5369529724 43.0455703735
39.7365303040 -33.5355491638 42.8528823853
39.7424125671 -33.5385017395 42.6613235474
39.7610702515 -33.5521354675 42.4725494385
39.8004913330 -33.5831184387 42.2883415222
39.8669090271 -33.6366577148 42.1101188660
39.9623222351 -33.7144317627 41.9383850098
40.0832023621 -33.8134880066 41.7724304199
40.2211074829 -33.9267730713 41.6104354858
40.3651275635 -34.0451698303 41.4500160217
40.5049896240 -34.1600914001 41.2888793945
40.6328697205 -34.2650070190 41.1252593994
40.7431182861 -34.3551864624 40.9578628540
40.8316688538 -34.4272346497 40.7857208252
40.8968162537 -34.4797286987 40.6083946228
40.9402885437 -34.5141067505 40.4262313843
40.9665451050 -34.5340995789 40.2401885986
40.9803390503 -34.5436744690 40.0513191223
40.9846153259 -34.5452995300 39.8602714539
40.9799728394 -34.5394668579 39.6671600342
40.9650840759 -34.5250701904 39.4716606140
40.9374465942 -34.5000190735 39.2731590271
40.8947105408 -34.4623527527 39.0710868835
40.8370208740 -34.4121818542 38.8654327393
40.7692337036 -34.3535728455 38.6573066711
40.7010574341 -34.2946395874 38.4489746094
40.6446151733 -34.2455101013 38.2432937622
40.6108322144 -34.2153205872 38.0428886414
40.6065750122 -34.2098083496 37.8494453430
40.6334381104 -34.2303047180 37.6634140015
40.6884002686 -34.2742881775 37.4841423035
40.7658424377 -34.3370628357 37.3103523254
40.8598022461 -34.4136428833 37.1406555176
40.9651107788 -34.4997138977 36.9738426208
41.0772895813 -34.5915298462 36.8088493347
41.1920967102 -34.6855430603 36.6446647644
41.3053741455 -34.7782745361 36.4802780151
41.4132041931 -34.8664588928 36.3147239685
41.5124931335 -34.9475021362 36.1472282410
41.6014289856 -35.0198974609 35.9773292542
41.6789207458 -35.0827255249 35.8047218323
41.7430267334 -35.1343650818 35.6289062500
41.7908363342 -35.1723823547 35.4491271973
41.8205032349 -35.1952362061 35.2648773193
41.8329544067 -35.2036972046 35.0763473511
41.8311805725 -35.2002639771 34.8842544556
41.8180198669 -35.1873168945 34.6892738342
41.7947235107 -35.1658935547 34.4916992188
41.7616539001 -35.1362991333 34.2915954590
41.7206230164 -35.1000518799 34.0894012451
41.6765937805 -35.0612945557 33.8863677979
41.6363792419 -35.0257263184 33.6842308044
41.6053276062 -34.9978141785 33.4843750000
41.5854148865 -34.9792175293 33.2873268127
41.5764045715 -34.9697341919 33.0930557251
41.5782394409 -34.9693183899 32.9015731812
41.5924110413 -34.9792175293 32.7132911682
41.6212120056 -35.0013427734 32.5288352966
41.6654853821 -35.0364112854 32.3484649658
41.7232971191 -35.0827941895 32.1717033386
41.7913703918 -35.1377601624 31.9977264404
41.8677330017 -35.1996536255 31.8260345459
41.9516944885 -35.2679061890 31.6564655304
42.0410728455 -35.3406867981 31.4884567261
42.1304893494 -35.4135017395 31.3205909729
42.2131233215 -35.4806442261 31.1510410309
42.2837638855 -35.5377616882 30.9783973694
42.3402481079 -35.5830459595 30.8020496368
42.3826751709 -35.6165733337 30.6219921112
42.4116516113 -35.6388587952 30.4383544922
42.4264183044 -35.6492614746 30.2508983612
42.4239463806 -35.6452484131 30.0587654114
42.4002838135 -35.6235160828 29.8608398438
42.3536720276 -35.5825958252 29.6565876007
42.2866134644 -35.5245742798 29.4466419220
42.2053527832 -35.4546775818 29.2326736450
42.1180191040 -35.3797035217 29.0168876648
42.0331954956 -35.3068199158 28.8016490936
41.9590454102 -35.2428665161 28.5892257690
41.9020347595 -35.1932411194 28.3814449310
41.8657379150 -35.1609382629 28.1793441772
41.8510055542 -35.1466674805 27.9832077026
41.8569831848 -35.1497154236 27.7928524017
41.8813095093 -35.1681060791 27.6076583862
41.9200210571 -35.1985282898 27.4265537262
41.9690628052 -35.2375907898 27.2484226227
42.0261688232 -35.2833976746 27.0726490021
42.0901908875 -35.3349876404 26.8989200592
42.1588516235 -35.3904571533 26.7266082764
42.2288360596 -35.4470367432 26.5547714233
42.2979125977 -35.5028572083 26.3827762604
42.3652801514 -35.5572509766 26.2103881836
42.4292602539 -35.6088104248 26.0371170044
42.4855003357 -35.6539001465 25.8616962433
42.5272140503 -35.6868400574 25.6821403503
42.5469703674 -35.7014160156 25.4962501526
42.5398826599 -35.6935386658 25.3025493622
42.5066375732 -35.6637878418 25.1011734009
42.4534912109 -35.6173896790 24.8938961029
42.3892173767 -35.5616836548 24.6832504272
42.3220558167 -35.5035629272 24.4716415405
42.2574996948 -35.4476165771 24.2606849670
42.1967506409 -35.3948516846 24.0507431030
42.1379013062 -35.3436813354 23.8412609100
42.0803565979 -35.2935981750 23.6320629120
42.0282440186 -35.2480545044 23.4243850708
41.9887237549 -35.2130470276 23.2203884125
41.9672164917 -35.1931037903 23.0217304230
41.9649848938 -35.1892852783 22.8288345337
41.9806671143 -35.2004508972 22.6413364410
42.0121917725 -35.2248649597 22.4586486816
42.0563888550 -35.2598838806 22.2798500061
42.1081047058 -35.3011894226 22.1033992767
42.1615638733 -35.3439559937 21.9275512695
42.2131118774 -35.3851280212 21.7511940002
42.2619628906 -35.4240379333 21.5740776062
42.3081321716 -35.4607048035 21.3962039948
42.3502731323 -35.4940071106 21.2171516418
42.3855400085 -35.5215606689 21.0360298157
42.4111747742 -35.5410537720 20.8519668579
42.4259185791 -35.5514373779 20.6645469666
42.4299621582 -35.5528678894 20.4738082886
42.4236717224 -35.5456542969 20.2798347473
42.4064331055 -35.5292854309 20.0824146271
42.3767013550 -35.5024566650 19.8810310364
42.3334503174 -35.4643211365 19.6753349304
42.2783126831 -35.4162406921 19.4658088684
42.2164306641 -35.3625183105 19.2540493011
42.1547317505 -35.3089447021 19.0422401428
42.0993576050 -35.2606620789 18.8323326111
42.0551643372 -35.2217369080 18.6258907318
42.0269203186 -35.1961479187 18.4244632721
42.0190353394 -35.1875953674 18.2295017242
42.0332221985 -35.1975097656 18.0416030884
42.0672264099 -35.2240066528 17.8600978851
42.1167640686 -35.2634963989 17.6836471558
42.1780853271 -35.3128509521 17.5110778809
42.2478981018 -35.3693084717 17.3413486481
42.3216743469 -35.4290809631 17.1730060577
42.3934478760 -35.4871826172 17.0041179657
42.4575614929 -35.5388755798 16.8328323364
42.5102996826 -35.5810470581 16.6579113007
42.5503807068 -35.6126327515 16.4789085388
42.5785484314 -35.6342506409 16.2960395813
42.5965003967 -35.6473197937 16.1098327637
42.6058044434 -35.6531524658 15.9207849503
42.6074867249 -35.6526069641 15.7292146683
42.6021041870 -35.6461524963 15.5352897644
42.5899047852 -35.6339912415 15.3390750885
42.5709152222 -35.6161499023 15.1405630112
42.5452384949 -35.5927085876 14.9397716522
42.5136222839 -35.5643005371 14.7369365692
42.4781036377 -35.5326232910 14.5327291489
42.4423179626 -35.5007247925 14.3283643723
42.4113006592 -35.4728088379 14.1255407333
42.3908996582 -35.4537849426 13.9262542725
42.3870697021 -35.4486236572 13.7325468063
42.4047546387 -35.4614677429 13.5461416245
42.4464721680 -35.4944267273 13.3679504395
42.5115814209 -35.5469589233 13.1978082657
42.5970344543 -35.6165199280 13.0347290039
42.6982078552 -35.6992378235 12.8771734238
42.8083915710 -35.7894973755 12.7228679657
42.9191360474 -35.8802261353 12.5689210892
43.0231170654 -35.9652976990 12.4128007889
43.1166877747 -36.0416603088 12.2532281876
43.1992340088 -36.1087913513 12.0899620056
43.2708435059 -36.1667785645 11.9230108261
43.3307914734 -36.2150001526 11.7520923615
43.3770179749 -36.2517433167 11.5764608383
43.4067916870 -36.2747116089 11.3951234818
43.4185562134 -36.2826118469 11.2074966431
43.4134254456 -36.2763671875 11.0139265060
43.3945732117 -36.2586402893 10.8154954910
43.3652343750 -36.2321357727 10.6133146286
43.3273200989 -36.1984481812 10.4080352783
43.2816696167 -36.1582908630 10.1999359131
43.2292556763 -36.1124725342 9.9893455505
43.1726493835 -36.0631370544 9.7771644592
43.1173973083 -36.0149383545 9.5653657913
43.0720367432 -35.9750175476 9.3570137024
43.0455703735 -35.9509124756 9.1553697586
43.0438079834 -35.9474830627 8.9625663757
43.0670242310 -35.9649658203 8.7787647247
43.1104354858 -35.9993515015 8.6022939682
43.1673507690 -36.0450439453 8.4307765961
43.2332763672 -36.0982780457 8.2626123428
43.3076057434 -36.1585464478 8.0976009369
43.3914108276 -36.2267456055 7.9361553192
43.4838447571 -36.3021774292 7.7779889107
43.5808296204 -36.3814125061 7.6216254234
43.6767883301 -36.4597969055 7.4650297165
43.7674903870 -36.5337791443 7.3066406250
43.8515205383 -36.6021728516 7.1459236145
43.9293251038 -36.6653594971 6.9830293655
44.0009155273 -36.7233467102 6.8179459572
44.0641136169 -36.7743110657 6.6498513222
44.1143379211 -36.8144111633 6.4770183563
44.1461296082 -36.8390808105 6.2973823547
44.1562614441 -36.8456192017 6.1096935272
44.1463775635 -36.8353996277 5.9145154953
44.1226463318 -36.8135833740 5.7141137123
44.0925788879 -36.7864646912 5.5112810135
44.0618095398 -36.7587585449 5.3081254959
44.0330467224 -36.7327308655 5.1056675911
44.0075263977 -36.7094154358 4.9043798447
43.9877967834 -36.6909484863 4.7052364349
43.9794692993 -36.6820259094 4.5103831291
43.9897041321 -36.6886482239 4.3225760460
44.0233001709 -36.7148284912 4.1436886787
44.0803337097 -36.7606353760 3.9738078117
44.1575698853 -36.8233604431 3.8117494583
44.2505302429 -36.8992500305 3.6558415890
44.3531951904 -36.9832649231 3.5038046837
44.4576988220 -37.0688209534 3.3526313305
44.5570907593 -37.1501007080 3.1996376514
44.6482543945 -37.2244911194 3.0436058044
44.7307777405 -37.2916488647 2.8843572140
44.8033218384 -37.3504486084 2.7213482857
44.8624153137 -37.3979911804 2.5532050133
44.9048194885 -37.4315567017 2.3786292076
44.9300193787 -37.4507179260 2.1973800659
44.9402465820 -37.4573364258 2.0102906227
44.9385871887 -37.4540100098 1.8185391426
44.9271087646 -37.4424552917 1.6229087114
44.9059638977 -37.4228019714 1.4234353304
44.8738441467 -37.3939628601 1.2195817232
44.8297576904 -37.3551025391 1.0109270811
44.7749977112 -37.3073005676 0.7979556918
44.7135467529 -37.2538986206 0.5822268128
44.6506233215 -37.1992568970 0.3658007979
44.5911636353 -37.1475143433 0.1506466568
-19.6307106018 -47.4956321716 88.9718475342
-19.6326656342 -47.5006713867 88.7829208374
-19.6352882385 -47.5071601868 88.5940399170
-19.6390399933 -47.5161209106 88.4052658081
-19.6440753937 -47.5278778076 88.2166061401
-19.6500129700 -47.5416030884 88.0280303955
-19.6560440063 -47.5555305481 87.8394775391
-19.6613922119 -47.5679702759 87.6508712769
-19.6662101746 -47.5792541504 87.4622268677
-19.6721820831 -47.5930519104 87.2736968994
-19.6811313629 -47.6133460999 87.0854644775
-19.6918487549 -47.6374969482 86.8974304199
-19.6992855072 -47.6544952393 86.7090911865
-19.6987590790 -47.6541175842 86.5199584961
-19.6905441284 -47.6369667053 86.3300399780
-19.6790275574 -47.6126174927 86.1397399902
-19.6682853699 -47.5899543762 85.9494781494
-19.6597023010 -47.5720024109 85.7594146729
-19.6529121399 -47.5579605103 85.5695114136
-19.6473827362 -47.5466728210 85.3797149658
-19.6430873871 -47.5380706787 85.1900405884
-19.6405563354 -47.5333175659 85.0005416870
-19.6410026550 -47.5350685120 84.8113632202
-19.6465930939 -47.5480346680 84.6227874756
-19.6604576111 -47.5790519714 84.4351806641
-19.6858062744 -47.6351242065 84.2489852905
-19.7241821289 -47.7196121216 84.0644226074
-19.7739658356 -47.8289833069 83.8813552856
-19.8307380676 -47.9536018372 83.6992950439
-19.8895797729 -48.0827331543 83.5176544189
-19.9474639893 -48.2097778320 83.3360671997
-20.0035457611 -48.3328895569 83.1544113159
-20.0572433472 -48.4507942200 82.9726028442
-20.1064491272 -48.5589027405 82.7903671265
-20.1479415894 -48.6501884460 82.6072463989
-20.1794776917 -48.7197494507 82.4229125977
-20.2012977600 -48.7681198120 82.2373504639
-20.2156639099 -48.8002281189 82.0508270264
-20.2250900269 -48.8215560913 81.8636550903
-20.2310180664 -48.8352584839 81.6760177612
-20.2337474823 -48.8419799805 81.4879379272
-20.2331752777 -48.8415031433 81.2993927002
-20.2293472290 -48.8339233398 81.1103591919
-20.2222232819 -48.8191490173 80.9208297729
-20.2107753754 -48.7949485779 80.7306442261
-20.1923942566 -48.7556228638 80.5393753052
-20.1640892029 -48.6946449280 80.3465576172
-20.1256713867 -48.6116142273 80.1521072388
-20.0820064545 -48.5171356201 79.9567413330
-20.0413875580 -48.4293022156 79.7617034912
-20.0118312836 -48.3656005859 79.5682678223
-19.9996414185 -48.3397827148 79.3774719238
-20.0099334717 -48.3630027771 79.1902160645
-20.0451183319 -48.4405212402 79.0069885254
-20.1015510559 -48.5643920898 78.8273086548
-20.1693420410 -48.7130317688 78.6496429443
-20.2371864319 -48.8617897034 78.4721908569
-20.2976722717 -48.9944992065 78.2937011719
-20.3483066559 -49.1057167053 78.1137313843
-20.3891963959 -49.1956748962 77.9322509766
-20.4212341309 -49.2663269043 77.7493667603
-20.4459724426 -49.3210563660 77.5653152466
-20.4655990601 -49.3646392822 77.3804397583
-20.4819793701 -49.4011344910 77.1950454712
-20.4956111908 -49.4316368103 77.0092086792
-20.5057601929 -49.4545402527 76.8227767944
-20.5114192963 -49.4676551819 76.6355667114
-20.5115737915 -49.4687576294 76.4473648071
-20.5040683746 -49.4531555176 76.2577514648
-20.4846382141 -49.4115409851 76.0659027100
-20.4488067627 -49.3341560364 75.8709411621
-20.3969898224 -49.2219009399 75.6728591919
-20.3380432129 -49.0940971375 75.4732742310
-20.2860355377 -48.9814224243 75.2748260498
-20.2521743774 -48.9083404541 75.0796966553
-20.2393913269 -48.8812255859 74.8885498047
-20.2428283691 -48.8894920349 74.7005157471
-20.2538127899 -48.9142189026 74.5139770508
-20.2649345398 -48.9392509460 74.3274917603
-20.2746963501 -48.9613075256 74.1407546997
-20.2882595062 -48.9916648865 73.9548034668
-20.3122673035 -49.0447959900 73.7710113525
-20.3478622437 -49.1232032776 73.5896453857
-20.3890647888 -49.2138404846 73.4095306396
-20.4278240204 -49.2991523743 73.2290267944
-20.4599685669 -49.3700332642 73.0472564697
-20.4865417480 -49.4287567139 72.8644027710
-20.5107192993 -49.4822654724 72.6811141968
-20.5340499878 -49.5339164734 72.4977035522
-20.5550098419 -49.5804023743 72.3138580322
-20.5704669952 -49.6148834229 72.1288757324
-20.5780181885 -49.6321220398 71.9422073364
-20.5766906738 -49.6299972534 71.7536163330
-20.5656890869 -49.6067695618 71.5628738403
-20.5435791016 -49.5593147278 71.3696289063
-20.5099506378 -49.4867362976 71.1737289429
-20.4681282043 -49.3962860107 70.9758834839
-20.4252777100 -49.3036003113 70.7776718140
-20.3885974884 -49.2243652344 70.5807342529
-20.3610057831 -49.1649589539 70.3857574463
-20.3403625488 -49.1207046509 70.1923065186
-20.3224277496 -49.0823554993 69.9994125366
-20.3050746918 -49.0452804565 69.8065948486
-20.2908077240 -49.0149345398 69.6144485474
-20.2850074768 -49.0030555725 69.4242553711
-20.2907981873 -49.0164527893 69.2368011475
-20.3060512543 -49.0504913330 69.0516357422
-20.3261852264 -49.0951766968 68.8676834106
-20.3488330841 -49.1453399658 68.6844024658
-20.3747062683 -49.2025375366 68.5019683838
-20.4046592712 -49.2686347961 68.3206024170
-20.4368877411 -49.3396949768 68.1398925781
-20.4668464661 -49.4057998657 67.9587020874
-20.4892768860 -49.4554901123 67.7757034302
-20.5004653931 -49.4806632996 67.5899429321
-20.4994201660 -49.4791526794 67.4011001587
-20.4875106812 -49.4539489746 67.2094726563
-20.4672946930 -49.4106292725 67.0156784058
-20.4417610168 -49.3557128906 66.8204345703
-20.4143295288 -49.2966575623 66.6246261597
-20.3882732391 -49.2406005859 66.4290771484
-20.3649005890 -49.1903953552 66.2341537476
-20.3420162201 -49.1412582397 66.0392837524
-20.3148555756 -49.0827941895 65.8432006836
-20.2805728912 -49.0088005066 65.6451263428
-20.2440700531 -48.9299621582 65.4463500977
-20.2183055878 -48.8745422363 65.2503509521
-20.2148742676 -48.8678321838 65.0603332520
-20.2329978943 -48.9081306458 64.8761901855
-20.2602748871 -48.9683876038 64.6946029663
-20.2843666077 -49.0217018127 64.5122146606
-20.3015995026 -49.0600547791 64.3279876709
-20.3151512146 -49.0903778076 64.1427764893
-20.3286666870 -49.1206245422 63.9575843811
-20.3425445557 -49.1516609192 63.7725334167
-20.3542785645 -49.1780242920 63.5869102478
-20.3609066010 -49.1932487488 63.3998565674
-20.3613033295 -49.1948852539 63.2110328674
-20.3565940857 -49.1853866577 63.0207290649
-20.3488445282 -49.1692543030 62.8295288086
-20.3397407532 -49.1501731873 62.6379013062
-20.3301715851 -49.1300735474 62.4461021423
-20.3201313019 -49.1089515686 62.2541313171
-20.3082942963 -49.0839118958 62.0615921021
-20.2917709351 -49.0486488342 61.8676185608
-20.2673301697 -48.9961204529 61.6712226868
-20.2341232300 -48.9244766235 61.4721183777
-20.1953315735 -48.8406562805 61.2712211609
-20.1562347412 -48.7561645508 61.0701103210
-20.1205978394 -48.6792259216 60.8699302673
-20.0898075104 -48.6128540039 60.6711158752
-20.0650329590 -48.5595970154 60.4740562439
-20.0485553741 -48.5244369507 60.2794761658
-20.0426921844 -48.5124244690 60.0881385803
-20.0484924316 -48.5258483887 59.9004135132
-20.0655250549 -48.5637626648 59.7162246704
-20.0917892456 -48.6218109131 59.5349845886
-20.1236038208 -48.6919593811 59.3555755615
-20.1565628052 -48.7646064758 59.1766204834
-20.1868839264 -48.8315010071 58.9969139099
-20.2113018036 -48.8855171204 58.8153953552
-20.2263450623 -48.9190940857 58.6309204102
-20.2294254303 -48.9265899658 58.4426040649
-20.2209720612 -48.9089279175 58.2505378723
-20.2041854858 -48.8730926514 58.0557136536
-20.1821727753 -48.8258628845 57.8591117859
-20.1561222076 -48.7698287964 57.6611061096
-20.1265621185 -48.7061424255 57.4618530273
-20.0952644348 -48.6386680603 57.2619247437
-20.0647907257 -48.5729904175 57.0621681213
-20.0362510681 -48.5115280151 56.8629646301
-20.0086212158 -48.4520568848 56.6639785767
-19.9809093475 -48.3924026489 56.4648704529
-19.9544448853 -48.3354644775 56.2661018372
-19.9323501587 -48.2880630493 56.0687370300
-19.9169654846 -48.2552871704 55.8736076355
-19.9083957672 -48.2373771667 55.6807746887
-19.9053115845 -48.2314262390 55.4898109436
-19.9063320160 -48.2344284058 55.3002624512
-19.9105205536 -48.2443389893 55.1118164063
-19.9171390533 -48.2595443726 54.9242286682
-19.9253311157 -48.2781791687 54.7372055054
-19.9339332581 -48.2977142334 54.5503501892
-19.9413509369 -48.3146629333 54.3630905151
-19.9456081390 -48.3247184753 54.1747169495
-19.9449806213 -48.3241271973 53.9846000671
-19.9392032623 -48.3123016357 53.7926177979
-19.9301910400 -48.2934265137 53.5994415283
-19.9210662842 -48.2743072510 53.4061889648
-19.9136867523 -48.2589912415 53.2135391235
-19.9066734314 -48.2444725037 53.0209960938
-19.8953266144 -48.2205047607 52.8268280029
-19.8734588623 -48.1735992432 52.6287384033
-19.8368320465 -48.0945129395 52.4251060486
-19.7870159149 -47.9866638184 52.2164497375
-19.7318382263 -47.8671302795 52.0056304932
-19.6804733276 -47.7559089661 51.7960700989
-19.6386051178 -47.6653976440 51.5899238586
-19.6093959808 -47.6024818420 51.3884315491
-19.5959758759 -47.5739974976 51.1928405762
-19.5990962982 -47.5815811157 51.0035095215
-19.6139450073 -47.6147308350 50.8186645508
-19.6328792572 -47.6567955017 50.6354293823
-19.6511707306 -47.6974563599 50.4519920349
-19.6688156128 -47.7367057800 50.2683563232
-19.6879863739 -47.7792816162 50.0853576660
-19.7097873688 -47.8275947571 49.9034385681
-19.7321300507 -47.8770866394 49.7217903137
-19.7493534088 -47.9154167175 49.5381851196
-19.7544078827 -47.9272117615 49.3498268127
-19.7428340912 -47.9027557373 49.1548843384
-19.7154788971 -47.8438911438 48.9536285400
-19.6777019501 -47.7623023987 48.7481193542
-19.6357040405 -47.6715049744 48.5407981873
-19.5926589966 -47.5784301758 48.3329238892
-19.5475864410 -47.4809379578 48.1240959167
-19.4983386993 -47.3743362427 47.9134330750
-19.4463882446 -47.2618484497 47.7015151978
-19.3985710144 -47.1583747864 47.4911193848
-19.3636302948 -47.0829696655 47.2858505249
-19.3467521667 -47.0469512939 47.0878982544
-19.3465309143 -47.0472488403 46.8967628479
-19.3560352325 -47.0687484741 46.7096481323
-19.3668670654 -47.0931434631 46.5231056213
-19.3736152649 -47.1086349487 46.3348846436
-19.3756752014 -47.1139068604 46.1447143555
-19.3755550385 -47.1144256592 45.9536285400
-19.3758735657 -47.1159019470 45.7627220154
-19.3776779175 -47.1206130981 45.5724334717
-19.3805580139 -47.1276702881 45.3826026917
-19.3833770752 -47.1345977783 45.1927490234
-19.3848037720 -47.1384887695 45.0023002625
-19.3836078644 -47.1366577148 44.8107223511
-19.3787364960 -47.1268196106 44.6175537109
-19.3691234589 -47.1066398621 44.4223098755
-19.3534297943 -47.0732040405 44.2243919373
-19.3302860260 -47.0235252380 44.0231781006
-19.2990474701 -46.9562034607 43.8183517456
-19.2605514526 -46.8730545044 43.6102409363
-19.2175483704 -46.7800788879 43.4000282288
-19.1747226715 -46.6874923706 43.1897544861
-19.1379528046 -46.6081085205 42.9820289612
-19.1124801636 -46.5533561707 42.7792053223
-19.1004600525 -46.5279312134 42.5822944641
-19.0996112823 -46.5268630981 42.3903388977
-19.1047630310 -46.5388755798 42.2010650635
-19.1120204926 -46.5554809570 42.0127525330
-19.1217727661 -46.5775222778 41.8255767822
-19.1368808746 -46.6112403870 41.6408538818
-19.1579685211 -46.6579971313 41.4588928223
-19.1815338135 -46.7101516724 41.2781143188
-19.2024402618 -46.7565116882 41.0961837769
-19.2169513702 -46.7889328003 40.9113731384
-19.2233161926 -46.8035850525 40.7228431702
-19.2208232880 -46.7989349365 40.5302314758
-19.2092971802 -46.7745895386 40.3334121704
-19.1894226074 -46.7320442200 40.1326637268
-19.1631546021 -46.6755561829 39.9288635254
-19.1331176758 -46.6108589172 39.7232170105
-19.1011791229 -46.5420112610 39.5165748596
-19.0678558350 -46.4701461792 39.3091773987
-19.0337409973 -46.3965568542 39.1012954712
-19.0013313293 -46.3266868591 38.8941154480
-18.9746475220 -46.2692947388 38.6895561218
-18.9569396973 -46.2314758301 38.4891967773
-18.9491767883 -46.2153358459 38.2935371399
-18.9507465363 -46.2195396423 38.1023330688
-18.9610023499 -46.2426834106 37.9153137207
-18.9797115326 -46.2842521667 37.7324066162
-19.0059242249 -46.3421783447 37.5531845093
-19.0367469788 -46.4101524353 37.3762817383
-19.0675888062 -46.4781723022 37.1994705200
-19.0938720703 -46.5362510681 37.0205154419
-19.1126956940 -46.5780677795 36.8379707336
-19.1231670380 -46.6016807556 36.6513595581
-19.1254520416 -46.6074409485 36.4607315063
-19.1196041107 -46.5954780579 36.2660713196
-19.1053142548 -46.5651054382 36.0671882629
-19.0826950073 -46.5165824890 35.8641014099
-19.0533504486 -46.4533958435 35.6575813293
-19.0207271576 -46.3830604553 35.4493179321
-18.9892349243 -46.3151969910 35.2415161133
-18.9624652863 -46.2576255798 35.0359992981
-18.9416332245 -46.2129936218 34.8333969116
-18.9253940582 -46.1783752441 34.6330566406
-18.9113693237 -46.1485900879 34.4337882996
-18.8983039856 -46.1208953857 34.2349624634
-18.8868789673 -46.0967712402 34.0369262695
-18.8786125183 -46.0795402527 33.8404731750
-18.8744544983 -46.0712585449 33.6461067200
-18.8744201660 -46.0719680786 33.4538497925
-18.8780441284 -46.0806503296 33.2634811401
-18.8847656250 -46.0960884094 33.0747261047
-18.8939723969 -46.1169395447 32.8872795105
-18.9048290253 -46.1413917542 32.7007141113
-18.9161510468 -46.1668548584 32.5144233704
-18.9265155792 -46.1902313232 32.3276519775
-18.9345626831 -46.2085609436 32.1396865845
-18.9392509460 -46.2195625305 31.9499588013
-18.9397869110 -46.2215156555 31.7580375671
-18.9353580475 -46.2126426697 31.5634708405
-18.9249668121 -46.1907768250 31.3657035828
-18.9076938629 -46.1539115906 31.1642189026
-18.8831501007 -46.1011962891 30.9587764740
-18.8518180847 -46.0336875916 30.7496013641
-18.8153533936 -45.9549865723 30.5375556946
-18.7767982483 -45.8717269897 30.3242626190
-18.7403640747 -45.7930984497 30.1119976044
-18.7108688354 -45.7295875549 29.9033870697
-18.6928443909 -45.6910858154 29.7009372711
-18.6889057159 -45.6832885742 29.5061283112
-18.6983108521 -45.7045745850 29.3186187744
-18.7179450989 -45.7481575012 29.1367549896
-18.7450027466 -45.8079223633 28.9590377808
-18.7779083252 -45.8804321289 28.7846260071
-18.8146343231 -45.9612693787 28.6124267578
-18.8513870239 -46.0421676636 28.4403457642
-18.8836116791 -46.1131896973 28.2658424377
-18.9080200195 -46.1671829224 28.0870628357
-18.9235267639 -46.2017669678 27.9033622742
-18.9305114746 -46.2177734375 27.7149105072
-18.9295730591 -46.2165145874 27.5220069885
-18.9211139679 -46.1988601685 27.3248462677
-18.9058074951 -46.1662864685 27.1237754822
-18.8849868774 -46.1216888428 26.9195175171
-18.8604393005 -46.0689659119 26.7130661011
-18.8338642120 -46.0118293762 26.5053787231
-18.8061866760 -45.9522895813 26.2969703674
-18.7768039703 -45.8890304565 26.0874938965
-18.7435932159 -45.8174285889 25.8757171631
-18.7044677734 -45.7329368591 25.6604213715
-18.6595993042 -45.6359252930 25.4416770935
-18.6122169495 -45.5334396362 25.2213325500
-18.5672035217 -45.4361152649 25.0022144318
-18.5292167664 -45.3541069031 24.7870502472
-18.5022964478 -45.2962188721 24.5782337189
-18.4903850555 -45.2710456848 24.3781261444
-18.4964866638 -45.2851295471 24.1885604858
-18.5202770233 -45.3377723694 24.0094280243
-18.5567932129 -45.4181518555 23.8378772736
-18.5978641510 -45.5084571838 23.6691265106
-18.6352710724 -45.5907745361 23.4983177185
-18.6637210846 -45.6535682678 23.3222827911
-18.6819858551 -45.6941642761 23.1402511597
-18.6917438507 -45.7162208557 22.9531784058
-18.6952590942 -45.7246704102 22.7623825073
-18.6937313080 -45.7221260071 22.5685596466
-18.6871356964 -45.7085380554 22.3716697693
-18.6750793457 -45.6830482483 22.1714534760
-18.6576194763 -45.6457824707 21.9679203033
-18.6351833344 -45.5976676941 21.7613048553
-18.6078910828 -45.5389747620 21.5516586304
-18.5753345490 -45.4688034058 21.3387088776
-18.5374431610 -45.3870086670 21.1223926544
-18.4958286285 -45.2971000671 20.9036674500
-18.4540748596 -45.2068901062 20.6847267151
-18.4162998199 -45.1253471375 20.4681034088
-18.3853759766 -45.0587425232 20.2555942535
-18.3628845215 -45.0105133057 20.0482044220
-18.3502388000 -44.9837417603 19.8468532562
-18.3485240936 -44.9807891846 19.6522598267
-18.3568725586 -44.9997749329 19.4639339447
-18.3721389771 -45.0338401794 19.2799530029
-18.3908672333 -45.0754432678 19.0981807709
-18.4110450745 -45.1202125549 18.9173679352
-18.4316749573 -45.1659584045 18.7368946075
-18.4514236450 -45.2097892761 18.5559215546
-18.4684638977 -45.2477149963 18.3732852936
-18.4813632965 -45.2766189575 18.1880664825
-18.4895935059 -45.2953453064 17.9999103546
-18.4930515289 -45.3036727905 17.8087291718
-18.4913654327 -45.3007850647 17.6142635345
-18.4837856293 -45.2850532532 17.4160118103
-18.4697933197 -45.2553520203 17.2136135101
-18.4497165680 -45.2123870850 17.0072479248
-18.4245681763 -45.1583709717 16.7975444794
-18.3951244354 -45.0949897766 16.5849781036
-18.3611087799 -45.0216484070 16.3693542480
-18.3215370178 -44.9361991882 16.1500110626
-18.2763557434 -44.8385276794 15.9268884659
-18.2280998230 -44.7341499329 15.7016143799
-18.1818370819 -44.6341209412 15.4774923325
-18.1431541443 -44.5506095886 15.2581920624
-18.1156387329 -44.4914398193 15.0461072922
-18.0997714996 -44.4576530457 14.8416051865
-18.0937004089 -44.4452095032 14.6435136795
-18.0949230194 -44.4486694336 14.4502248764
-18.1016368866 -44.4640922546 14.2605752945
-18.1131877899 -44.4900588989 14.0741529465
-18.1296310425 -44.5266838074 13.8910188675
-18.1506004333 -44.5731735229 13.7109489441
-18.1742095947 -44.6254158020 13.5327024460
-18.1971778870 -44.6762580872 13.3540916443
-18.2163906097 -44.7189178467 13.1730165482
-18.2304019928 -44.7502441406 12.9884891510
-18.2394237518 -44.7706947327 12.8006258011
-18.2439823151 -44.7814216614 12.6097631454
-18.2437267303 -44.7816543579 12.4156408310
-18.2373065948 -44.7684593201 12.2173204422
-18.2231903076 -44.7384872437 12.0137271881
-18.2005157471 -44.6898689270 11.8042402267
-18.1694679260 -44.6230010986 11.5889472961
-18.1315345764 -44.5411262512 11.3688287735
-18.0900287628 -44.4514694214 11.1461324692
-18.0501117706 -44.3652763367 10.9243984222
-18.0173625946 -44.2947082520 10.7074861526
-17.9957065582 -44.2483062744 10.4981431961
-17.9864788055 -44.2289924622 10.2973480225
-17.9890232086 -44.2353286743 10.1046981812
-18.0016307831 -44.2635955811 9.9190597534
-18.0223102570 -44.3094520569 9.7390871048
-18.0495548248 -44.3696136475 9.5637626648
-18.0826568604 -44.4425392151 9.3926200867
-18.1207714081 -44.5263900757 9.2250938416
-18.1615447998 -44.6160316467 9.0595464706
-18.2011070251 -44.7030334473 8.8932609558
-18.2355918884 -44.7789726257 8.7234992981
-18.2625789642 -44.8385734558 8.5485210419
-18.2816581726 -44.8809394836 8.3680000305
-18.2944240570 -44.9095458984 8.1830368042
-18.3039550781 -44.9311103821 7.9957990646
-18.3135108948 -44.9527206421 7.8085994720
-18.3248310089 -44.9781799316 7.6226859093
-18.3372859955 -45.0061149597 7.4376149178
-18.3486690521 -45.0317077637 7.2518024445
-18.3569126129 -45.0504646301 7.0637559891
-18.3611412048 -45.0604667664 6.8728251457
-18.3613071442 -45.0616226196 6.6789612770
-18.3572559357 -45.0535850525 6.4820308685
-18.3481922150 -45.0346260071 6.2814369202
-18.3329620361 -45.0022354126 6.0763187408
-18.3108558655 -44.9548568726 5.8661274910
-18.2823505402 -44.8935317993 5.6511802673
-18.2492961884 -44.8223037720 5.4328079224
-18.2142581940 -44.7467460632 5.2128696442
-18.1793804169 -44.6715431213 4.9929361343
-18.1460514069 -44.5997123718 4.7740321159
-18.1158256531 -44.5346450806 4.5573134422
-18.0912284851 -44.4818420410 4.3446640968
-18.0750808716 -44.4474525452 4.1382031441
-18.0690879822 -44.4351844788 3.9392347336
-18.0731639862 -44.4448623657 3.7477445602
-18.0857181549 -44.4730110168 3.5625891685
-18.1042671204 -44.5142211914 3.3819494247
-18.1261501312 -44.5626983643 3.2038571835
-18.1491508484 -44.6136054993 3.0266644955
-18.1718311310 -44.6638183594 2.8492932320
-18.1935901642 -44.7120208740 2.6712884903
-18.2143726349 -44.7580947876 2.4926040173
-18.2337932587 -44.8012084961 2.3129460812
-18.2503089905 -44.8379859924 2.1311345100
-18.2614555359 -44.8630638123 1.9452843666
-18.2650623322 -44.8717193604 1.7537183762
-18.2602977753 -44.8621292114 1.5557658672
-18.2478961945 -44.8358993530 1.3519507647
-18.2297172546 -44.7970809937 1.1436640024
-18.2079486847 -44.7504463196 0.9325585961
-18.1845836639 -44.7003326416 0.7201526761
-18.1615924835 -44.6510276794 0.5079556108
-18.1411094666 -44.6071968079 0.2976208329
-18.1250343323 -44.5729637146 0.0906258374
18.6886291504 -27.1078224182 90.6159133911
18.6946258545 -27.1134490967 90.4143295288
18.7098979950 -27.1319446564 90.2130203247
18.7356452942 -27.1649723053 90.0120315552
18.7711601257 -27.2115497589 89.8113784790
18.8136501312 -27.2678070068 89.6110153198
18.8593196869 -27.3284740448 89.4108200073
18.9045085907 -27.3884792328 89.2106933594
18.9461727142 -27.4435939789 89.0105285645
18.9820041656 -27.4906158447 88.8102264404
19.0109004974 -27.5280170441 88.6097259521
19.0334739685 -27.5566463470 88.4090423584
19.0511608124 -27.5784969330 88.2081985474
19.0637893677 -27.5933303833 88.0071792603
19.0681838989 -27.5967369080 87.8058395386
19.0601444244 -27.5828914642 87.6039733887
19.0381011963 -27.5496177673 87.4014816284
19.0044651031 -27.5002555847 87.1984252930
18.9635963440 -27.4408588409 86.9949645996
18.9194889069 -27.3769645691 86.7912597656
18.8763332367 -27.3143901825 86.5874938965
18.8415565491 -27.2634429932 86.3840332031
18.8267269135 -27.2401714325 86.1814575195
18.8424034119 -27.2592296600 85.9803695679
18.8905544281 -27.3233509064 85.7809524536
18.9632244110 -27.4214973450 85.5828933716
19.0494709015 -27.5384826660 85.3856964111
19.1423854828 -27.6647243500 85.1890182495
19.2393970490 -27.7966556549 84.9927520752
19.3384552002 -27.9314250946 84.7967758179
19.4357242584 -28.0637168884 84.6008987427
19.5261001587 -28.1864452362 84.4048004150
19.6049175262 -28.2931365967 84.2081909180
19.6697292328 -28.3803939819 84.0108871460
19.7210273743 -28.4488983154 83.8128814697
19.7609729767 -28.5016498566 83.6142578125
19.7911815643 -28.5408897400 83.4150924683
19.8117790222 -28.5667896271 83.2153625488
19.8221702576 -28.5785293579 83.0149917603
19.8220310211 -28.5756511688 82.8139266968
19.8117694855 -28.5587253571 82.6121749878
19.7929363251 -28.5299053192 82.4097976685
19.7686309814 -28.4934883118 82.2069931030
19.7431888580 -28.4554920197 82.0040512085
19.7212734222 -28.4223918915 81.8012924194
19.7075061798 -28.4005966187 81.5990676880
19.7069549561 -28.3971462250 81.3977661133
19.7252674103 -28.4198780060 81.1978683472
19.7672252655 -28.4754276276 80.9997711182
19.8342876434 -28.5658206940 80.8036804199
19.9228229523 -28.6860218048 80.6093673706
20.0243053436 -28.8241920471 80.4162521362
20.1280536652 -28.9655132294 80.2235107422
20.2254199982 -29.0979785919 80.0304489136
20.3121910095 -29.2157363892 79.8367156982
20.3874874115 -29.3175735474 79.6421966553
20.4516029358 -29.4038925171 79.4468841553
20.5053577423 -29.4758281708 79.2508087158
20.5503597260 -29.5356178284 79.0540847778
20.5885486603 -29.5859489441 78.8568496704
20.6209716797 -29.6282806396 78.6591720581
20.6469802856 -29.6617088318 78.4609832764
20.6647663116 -29.6837215424 78.2620925903
20.6729068756 -29.6923484802 78.0623474121
20.6713409424 -29.6874961853 77.8617172241
20.6607761383 -29.6701545715 77.6602401733
20.6412544250 -29.6403770447 77.4578781128
20.6112384796 -29.5960330963 77.2544708252
20.5687885284 -29.5344276428 77.0497970581
20.5154609680 -29.4577178955 76.8439712524
20.4602298737 -29.3783664703 76.6378326416
20.4181213379 -29.3172283173 76.4328689575
20.4025230408 -29.2928924561 76.2304611206
20.4182586670 -29.3120574951 76.0311813354
20.4621715546 -29.3703403473 75.8348007202
20.5286464691 -29.4599475861 75.6408233643
20.6130561829 -29.5744552612 75.4488372803
20.7115097046 -29.7084636688 75.2584915161
20.8197193146 -29.8560218811 75.0693740845
20.9321727753 -30.0094718933 74.8809280396
21.0414829254 -30.1585617065 74.6923522949
21.1392631531 -30.2916469574 74.5027313232
21.2191219330 -30.3998508453 74.3113174438
21.2791481018 -30.4805221558 74.1178436279
21.3212661743 -30.5363273621 73.9224700928
21.3487529755 -30.5718231201 73.7255172729
21.3646736145 -30.5912570953 73.5272750854
21.3715190887 -30.5980930328 73.3280105591
21.3710250854 -30.5947360992 73.1278915405
21.3639965057 -30.5823078156 72.9269866943
21.3509616852 -30.5615367889 72.7253494263
21.3336811066 -30.5348720551 72.5231552124
21.3164768219 -30.5083103180 72.3209304810
21.3059997559 -30.4910907745 72.1194763184
21.3091201782 -30.4927520752 71.9196548462
21.3302402496 -30.5194053650 71.7220611572
21.3701152802 -30.5721035004 71.5268325806
21.4267654419 -30.6480979919 71.3337783813
21.4966640472 -30.7424926758 71.1425170898
21.5748519897 -30.8483963013 70.9524459839
21.6553916931 -30.9575691223 70.7628250122
