40.9239883423 -34.9039192200 38.3017997742
40.9131889343 -34.8935356140 38.1090469360
40.9039649963 -34.8846054077 37.9166984558
40.8973007202 -34.8780288696 37.7250404358
40.8949623108 -34.8754348755 37.5345611572
40.8994903564 -34.8791656494 37.3459930420
40.9131431580 -34.8913002014 37.1599769592
40.9366798401 -34.9125366211 36.9767494202
40.9689788818 -34.9418411255 36.7960281372
41.0083084106 -34.9776229858 36.6173362732
41.0542144775 -35.0194587708 36.4405708313
41.1075286865 -35.0681190491 36.2659835815
41.1679306030 -35.1233100891 36.0934982300
41.2319259644 -35.1818008423 35.9221343994
41.2939796448 -35.2385101318 35.7503166199
41.3494300842 -35.2891387939 35.5766944885
41.3958244324 -35.3314285278 35.4005470276
41.4324340820 -35.3647041321 35.2216415405
41.4595947266 -35.3892784119 35.0400428772
41.4782905579 -35.4060592651 34.8560218811
41.4895973206 -35.4160308838 34.6698646545
41.4942512512 -35.4198837280 34.4817695618
41.4928054810 -35.4181098938 34.2918815613
41.4857482910 -35.4111785889 34.1003341675
41.4729804993 -35.3989830017 33.9070739746
41.4527320862 -35.3798942566 33.7115707397
41.4216194153 -35.3508033752 33.5127944946
41.3773994446 -35.3096427917 33.3100547791
41.3230400085 -35.2591438293 33.1041946411
41.2677993774 -35.2078285217 32.8979721069
41.2233390808 -35.1664428711 32.6948852539
41.1985549927 -35.1431808472 32.4976501465
41.1977767944 -35.1420288086 32.3076171875
41.2216491699 -35.1635742188 32.1250495911
41.2675247192 -35.2053871155 31.9492015839
41.3293952942 -35.2619285583 31.7783012390
41.3993759155 -35.3259391785 31.6099796295
41.4699020386 -35.3904533386 31.4419345856
41.5346450806 -35.4496383667 31.2722244263
41.5889167786 -35.4991874695 31.0993900299
41.6306762695 -35.5372047424 30.9227714539
41.6606330872 -35.5643577576 30.7425575256
41.6804580688 -35.5821762085 30.5592365265
41.6909523010 -35.5914039612 30.3730354309
41.6922607422 -35.5921745300 30.1839714050
41.6856002808 -35.5856018066 29.9924030304
41.6741409302 -35.5746078491 29.7993068695
41.6614990234 -35.5625267029 29.6058101654
41.6490631104 -35.5506362915 29.4123477936
41.6349563599 -35.5372085571 29.2183284760
41.6158218384 -35.5191459656 29.0226783752
41.5897331238 -35.4946784973 28.8247718811
41.5576515198 -35.4646949768 28.6248989105
41.5221481323 -35.4315567017 28.4238662720
41.4848899841 -35.3968048096 28.2222003937
41.4459915161 -35.3605384827 28.0199356079
41.4063987732 -35.3236389160 27.8173713684
41.3706626892 -35.2902870178 27.6159782410
41.3463211060 -35.2674293518 27.4182147980
41.3401947021 -35.2613449097 27.2263298035
41.3548736572 -35.2744293213 27.0412139893
41.3877449036 -35.3042640686 26.8620662689
41.4325981140 -35.3451385498 26.6868972778
41.4832305908 -35.3913307190 26.5136966705
41.5365409851 -35.4399909973 26.3414592743
41.5920448303 -35.4906730652 26.1700286865
41.6482925415 -35.5420379639 25.9989318848
41.7006874084 -35.5898590088 25.8266448975
41.7432136536 -35.6285896301 25.6511516571
41.7714729309 -35.6541786194 25.4709548950
41.7839241028 -35.6652107239 25.2855072021
41.7814865112 -35.6625251770 25.0950756073
41.7672157288 -35.6489448547 24.9006462097
41.7459526062 -35.6289215088 24.7038249969
41.7227706909 -35.6071319580 24.5063095093
41.7006034851 -35.5862731934 24.3090915680
41.6790046692 -35.5659446716 24.1120204926
41.6549491882 -35.5433502197 23.9140663147
41.6249084473 -35.5152435303 23.7140178680
41.5867080688 -35.4796218872 23.5111141205
41.5404739380 -35.4365959167 23.3053760529
41.4891128540 -35.3888511658 23.0977859497
41.4384040833 -35.3417053223 22.8903255463
41.3954238892 -35.3016815186 22.6854438782
41.3655891418 -35.2737617493 22.4850387573
41.3508567810 -35.2597541809 22.2898273468
41.3506469727 -35.2591209412 22.0996456146
41.3638191223 -35.2708129883 21.9141292572
41.3894958496 -35.2940254211 21.7330093384
41.4259757996 -35.3271865845 21.5557174683
41.4686317444 -35.3660392761 21.3806552887
41.5093917847 -35.4031410217 21.2049884796
41.5397071838 -35.4306259155 21.0256900787
41.5553588867 -35.4446029663 20.8412342072
41.5583953857 -35.4469604492 20.6523132324
41.5543136597 -35.4427604675 20.4608535767
41.5474052429 -35.4359588623 20.2683677673
41.5383300781 -35.4271583557 20.0750865936
41.5249748230 -35.4144210815 19.8802471161
41.5047645569 -35.3953666687 19.6829090118
41.4759025574 -35.3683395386 19.4824066162
41.4366607666 -35.3317565918 19.2780971527
41.3844299316 -35.2832107544 19.0690040588
41.3169136047 -35.2205810547 18.8542613983
41.2348899841 -35.1445922852 18.6341152191
41.1437835693 -35.0602302551 18.4105033875
41.0529441833 -34.9761199951 18.1868247986
40.9740486145 -34.9030075073 17.9673614502
40.9190292358 -34.8518905640 17.7565269470
40.8966255188 -34.8308143616 17.5576057434
40.9086189270 -34.8414192200 17.3713340759
40.9491767883 -34.8783378601 17.1956481934
41.0085792542 -34.9326133728 17.0270118713
41.0777397156 -34.9958763123 16.8620986938
41.1501426697 -35.0621299744 16.6985034943
41.2218627930 -35.1277503967 16.5347690582
41.2911453247 -35.1911315918 16.3702392578
41.3570175171 -35.2513618469 16.2045364380
41.4174690247 -35.3066101074 16.0369033813
41.4697570801 -35.3543319702 15.8662881851
41.5122871399 -35.3930702209 15.6920681000
41.5450325012 -35.4227943420 15.5142087936
41.5677337646 -35.4432640076 15.3325843811
41.5788383484 -35.4530525208 15.1465787888
41.5767402649 -35.4506797791 14.9555521011
41.5618057251 -35.4364852905 14.7596092224
41.5373153687 -35.4134864807 14.5599718094
41.5091476440 -35.3871002197 14.3588733673
41.4847831726 -35.3642158508 14.1591815948
41.4718322754 -35.3518486023 13.9638395309
41.4763679504 -35.3555831909 13.7752227783
41.5016784668 -35.3784599304 13.5946531296
41.5478553772 -35.4205551147 13.4222145081
41.6120300293 -35.4792327881 13.2568492889
41.6891059875 -35.5497932434 13.0966157913
41.7726249695 -35.6262855530 12.9390220642
41.8554916382 -35.7021827698 12.7813110352
41.9307746887 -35.7710876465 12.6207561493
41.9931831360 -35.8281364441 12.4552602768
42.0408630371 -35.8716201782 12.2840585709
42.0756683350 -35.9032440186 12.1078453064
42.1014976501 -35.9265975952 11.9281301498
42.1222114563 -35.9452400208 11.7464208603
42.1402244568 -35.9613952637 11.5636672974
42.1556434631 -35.9751586914 11.3799018860
42.1660308838 -35.9842872620 11.1941452026
42.1677284241 -35.9854125977 11.0049209595
42.1582946777 -35.9762840271 10.8112277985
42.1380386353 -35.9571876526 10.6131620407
42.1096649170 -35.9306068420 10.4117822647
42.0771903992 -35.9002532959 10.2086906433
42.0454216003 -35.8705520630 10.0058212280
42.0194702148 -35.8462066650 9.8052473068
42.0039749146 -35.8314933777 9.6088647842
42.0026245117 -35.8298072815 9.4182071686
42.0180702209 -35.8436012268 9.2343902588
42.0515823364 -35.8740310669 9.0579757690
42.1026344299 -35.9206199646 8.8887948990
42.1689605713 -35.9812812805 8.7259645462
42.2469062805 -36.0526466370 8.5680198669
42.3320846558 -36.1306762695 8.4131832123
42.4206352234 -36.2118110657 8.2598762512
42.5099601746 -36.2936592102 8.1070356369
42.5976066589 -36.3739624023 7.9536433220
42.6795921326 -36.4490509033 7.7980418205
42.7509231567 -36.5143241882 7.6381354332
42.8082809448 -36.5667228699 7.4725103378
42.8523101807 -36.6068496704 7.3014025688
42.8872795105 -36.6386260986 7.1265645027
42.9182472229 -36.6667175293 6.9500999451
42.9480209351 -36.6937065125 6.7731752396
42.9760284424 -36.7190704346 6.5955505371
42.9997596741 -36.7404937744 6.4161591530
43.0170288086 -36.7559661865 6.2340631485
43.0270233154 -36.7647361755 6.0489034653
43.0298042297 -36.7668571472 5.8606843948
43.0254402161 -36.7624015808 5.6694197655
43.0141410828 -36.7515563965 5.4751791954
42.9973526001 -36.7356529236 5.2785630226
42.9787483215 -36.7180747986 5.0811300278
42.9638366699 -36.7038993835 4.8852443695
42.9585800171 -36.6986198425 4.6934781075
42.9682083130 -36.7070503235 4.5081133842
42.9963951111 -36.7325820923 4.3307743073
43.0439987183 -36.7759971619 4.1618800163
43.1082305908 -36.8347320557 4.0002722740
43.1836090088 -36.9037399292 3.8436129093
43.2636795044 -36.9770660400 3.6891167164
43.3419456482 -37.0487327576 3.5339643955
43.4128417969 -37.1136093140 3.3757162094
43.4731445313 -37.1687316895 3.2129421234
43.5221366882 -37.2134284973 3.0452983379
43.5600662231 -37.2479324341 2.8728661537
43.5872230530 -37.2725181580 2.6957449913
43.6045417786 -37.2880325317 2.5143167973
43.6140785217 -37.2963867188 2.3294703960
43.6183013916 -37.2998352051 2.1422741413
43.6188125610 -37.2998733521 1.9534314871
43.6157531738 -37.2966156006 1.7629908323
43.6078643799 -37.2889099121 1.5703834295
43.5929603577 -37.2747459412 1.3746227026
43.5687408447 -37.2519912720 1.1746568680
43.5341949463 -37.2197303772 0.9700121880
43.4911766052 -37.1796607971 0.7614914179
43.4443092346 -37.1360435486 0.5511569381
43.3985176086 -37.0934181213 0.3412190378
43.3563499451 -37.0541305542 0.1328300983
48.4867362976 14.8062229156 93.5648422241
48.5229377747 14.8194026947 93.3741760254
48.5933876038 14.8435716629 93.1838378906
48.6866874695 14.8750705719 92.9937973022
48.7905616760 14.9099617004 92.8039703369
48.8958396912 14.9453020096 92.6142730713
48.9972572327 14.9794015884 92.4246597290
49.0914611816 15.0111875534 92.2350845337
49.1758956909 15.0398368835 92.0454940796
49.2495918274 15.0650424957 91.8558578491
49.3133316040 15.0870523453 91.6661682129
49.3674354553 15.1059703827 91.4764175415
49.4095153809 15.1210308075 91.2865371704
49.4352302551 15.1308412552 91.0964508057
49.4416160583 15.1344518661 90.9060745239
49.4300003052 15.1322870255 90.7154006958
49.4060630798 15.1261701584 90.5244827271
49.3772888184 15.1185026169 90.3334350586
49.3497772217 15.1112394333 90.1423721313
49.3267364502 15.1054115295 89.9513473511
49.3093223572 15.1013879776 89.7603988647
49.2986335754 15.0995225906 89.5695648193
49.2976417542 15.1007671356 89.3789062500
49.3119888306 15.1069316864 89.1885757446
49.3487281799 15.1202774048 88.9987640381
49.4125785828 15.1423187256 88.8096084595
49.5022354126 15.1726360321 88.6211395264
49.6104393005 15.2089004517 88.4332275391
49.7285003662 15.2483253479 88.2456893921
49.8509902954 15.2891693115 88.0584106445
49.9753723145 15.3306179047 87.8713226318
50.0971908569 15.3712444305 87.6843109131
50.2078018188 15.4082746506 87.4971313477
50.2988510132 15.4390316010 87.3095397949
50.3685455322 15.4629402161 87.1214370728
50.4222755432 15.4817276001 86.9329376221
50.4674720764 15.4977779388 86.7442474365
50.5083465576 15.5124435425 86.5554733276
50.5445289612 15.5256023407 86.3665924072
50.5734024048 15.5364198685 86.1775131226
50.5936470032 15.5444679260 85.9881896973
50.6072769165 15.5503959656 85.7986526489
50.6193733215 15.5558319092 85.6090774536
50.6360588074 15.5627393723 85.4196701050
50.6620140076 15.5726184845 85.2305984497
50.6991500854 15.5860824585 85.0419464111
50.7469520569 15.6029663086 84.8537216187
50.8034515381 15.6226377487 84.6658706665
50.8665580750 15.6444253922 84.4783248901
50.9371376038 15.6686105728 84.2911376953
51.0218391418 15.6973209381 84.1045837402
51.1295433044 15.7334060669 83.9190292358
51.2612190247 15.7771749496 83.7345657349
51.4034347534 15.8243207932 83.5506896973
51.5344810486 15.8678855896 83.3665161133
51.6377716064 15.9025506973 83.1813430786
51.7094573975 15.9270839691 82.9949340820
51.7559432983 15.9435377121 82.8075256348
51.7873077393 15.9551439285 82.6194992065
51.8129081726 15.9649028778 82.4312515259
51.8400993347 15.9751710892 82.2430953979
51.8736114502 15.9874658585 82.0552597046
51.9140472412 16.0019798279 81.8677749634
51.9571342468 16.0173416138 81.6804580688
51.9960632324 16.0313720703 81.4929885864
52.0258064270 16.0424575806 81.3051147461
52.0452423096 16.0502376556 81.1167678833
52.0558738708 16.0551967621 80.9279937744
52.0597114563 16.0579776764 80.7388916016
52.0585021973 16.0591430664 80.5495300293
52.0543365479 16.0593585968 80.3600006104
52.0506706238 16.0597362518 80.1704940796
52.0535087585 16.0621986389 79.9813079834
52.0723609924 16.0697917938 79.7929687500
52.1198616028 16.0865669250 79.6061935425
52.2086791992 16.1165809631 79.4217224121
52.3458290100 16.1620845795 79.2400207520
52.5272254944 16.2217636108 79.0609512329
52.7366828918 16.2904357910 78.8836822510
52.9511184692 16.3606987000 78.7069549561
53.1488876343 16.4256210327 78.5295257568
53.3165054321 16.4808788300 78.3505783081
53.4508666992 16.5254783630 78.1698760986
53.5563201904 16.5608139038 77.9876098633
53.6389160156 16.5888233185 77.8040924072
53.7030868530 16.6109294891 77.6195449829
53.7527732849 16.6283931732 77.4341888428
53.7930145264 16.6428318024 77.2482986450
53.8285217285 16.6557540894 77.0621490479
53.8607063293 16.6676082611 76.8758239746
53.8866004944 16.6774482727 76.6891326904
53.9009819031 16.6835994720 76.5017242432
53.9002227783 16.6849002838 76.3133316040
53.8854026794 16.6816959381 76.1240081787
53.8622207642 16.6758155823 75.9341049194
53.8371276855 16.6693210602 75.7440261841
53.8126678467 16.6630287170 75.5539550781
53.7872200012 16.6564216614 75.3637771606
53.7599105835 16.6492176056 75.1734313965
53.7345199585 16.6426296234 74.9831771851
53.7177314758 16.6387958527 74.7934875488
53.7152671814 16.6395530701 74.6047821045
53.7314300537 16.6462745667 74.4173965454
53.7715530396 16.6606731415 74.2317504883
53.8426513672 16.6849937439 74.0484008789
53.9494667053 16.7207527161 73.8677520752
54.0884666443 16.7668190002 73.6896209717
54.2460250854 16.8188304901 73.5130310059
54.4038047791 16.8709087372 73.3366546631
54.5471382141 16.9183597565 73.1593704224
54.6695671082 16.9591140747 72.9806594849
54.7714195251 16.9932765961 72.8005065918
54.8553276062 17.0216903687 72.6190719604
54.9225730896 17.0447692871 72.4364318848
54.9727592468 17.0623817444 72.2525177002
55.0058326721 17.0745143890 72.0672912598
55.0227508545 17.0814704895 71.8808059692
55.0238952637 17.0833778381 71.6930465698
55.0088005066 17.0800838470 71.5039672852
54.9793930054 17.0722064972 71.3136749268
54.9435348511 17.0622634888 71.1228027344
54.9136276245 17.0542278290 70.9323806763
54.9001045227 17.0514373779 70.7432861328
54.9050750732 17.0545692444 70.5557327271
54.9217109680 17.0614376068 70.3691787720
54.9399185181 17.0688095093 70.1827621460
54.9533767700 17.0746593475 69.9959564209
54.9621429443 17.0790081024 69.8087463379
54.9703407288 17.0831737518 69.6214904785
54.9833717346 17.0888862610 69.4346618652
55.0078964233 17.0982799530 69.2488708496
55.0534973145 17.1144199371 69.0649948120
55.1319999695 17.1410961151 68.8841400146
55.2519683838 17.1810474396 68.7071456909
55.4103927612 17.2333087921 68.5338287354
55.5888595581 17.2919845581 68.3625488281
55.7601280212 17.3483543396 68.1908187866
55.9015007019 17.3951511383 68.0164947510
56.0040893555 17.4295310974 67.8386917114
56.0716209412 17.4526863098 67.6576843262
56.1127014160 17.4673748016 67.4742279053
56.1343612671 17.4758434296 67.2889480591
56.1404571533 17.4793319702 67.1021804810
56.1335334778 17.4786510468 66.9141464233
56.1166572571 17.4747848511 66.7251129150
56.0930671692 17.4687690735 66.5353927612
56.0650558472 17.4613399506 66.3451995850
56.0347633362 17.4531784058 66.1547317505
56.0060462952 17.4455242157 65.9643783569
55.9830703735 17.4397068024 65.7745590210
55.9652519226 17.4355411530 65.5852203369
55.9451332092 17.4306392670 65.3956222534
55.9144973755 17.4223709106 65.2049026489
55.8730850220 17.4106540680 65.0130233765
55.8295822144 17.3982677460 64.8208618164
55.7942962646 17.3885135651 64.6295013428
55.7728958130 17.3832035065 64.4395523071
55.7667427063 17.3827724457 64.2511901855
55.7767295837 17.3875083923 64.0645370483
55.8057327271 17.3983287811 63.8799247742
55.8576583862 17.4164848328 63.6978187561
55.9338493347 17.4424057007 63.5184097290
56.0294189453 17.4745292664 63.3412094116
56.1329765320 17.5092067719 63.1649971008
56.2307243347 17.5420227051 62.9882659912
56.3124847412 17.5697231293 62.8098716736
56.3755874634 17.5914516449 62.6294860840
56.4241180420 17.6085186005 62.4475288391
56.4646797180 17.6230335236 62.2647247314
56.5020065308 17.6365127563 62.0815963745
56.5367584229 17.6491699219 61.8982086182
56.5657691956 17.6599884033 61.7141990662
56.5837249756 17.6672687531 61.5289382935
56.5850524902 17.6692295074 61.3417587280
56.5654716492 17.6644992828 61.1521263123
56.5237236023 17.6526794434 60.9598541260
56.4627609253 17.6347103119 60.7652511597
56.3881072998 17.6123638153 60.5689353943
56.3047485352 17.5872306824 60.3714752197
56.2170982361 17.5607261658 60.1733894348
56.1317100525 17.5349464417 59.9754562378
56.0572738647 17.5126724243 59.7787361145
56.0005950928 17.4960784912 59.5840759277
55.9637680054 17.4858360291 59.3917732239
55.9457702637 17.4816188812 59.2017364502
55.9460639954 17.4832515717 59.0139312744
55.9663619995 17.4912853241 58.8286132813
56.0092468262 17.5065441132 58.6461334229
56.0749359131 17.5290966034 58.4665718079
56.1597290039 17.5577583313 58.2894973755
56.2582931519 17.5908260345 58.1142730713
56.3670578003 17.6271553040 57.9404640198
56.4839782715 17.6660900116 57.7678337097
56.6047286987 17.7062511444 57.5958328247
56.7194976807 17.7444972992 57.4232063293
56.8141479492 17.7763080597 57.2480926514
56.8758392334 17.7975749969 57.0687789917
56.8993682861 17.8066349030 56.8845176697
56.8897056580 17.8050823212 56.6958961487
56.8590087891 17.7967987061 56.5044593811
56.8197288513 17.7857742310 56.3118324280
56.7779884338 17.7739601135 56.1188163757
56.7315940857 17.7606601715 55.9251136780
56.6741104126 17.7438144684 55.7298431396
56.6013832092 17.7220935822 55.5324211121
56.5151596069 17.6960563660 55.3330535889
56.4218940735 17.6677703857 55.1326026917
56.3299331665 17.6399021149 54.9322090149
56.2480697632 17.6152629852 54.7330818176
56.1839675903 17.5963058472 54.5363197327
56.1413269043 17.5842094421 54.3424606323
56.1185493469 17.5784683228 54.1513290405
56.1110382080 17.5776062012 53.9623107910
56.1145019531 17.5802536011 53.7748260498
56.1264877319 17.5856285095 53.5885505676
56.1463127136 17.5935077667 53.4034042358
56.1748390198 17.6041698456 53.2195205688
56.2144279480 17.6183681488 53.0372581482
56.2681884766 17.6370983124 52.8570899963
56.3376617432 17.6608505249 52.6792678833
56.4196128845 17.6885910034 52.5033416748
56.5040969849 17.7171421051 52.3278884888
56.5758934021 17.7416362762 52.1506614685
56.6194152832 17.7570896149 51.9693336487
56.6246147156 17.7602901459 51.7823600769
56.5906867981 17.7509822845 51.5895500183
56.5261840820 17.7319011688 51.3921089172
56.4453582764 17.7076034546 51.1921195984
56.3621368408 17.6825389862 50.9916572571
56.2854614258 17.6595687866 50.7920722961
56.2185287476 17.6397151947 50.5938720703
56.1603279114 17.6226520538 50.3969078064
56.1070785522 17.6071720123 50.2006263733
56.0538825989 17.5917110443 50.0042762756
55.9979438782 17.5753726959 49.8074226379
55.9429168701 17.5593280792 49.6106338501
55.9004058838 17.5472831726 49.4157218933
55.8843154907 17.5436840057 49.2248878479
55.9008522034 17.5505142212 49.0391616821
55.9437904358 17.5657806396 48.8576202393
56.0004768372 17.5854415894 48.6783065796
56.0624465942 17.6067905426 48.4999008179
56.1300811768 17.6299514771 48.3224678040
56.2082176208 17.6564674377 48.1467971802
56.2981185913 17.6867408752 47.9731140137
56.3928604126 17.7185592651 47.8003234863
56.4792289734 17.7477054596 47.6262817383
56.5444450378 17.7700862885 47.4488906860
56.5821113586 17.7836666107 47.2670593262
56.5926742554 17.7885818481 47.0808181763
56.5791854858 17.7858123779 46.8906097412
56.5440673828 17.7761306763 46.6967926025
56.4895973206 17.7602672577 46.4997024536
56.4196853638 17.7394695282 46.2999610901
56.3391723633 17.7152824402 46.0983428955
56.2502136230 17.6884002686 45.8951988220
56.1501388550 17.6579666138 45.6900520325
56.0349807739 17.6227149963 45.4822158813
55.9067840576 17.5832977295 45.2720069885
55.7772216797 17.5434474945 45.0613937378
55.6642150879 17.5088863373 44.8534469604
55.5853805542 17.4852447510 44.6512222290
55.5525436401 17.4763011932 44.4568290710
55.5680274963 17.4827957153 44.2707595825
55.6235694885 17.5020866394 44.0916671753
55.7034416199 17.5291519165 43.9168815613
55.7909164429 17.5586452484 43.7435226440
55.8744735718 17.5868854523 43.5695724487
55.9501838684 17.6126194000 43.3943405151
56.0190124512 17.6361522675 43.2179756165
56.0814933777 17.6576576233 43.0405616760
56.1348953247 17.6762619019 42.8615989685
56.1750488281 17.6906337738 42.6803245544
56.1997718811 17.7000770569 42.4963226318
56.2098731995 17.7048473358 42.3097076416
56.2073593140 17.7055892944 42.1208114624
56.1933517456 17.7026596069 41.9298210144
56.1670455933 17.6958026886 41.7365646362
56.1257896423 17.6841697693 41.5405349731
56.0666084290 17.6668128967 41.3411521912
55.9888763428 17.6435298920 41.1382751465
55.8959007263 17.6153812408 40.9324760437
55.7937812805 17.5843105316 40.7248535156
55.6891403198 17.5524368286 40.5166244507
55.5882492065 17.5217628479 40.3089561462
55.4973258972 17.4942722321 40.1030158997
55.4231033325 17.4721164703 39.9000892639
55.3736839294 17.4578838348 39.7017326355
55.3581123352 17.4544601440 39.5097084045
55.3828735352 17.4639186859 39.3253097534
55.4468154907 17.4858875275 39.1483917236
55.5382995605 17.5166530609 38.9768066406
55.6375770569 17.5499057770 38.8068237305
55.7240905762 17.5790824890 38.6345062256
55.7848205566 17.6000232697 38.4573135376
55.8182449341 17.6122455597 38.2749061584
55.8316040039 17.6180591583 38.0886306763
55.8339843750 17.6203670502 37.9002304077
55.8309097290 17.6209335327 37.7107543945
55.8235588074 17.6201362610 37.5204315186
55.8108024597 17.6176109314 37.3290214539
55.7907218933 17.6127471924 37.1361465454
55.7605133057 17.6046504974 36.9412307739
55.7159004211 17.5919570923 36.7434043884
55.6519088745 17.5730743408 36.5416526794
55.5655899048 17.5470657349 36.3353462219
55.4593276978 17.5146884918 36.1249237061
55.3418235779 17.4787254333 35.9120941162
55.2256126404 17.4431743622 35.6993675232
55.1233520508 17.4120807648 35.4893112183
55.0459976196 17.3889389038 35.2841720581
55.0022621155 17.3765296936 35.0857772827
54.9962692261 17.3761692047 34.8950271606
55.0247230530 17.3868083954 34.7113265991
55.0788917542 17.4056529999 34.5329437256
55.1506805420 17.4301223755 34.3582496643
55.2353973389 17.4587192535 34.1863174438
55.3287620544 17.4900741577 34.0162811279
55.4237022400 17.5219326019 33.8466796875
55.5115776062 17.5515346527 33.6757125854
55.5857467651 17.5767612457 33.5019836426
55.6431083679 17.5966205597 33.3248062134
55.6824645996 17.6107330322 33.1438980103
55.7023887634 17.6186447144 32.9589233398
55.7010383606 17.6197643280 32.7694587708
55.6771392822 17.6136875153 32.5751876831
55.6298980713 17.6001605988 32.3759002686
55.5578536987 17.5787181854 32.1712379456
55.4587287903 17.5486335754 31.9606666565
55.3317985535 17.5096778870 31.7439765930
55.1814002991 17.4632320404 31.5220508575
55.0185775757 17.4128227234 31.2972373962
54.8591995239 17.3635139465 31.0729541779
54.7193908691 17.3204536438 30.8527240753
54.6113014221 17.2875156403 30.6392288208
54.5411872864 17.2667007446 30.4339065552
54.5095748901 17.2581691742 30.2369422913
54.5117950439 17.2604351044 30.0473804474
54.5380058289 17.2703571320 29.8631134033
54.5739936829 17.2833995819 29.6810379028
54.6055183411 17.2950153351 29.4980049133
54.6252136230 17.3028583527 29.3123703003
54.6358070374 17.3077964783 29.1247177124
54.6464157104 17.3127384186 28.9370727539
54.6660728455 17.3205680847 28.7514667511
54.6992378235 17.3327083588 28.5689220428
54.7429656982 17.3482189178 28.3887977600
54.7858047485 17.3634433746 28.2085189819
54.8116226196 17.3732376099 28.0244159698
54.8080329895 17.3736495972 27.8336372375
54.7725715637 17.3638935089 27.6355609894
54.7112045288 17.3458728790 27.4314918518
54.6309814453 17.3218364716 27.2230052948
54.5344047546 17.2925853729 27.0106372833
54.4215507507 17.2581405640 26.7943763733
54.2974624634 17.2201156616 26.5753612518
54.1760406494 17.1829414368 26.3567981720
54.0759048462 17.1525592804 26.1430320740
54.0121994019 17.1337985992 25.9376411438
53.9902420044 17.1283569336 25.7419395447
54.0046005249 17.1345005035 25.5547332764
54.0442085266 17.1486968994 25.3734836578
54.0993080139 17.1678333282 25.1959362030
54.1637954712 17.1899662018 25.0206718445
54.2332000732 17.2136650085 24.8466491699
54.3036842346 17.2377090454 24.6729640961
54.3733062744 17.2614746094 24.4991531372
54.4415664673 17.2848072052 24.3250961304
54.5072059631 17.3073024750 24.1504878998
54.5682373047 17.3283290863 23.9748477936
54.6240653992 17.3476943970 23.7980213165
54.6750221252 17.3655071259 23.6200771332
54.7191734314 17.3811454773 23.4405403137
54.7511825562 17.3929157257 23.2580966949
54.7646141052 17.3987560272 23.0711574554
54.7538146973 17.3968734741 22.8783016205
54.7138214111 17.3856773376 22.6782665253
54.6405944824 17.3638858795 22.4700069427
54.5333709717 17.3312530518 22.2532691956
54.3975791931 17.2895107269 22.0293273926
54.2458000183 17.2426738739 21.8012466431
54.0946350098 17.1960334778 21.5731163025
53.9582824707 17.1541175842 21.3484687805
53.8440742493 17.1192646027 21.1291675568
53.7539520264 17.0920925140 20.9157390594
53.6885147095 17.0727920532 20.7083778381
53.6480293274 17.0614490509 20.5072002411
53.6306762695 17.0574817657 20.3117923737
53.6320800781 17.0594959259 20.1210975647
53.6476898193 17.0660381317 19.9339942932
53.6750869751 17.0763416290 19.7498970032
53.7134513855 17.0901374817 19.5686187744
53.7603645325 17.1066608429 19.3895626068
53.8096237183 17.1239318848 19.2111587524
53.8530807495 17.1393508911 19.0313205719
53.8848571777 17.1510486603 18.8485240936
53.9033508301 17.1585083008 18.6623344421
53.9094696045 17.1620254517 18.4729614258
53.9036483765 17.1617336273 18.2804927826
53.8840637207 17.1570568085 18.0844326019
53.8466110229 17.1466827393 17.8836860657
53.7866516113 17.1291370392 17.6770076752
53.7021331787 17.1037616730 17.4638175964
53.5960044861 17.0714969635 17.2448406219
53.4760169983 17.0348186493 17.0220756531
53.3530235291 16.9971828461 16.7983589172
53.2399177551 16.9626979828 16.5770854950
53.1502113342 16.9356746674 16.3618583679
53.0943756104 16.9194488525 16.1555023193
53.0755996704 16.9150352478 15.9589300156
53.0886459351 16.9207630157 15.7708139420
53.1224861145 16.9331188202 15.5882663727
53.1650199890 16.9482460022 15.4080858231
53.2078514099 16.9634685516 15.2280302048
53.2484741211 16.9779853821 15.0474252701
53.2880630493 16.9921703339 14.8665838242
53.3270111084 17.0061531067 14.6856117249
53.3627891541 17.0191249847 14.5038204193
53.3917503357 17.0299243927 14.3202123642
53.4118232727 17.0378913879 14.1342105865
53.4227027893 17.0429286957 13.9457139969
53.4237899780 17.0448436737 13.7545404434
53.4123497009 17.0427684784 13.5599231720
53.3835525513 17.0351619720 13.3605070114
53.3328018188 17.0205612183 13.1549921036
53.2594757080 16.9987640381 12.9431629181
53.1695137024 16.9716701508 12.7266235352
53.0746116638 16.9430027008 12.5085906982
52.9887428284 16.9172134399 12.2929401398
52.9243965149 16.8982830048 12.0831747055
52.8895225525 16.8887462616 11.8815574646
52.8855514526 16.8890533447 11.6885471344
52.9080467224 16.8977928162 11.5029544830
52.9502525330 16.9128131866 11.3229312897
53.0065078735 16.9323101044 11.1469173431
53.0724411011 16.9548873901 10.9737024307
53.1428222656 16.9788837433 10.8018245697
53.2103233337 17.0019607544 10.6292095184
53.2668533325 17.0215415955 10.4535484314
53.3065109253 17.0357475281 10.2731370926
53.3276138306 17.0440425873 10.0874624252
53.3323135376 17.0471096039 9.8971033096
53.3245925903 17.0462226868 9.7031745911
53.3090972900 17.0428581238 9.5069894791
53.2918930054 17.0389480591 9.3102827072
53.2815780640 17.0372352600 9.1155376434
53.2883453369 17.0409641266 8.9257202148
53.3206443787 17.0528240204 8.7433176041
53.3822135925 17.0740070343 8.5694694519
53.4717483521 17.1040973663 8.4038486481
53.5847549438 17.1416625977 8.2451944351
53.7155036926 17.1848793030 8.0918760300
53.8578300476 17.2317810059 7.9421148300
54.0049552917 17.2802104950 7.7939395905
54.1497726440 17.3279037476 7.6452641487
54.2863960266 17.3729839325 7.4943423271
54.4119758606 17.4145469666 7.3403162956
54.5265045166 17.4525890350 7.1831617355
54.6304588318 17.4872627258 7.0229988098
54.7229080200 17.5182704926 6.8595309258
54.8018836975 17.5449867249 6.6921467781
54.8659934998 17.5669689178 6.5204043388
54.9159164429 17.5844306946 6.3444795609
54.9549331665 17.5984210968 6.1653308868
54.9873275757 17.6103019714 5.9842276573
55.0144577026 17.6205062866 5.8015670776
55.0317420959 17.6275730133 5.6159534454
55.0306892395 17.6288032532 5.4247941971
55.0051155090 17.6222248077 5.2261714935
54.9550971985 17.6078624725 5.0200648308
54.8851699829 17.5871620178 4.8078098297
54.8008880615 17.5618915558 4.5910673141
54.7089385986 17.5341815948 4.3718590736
54.6192703247 17.5071983337 4.1532235146
54.5445976257 17.4849891663 3.9390792847
54.4967651367 17.4713268280 3.7331073284
54.4832420349 17.4685897827 3.5376667976
54.5056610107 17.4772949219 3.3533294201
54.5595932007 17.4960346222 3.1787903309
54.6350708008 17.5216312408 3.0110094547
54.7192840576 17.5500087738 2.8460392952
54.8019371033 17.5778884888 2.6806807518
54.8793106079 17.6040878296 2.5137674809
54.9527244568 17.6290245056 2.3457033634
55.0231933594 17.6530227661 2.1768000126
55.0884361267 17.6753578186 2.0063331127
55.1440849304 17.6946392059 1.8329155445
55.1857910156 17.7094802856 1.6551533937
55.2100639343 17.7187709808 1.4719147682
55.2146759033 17.7218036652 1.2824604511
55.1990737915 17.7184028625 1.0865758657
55.1644783020 17.7089576721 0.8846118450
55.1138801575 17.6944160461 0.6774852276
55.0519676208 17.6762771606 0.4666654170
54.9848556519 17.6564826965 0.2540921569
54.9195671082 17.6372680664 0.0420088433
19.1381797791 -25.9321823120 90.7315597534
19.1483669281 -25.9472560883 90.5311050415
19.1648521423 -25.9720363617 90.3309783936
19.1861991882 -26.0043106079 90.1311416626
19.2110767365 -26.0420284271 89.9315338135
19.2385501862 -26.0837478638 89.7321090698
19.2679119110 -26.1283760071 89.5328445435
19.2983226776 -26.1746234894 89.3337020874
19.3284187317 -26.2203826904 89.1345977783
19.3559570313 -26.2622032166 88.9354095459
19.3780403137 -26.2956142426 88.7359390259
19.3919086456 -26.3163623810 88.5360107422
19.3955764771 -26.3213863373 88.3354644775
19.3878822327 -26.3089027405 88.1341934204
19.3686027527 -26.2785568237 87.9321517944
19.3391838074 -26.2325859070 87.7293853760
19.3034667969 -26.1769046783 87.5261230469
19.2671527863 -26.1203041077 87.3227310181
19.2358417511 -26.0714130402 87.1195907593
19.2131328583 -26.0357818604 86.9169692993
19.2005348206 -26.0157356262 86.7150192261
19.1991710663 -26.0130062103 86.5138473511
19.2117176056 -26.0317173004 86.3136978149
19.2431526184 -26.0795440674 86.1149749756
19.2996997833 -26.1660785675 85.9182357788
19.3857994080 -26.2981624603 85.7238998413
19.4998893738 -26.4733943939 85.5319442749
19.6318016052 -26.6760978699 85.3416595459
19.7651195526 -26.8809680939 85.1517868042
19.8840274811 -27.0636310577 84.9610290527
19.9793605804 -27.2099533081 84.7685775757
20.0496520996 -27.3176765442 84.5742187500
20.0985984802 -27.3924980164 84.3781967163
20.1319961548 -27.4433517456 84.1809387207
20.1549396515 -27.4780960083 83.9828262329
20.1696453094 -27.5001373291 83.7840194702
20.1752624512 -27.5081710815 83.5844268799
20.1701889038 -27.4997253418 83.3838653564
20.1550140381 -27.4757099152 83.1823577881
20.1335220337 -27.4419555664 82.9802093506
20.1107902527 -27.4062900543 82.7778854370
20.0902690887 -27.3740310669 82.5757141113
20.0726737976 -27.3462848663 82.3737716675
20.0573291779 -27.3220062256 82.1719970703
20.0441112518 -27.3010044098 81.9703903198
20.0343151093 -27.2852783203 81.7690887451
20.0303936005 -27.2786083221 81.5683517456
20.0354804993 -27.2858219147 81.3685150146
20.0532283783 -27.3125553131 81.1699981689
20.0878143311 -27.3652458191 80.9732818604
20.1430244446 -27.4497241974 80.7788085938
20.2196941376 -27.5672855377 80.5867614746
20.3130397797 -27.7105541229 80.3966827393
20.4130458832 -27.8640861511 80.2075347900
20.5085678101 -28.0107078552 80.0181121826
20.5915794373 -28.1380500793 79.8274993896
20.6583957672 -28.2404212952 79.6352462769
20.7086181641 -28.3172187805 79.4412460327
20.7440624237 -28.3712310791 79.2456512451
20.7680015564 -28.4075126648 79.0487899780
20.7840881348 -28.4316864014 78.8510513306
20.7950191498 -28.4479141235 78.6527328491
20.8019504547 -28.4579753876 78.4539489746
20.8049659729 -28.4619998932 78.2546997070
20.8038272858 -28.4596214294 78.0549468994
20.7981052399 -28.4501743317 77.8546142578
20.7864093781 -28.4315223694 77.6535110474
20.7656936646 -28.3989639282 77.4512481689
20.7324829102 -28.3471450806 77.2473526001
20.6868171692 -28.2761249542 77.0417709351
20.6358127594 -28.1968746185 76.8353958130
20.5920581818 -28.1287994385 76.6298370361
20.5668830872 -28.0893669128 76.4266052246
20.5647468567 -28.0854473114 76.2263488770
20.5836124420 -28.1139068604 76.0288848877
20.6194534302 -28.1685333252 75.8337402344
20.6694602966 -28.2450008392 75.6405868530
20.7315349579 -28.3400669098 75.4491958618
20.8022403717 -28.4484443665 75.2591247559
20.8765430450 -28.5623645782 75.0697097778
20.9496707916 -28.6744728088 74.8802947998
21.0188388824 -28.7804813385 74.6904754639
21.0829620361 -28.8787078857 74.5000839233
21.1411457062 -28.9677829742 74.3089752197
21.1918983459 -29.0454025269 74.1169204712
21.2335414886 -29.1089763641 73.9236450195
21.2651538849 -29.1570873260 73.7289733887
21.2872447968 -29.1905212402 73.5329589844
21.3016719818 -29.2121410370 73.3358383179
21.3108425140 -29.2256546021 73.1379470825
21.3168773651 -29.2343349457 72.9395904541
21.3213157654 -29.2405567169 72.7410049438
21.3252487183 -29.2459983826 72.5423355103
21.3295288086 -29.2519741058 72.3437194824
21.3348484039 -29.2595520020 72.1452713013
21.3417320251 -29.2695407867 71.9470672607
21.3506336212 -29.2826423645 71.7491989136
21.3623218536 -29.3000392914 71.5517807007
21.3782711029 -29.3240051270 71.3550643921
21.4005413055 -29.3577175140 71.1594085693
21.4308090210 -29.4037570953 70.9650955200
21.4691314697 -29.4622154236 70.7721633911
21.5134983063 -29.5299930573 70.5803146362
21.5604877472 -29.6018142700 70.3889999390
21.6065330505 -29.6721782684 70.1976165771
21.6489562988 -29.7369594574 70.0057220459
21.6861076355 -29.7936134338 69.8130264282
21.7166557312 -29.8400897980 69.6192703247
21.7391147614 -29.8740921021 69.4241790771
21.7521495819 -29.8935661316 69.2274932861
21.7550983429 -29.8974914551 69.0290679932
21.7483196259 -29.8864192963 68.8289337158
21.7336711884 -29.8632144928 68.6273803711
21.7149314880 -29.8337020874 68.4250564575
21.6974487305 -29.8061256409 68.2229080200
21.6870517731 -29.7894763947 68.0219879150
21.6893177032 -29.7923488617 67.8233337402
21.7095012665 -29.8228454590 67.6279449463
21.7520065308 -29.8877544403 67.4367065430
21.8184318542 -29.9895420074 67.2499771118
21.9053897858 -30.1229896545 67.0672149658
22.0047569275 -30.2755641937 66.8869705200
22.1067981720 -30.4322662354 66.7074508667
22.2035369873 -30.5807952881 66.5271453857
22.2900600433 -30.7135715485 66.3451156616
22.3643321991 -30.8274612427 66.1609115601
22.4267311096 -30.9230480194 65.9745864868
22.4791164398 -31.0031929016 65.7864456177
22.5232353210 -31.0705947876 65.5968017578
22.5595626831 -31.1259860992 65.4057235718
22.5876121521 -31.1686115265 65.2130813599
22.6071643829 -31.1981372833 65.0187988281
22.6190910339 -31.2159080505 64.8230361938
22.6253185272 -31.2248916626 64.6261444092
22.6285209656 -31.2292098999 64.4286422729
22.6320514679 -31.2340335846 64.2312088013
22.6400127411 -31.2456874847 64.0346832275
22.6570434570 -31.2713279724 63.8400268555
22.6876182556 -31.3178482056 63.6482048035
22.7351188660 -31.3904685974 63.4599685669
22.8011474609 -31.4916534424 63.2757034302
22.8849487305 -31.6202411652 63.0953216553
22.9829540253 -31.7707290649 62.9181251526
23.0890750885 -31.9337329865 62.7428741455
23.1962432861 -32.0983505249 62.5680770874
23.2985420227 -32.2554588318 62.3924751282
23.3925533295 -32.3997917175 62.2153091431
23.4772033691 -32.5296936035 62.0363159180
23.5525321960 -32.6452217102 61.8554725647
23.6186313629 -32.7465209961 61.6727676392
23.6756076813 -32.8337554932 61.4881935120
23.7241230011 -32.9079437256 61.3018684387
23.7654781342 -32.9710922241 61.1140441895
23.8009185791 -33.0251197815 60.9249839783
23.8310737610 -33.0709991455 60.7348060608
23.8564243317 -33.1094703674 60.5435981750
23.8783206940 -33.1426200867 60.3516578674
23.8992862701 -33.1743278503 60.1595420837
23.9223747253 -33.2093124390 59.9679565430
23.9509906769 -33.2528228760 59.7776908875
23.9899044037 -33.3122062683 59.5898742676
24.0459194183 -33.3979606628 59.4061279297
24.1256332397 -33.5202598572 59.2280578613
24.2307472229 -33.6817207336 59.0561485291
24.3551921844 -33.8729858398 58.8890457153
24.4875087738 -34.0763893127 58.7240943909
24.6163558960 -34.2744522095 58.5586128235
24.7342586517 -34.4556350708 58.3907852173
24.8379478455 -34.6149024963 58.2197952271
24.9271411896 -34.7518196106 58.0455131531
25.0029335022 -34.8680686951 57.8681678772
25.0661487579 -34.9649353027 57.6879043579
25.1168670654 -35.0425262451 57.5047073364
25.1554374695 -35.1013870239 57.3186149597
25.1834049225 -35.1439018250 57.1299705505
25.2031021118 -35.1736602783 56.9393196106
25.2167110443 -35.1940345764 56.7471809387
25.2260055542 -35.2077560425 56.5539779663
25.2328910828 -35.2177619934 56.3601799011
25.2402267456 -35.2284622192 56.1665000916
25.2525787354 -35.2469024658 55.9741096497
25.2767124176 -35.2835006714 55.7847595215
25.3209400177 -35.3510894775 55.6006317139
25.3923110962 -35.4605293274 55.4236145020
25.4922294617 -35.6139907837 55.2541694641
25.6138648987 -35.8009414673 55.0906143188
25.7442760468 -36.0014190674 54.9296264648
25.8700923920 -36.1948204041 54.7677230835
25.9825439453 -36.3676071167 54.6025695801
26.0788421631 -36.5154914856 54.4333763123
26.1604003906 -36.6406478882 54.2604637146
26.2299423218 -36.7472724915 54.0845108032
26.2894802094 -36.8384704590 53.9060211182
26.3404464722 -36.9164543152 53.7253417969
26.3852653503 -36.9849586487 53.5431060791
26.4276618958 -37.0497283936 53.3603019714
26.4704074860 -37.1150360107 53.1776847839
26.5126495361 -37.1795654297 52.9950180054
26.5496864319 -37.2360725403 52.8110046387
26.5755386353 -37.2753295898 52.6239700317
26.5866889954 -37.2919197083 52.4328956604
26.5854129791 -37.2893447876 52.2383651733
26.5807914734 -37.2816123962 52.0428886414
26.5859165192 -37.2889060974 51.8501358032
26.6130561829 -37.3301506042 51.6636085510
26.6707630157 -37.4185295105 51.4858207703
26.7637538910 -37.5613212585 51.3182144165
26.8922672272 -37.7588882446 51.1609840393
27.0496902466 -38.0010414124 51.0123519897
27.2218627930 -38.2659339905 50.8683319092
27.3909130096 -38.5260162354 50.7237930298
27.5416812897 -38.7579078674 50.5743179321
27.6657543182 -38.9486389160 50.4173851013
27.7609863281 -39.0948867798 50.2522735596
27.8291378021 -39.1993827820 50.0794029236
27.8745021820 -39.2687377930 49.8999481201
27.9031143188 -39.3122520447 49.7156181335
27.9212703705 -39.3396492004 49.5282325745
27.9338531494 -39.3584518433 49.3392143250
27.9436035156 -39.3728866577 49.1493644714
27.9515781403 -39.3845825195 48.9589958191
27.9580726624 -39.3939971924 48.7681884766
27.9633579254 -39.4015426636 48.5770225525
27.9679298401 -39.4079895020 48.3856391907
27.9724006653 -39.4142837524 48.1942291260
27.9774513245 -39.4214706421 48.0029983521
27.9842224121 -39.4313087463 47.8123016357
27.9951019287 -39.4474868774 47.6228828430
28.0141334534 -39.4762344360 47.4360084534
28.0462837219 -39.5252113342 47.2532615662
28.0955848694 -39.6006393433 47.0759429932
28.1633434296 -39.7045288086 46.9045257568
28.2476997375 -39.8340187073 46.7384872437
28.3446063995 -39.9828605652 46.5766029358
28.4489784241 -40.1432189941 46.4173049927
28.5551853180 -40.3064041138 46.2588195801
28.6572990417 -40.4632797241 46.0992660522
28.7499351501 -40.6055412292 45.9368972778
28.8295040131 -40.7276496887 45.7705268860
28.8948173523 -40.8277740479 45.5997238159
28.9465847015 -40.9070091248 45.4246673584
28.9863204956 -40.9676895142 45.2458076477
29.0156555176 -41.0123291016 45.0636329651
29.0363121033 -41.0435905457 44.8786735535
29.0501956940 -41.0643997192 44.6915245056
29.0591678619 -41.0776405334 44.5027770996
29.0647945404 -41.0857200623 44.3129348755
29.0683917999 -41.0906677246 44.1224212646
29.0712947845 -41.0945434570 43.9316787720
29.0750389099 -41.0997200012 43.7412109375
29.0811119080 -41.1084861755 43.5515289307
29.0903167725 -41.1220817566 43.3629074097
29.1024131775 -41.1401405334 43.1752777100
29.1168594360 -41.1618194580 42.9884605408
29.1343097687 -41.1881332397 42.8026962280
29.1576652527 -41.2235565186 42.6189804077
29.1918830872 -41.2757301331 42.4390296936
29.2422828674 -41.3528594971 42.2647209167
29.3115463257 -41.4590797424 42.0970268250
29.3969860077 -41.5902519226 41.9350891113
29.4907665253 -41.7342872620 41.7762374878
29.5835723877 -41.8768157959 41.6172523499
29.6687431335 -42.0075759888 41.4558029175
29.7437286377 -42.1226272583 41.2909698486
29.8084640503 -42.2218666077 41.1226921082
29.8628902435 -42.3052139282 40.9509124756
29.9062500000 -42.3714866638 40.7753295898
29.9383373260 -42.4203796387 40.5958290100
29.9604625702 -42.4539070129 40.4128456116
29.9748287201 -42.4754638672 40.2271232605
29.9833850861 -42.4880676270 40.0393409729
29.9873695374 -42.4936141968 39.8499259949
29.9873313904 -42.4929618835 39.6590576172
29.9832019806 -42.4859962463 39.4666938782
29.9744892120 -42.4719619751 39.2726478577
29.9607067108 -42.4501113892 39.0767250061
29.9418449402 -42.4204216003 38.8789024353
29.9189147949 -42.3844604492 38.6795349121
29.8946361542 -42.3464202881 38.4796066284
29.8737449646 -42.3136024475 38.2808685303
29.8621044159 -42.2950515747 38.0854988098
29.8647441864 -42.2985267639 37.8954048157
29.8837566376 -42.3272514343 37.7114105225
29.9177265167 -42.3790473938 37.5330467224
29.9638481140 -42.4495849609 37.3593139648
30.0207080841 -42.5366859436 37.1897163391
30.0877399445 -42.6394767761 37.0240859985
30.1617507935 -42.7530288696 36.8612442017
30.2358932495 -42.8667907715 36.6986160278
30.3036193848 -42.9706497192 36.5337028503
30.3627376556 -43.0612373352 36.3656539917
30.4145240784 -43.1405143738 36.1949195862
30.4597320557 -43.2096443176 36.0217666626
30.4970130920 -43.2665519714 35.8456535339
30.5248107910 -43.3088302612 35.6659545898
30.5432491302 -43.3366737366 35.4826774597
30.5538501740 -43.3524322510 35.2963829041
30.5582847595 -43.3586769104 35.1077003479
30.5576343536 -43.3570785522 34.9170303345
30.5521602631 -43.3480415344 34.7244567871
30.5412387848 -43.3306007385 34.5297164917
30.5238990784 -43.3032608032 34.3324089050
30.5002288818 -43.2661552429 34.1325454712
30.4723472595 -43.2225570679 33.9309463501
30.4434852600 -43.1774444580 33.7288818359
30.4162826538 -43.1348915100 33.5274085999
30.3926258087 -43.0978088379 33.3272819519
30.3750438690 -43.0700950623 33.1295318604
30.3676910400 -43.0581588745 32.9358558655
30.3758354187 -43.0701255798 32.7484169006
30.4037761688 -43.1126251221 32.5690116882
30.4521980286 -43.1867141724 32.3979873657
30.5172328949 -43.2864341736 32.2338371277
30.5924587250 -43.4018669128 32.0739936829
30.6717758179 -43.5236129761 31.9159946442
30.7506294250 -43.6446456909 31.7579803467
30.8254814148 -43.7595100403 31.5984916687
30.8930110931 -43.8630752563 31.4361381531
30.9500923157 -43.9505271912 31.2696037292
30.9945144653 -44.0184516907 31.0979290009
31.0258102417 -44.0661315918 30.9208774567
31.0454425812 -44.0958175659 30.7390155792
31.0560112000 -44.1115303040 30.5533905029
31.0598468781 -44.1168518066 30.3649501801
31.0577411652 -44.1130104065 30.1740074158
31.0484409332 -44.0980682373 29.9800090790
31.0293464661 -44.0680236816 29.7818317413
30.9988269806 -44.0203552246 29.5787448883
30.9589633942 -43.9582710266 29.3715972900
30.9160118103 -43.8914222717 29.1630287170
30.8773307800 -43.8311653137 28.9561843872
30.8474845886 -43.7845344543 28.7530345917
30.8271255493 -43.7525329590 28.5538959503
30.8147964478 -43.7329216003 28.3581676483
30.8090457916 -43.7234573364 28.1652526855
30.8091964722 -43.7230911255 27.9748783112
30.8151168823 -43.7316322327 27.7870082855
30.8269882202 -43.7493476868 27.6017417908
30.8453693390 -43.7771072388 27.4193420410
30.8712387085 -43.8164176941 27.2402648926
30.9052429199 -43.8682746887 27.0648193359
30.9462032318 -43.9308624268 26.8925113678
30.9904003143 -43.9984436035 26.7217235565
31.0328540802 -44.0633392334 26.5502548218
31.0694580078 -44.1192054749 26.3762760162
31.0979824066 -44.1626129150 26.1987705231
31.1178436279 -44.1926574707 26.0174503326
31.1297073364 -44.2103614807 25.8325843811
31.1349048615 -44.2177848816 25.6447410583
31.1343307495 -44.2163047791 25.4543018341
31.1272563934 -44.2047996521 25.2609176636
31.1110820770 -44.1792526245 25.0633869171
31.0829658508 -44.1352882385 24.8603897095
31.0430068970 -44.0730552673 24.6519279480
30.9961700439 -44.0002098083 24.4402275085
30.9501209259 -43.9285812378 24.2287693024
30.9106388092 -43.8670806885 24.0202102661
30.8795776367 -43.8185729980 23.8154201508
30.8569335938 -43.7830467224 23.6144294739
30.8435611725 -43.7618217468 23.4176616669
30.8411388397 -43.7574882507 23.2259273529
30.8499717712 -43.7705192566 23.0394058228
30.8676509857 -43.7971992493 22.8570156097
30.8903083801 -43.8315544128 22.6769809723
30.9153041840 -43.8695182800 22.4980850220
30.9428348541 -43.9113922119 22.3204269409
30.9749355316 -43.9603157043 22.1449737549
31.0127258301 -44.0180168152 21.9722671509
31.0542201996 -44.0814361572 21.8013916016
31.0946502686 -44.1432075500 21.6300983429
31.1289520264 -44.1955261230 21.4559803009
31.1542739868 -44.2339973450 21.2776603699
31.1707744598 -44.2588577271 21.0951805115
31.1805458069 -44.2733345032 20.9095115662
31.1856861115 -44.2806701660 20.7216377258
31.1866607666 -44.2815818787 20.5317630768
31.1816425323 -44.2732467651 20.3389968872
31.1672706604 -44.2504768372 20.1416893005
31.1410350800 -44.2094116211 19.9386005402
31.1040363312 -44.1517372131 19.7302150726
31.0613975525 -44.0853652954 19.5189933777
31.0193233490 -44.0198631287 19.3079395294
30.9816799164 -43.9611968994 19.0989437103
30.9498271942 -43.9114608765 18.8926906586
30.9252281189 -43.8729171753 18.6899166107
30.9109745026 -43.8503341675 18.4921703339
30.9100112915 -43.8482513428 18.3009395599
30.9224090576 -43.8667793274 18.1163063049
30.9450721741 -43.9011497498 17.9367828369
30.9741535187 -43.9454193115 17.7604942322
31.0074996948 -43.9962654114 17.5863876343
31.0447902679 -44.0531997681 17.4143199921
31.0855884552 -44.1155433655 17.2440853119
31.1277942657 -44.1800613403 17.0746421814
31.1684112549 -44.2421264648 16.9044914246
31.2053356171 -44.2984962463 16.7325649261
31.2375946045 -44.3476676941 16.5583591461
31.2640151978 -44.3878326416 16.3812656403
31.2825927734 -44.4159011841 16.2002449036
31.2914447784 -44.4289627075 16.0143127441
31.2900714874 -44.4262466431 15.8231811523
31.2797050476 -44.4096603394 15.6274433136
31.2626075745 -44.3826866150 15.4282255173
31.2406978607 -44.3482933044 15.2264919281
31.2147655487 -44.3076896667 15.0226278305
31.1854724884 -44.2619018555 14.8169631958
31.1555156708 -44.2150878906 14.6108779907
31.1304283142 -44.1757888794 14.4072370529
31.1169300079 -44.1543693542 14.2095441818
31.1203384399 -44.1590309143 14.0206050873
31.1429862976 -44.1933784485 13.8416967392
31.1838150024 -44.2557716370 13.6723318100
31.2386627197 -44.3397941589 13.5103950500
31.3014965057 -44.4361381531 13.3527679443
31.3665390015 -44.5358924866 13.1964406967
31.4300460815 -44.6332778931 13.0394468307
31.4903297424 -44.7256851196 12.8808889389
31.5465526581 -44.8118324280 12.7203130722
31.5981960297 -44.8909149170 12.5574293137
31.6453304291 -44.9630432129 12.3922595978
31.6880340576 -45.0283355713 12.2248296738
31.7251186371 -45.0849533081 12.0544881821
31.7543697357 -45.1294898987 11.8800325394
31.7745265961 -45.1599922180 11.7007570267
31.7864284515 -45.1777610779 11.5170812607
31.7921161652 -45.1859436035 11.3300781250
31.7931480408 -45.1869430542 11.1405649185
