28.2447204590 -27.3452415466 39.9725494385
28.2449073792 -27.3486404419 39.7741088867
28.2431125641 -27.3499870300 39.5751113892
28.2405967712 -27.3505878448 39.3759040833
28.2396106720 -27.3527717590 39.1771011353
28.2429447174 -27.3594303131 38.9794883728
28.2529926300 -27.3730373383 38.7837371826
28.2705669403 -27.3944358826 38.5900917053
28.2940769196 -27.4219779968 38.3981323242
28.3197021484 -27.4517097473 38.2067985535
28.3426895142 -27.4787120819 38.0147590637
28.3591594696 -27.4989662170 37.8209075928
28.3672428131 -27.5105381012 37.6246948242
28.3668441772 -27.5133323669 37.4260711670
28.3589324951 -27.5083465576 37.2252922058
28.3456592560 -27.4978141785 37.0229530334
28.3308792114 -27.4857215881 36.8201446533
28.3193759918 -27.4770202637 36.6182403564
28.3149356842 -27.4756317139 36.4183502197
28.3192405701 -27.4832954407 36.2209777832
28.3323993683 -27.5001220703 36.0261802673
28.3537578583 -27.5254344940 35.8337860107
28.3819847107 -27.5578556061 35.6434326172
28.4150676727 -27.5953025818 35.4545478821
28.4509220123 -27.6356182098 35.2665252686
28.4877109528 -27.6768970490 35.0788345337
28.5232524872 -27.7168865204 34.8908348083
28.5547523499 -27.7526893616 34.7016830444
28.5799884796 -27.7820129395 34.5107116699
28.5986785889 -27.8045597076 34.3178138733
28.6122226715 -27.8217792511 34.1233978271
28.6222381592 -27.8353500366 33.9279327393
28.6295566559 -27.8461265564 33.7316589355
28.6342449188 -27.8541831970 33.5345954895
28.6360778809 -27.8592853546 33.3366584778
28.6347370148 -27.8611049652 33.1377525330
28.6298198700 -27.8592205048 32.9377365112
28.6211433411 -27.8534469604 32.7365493774
28.6095466614 -27.8446521759 32.5344352722
28.5973510742 -27.8352413177 32.3321075439
28.5876731873 -27.8284339905 32.1305274963
28.5831012726 -27.8269100189 31.9304981232
28.5850925446 -27.8321762085 31.7324924469
28.5942153931 -27.8448238373 31.5367050171
28.6103820801 -27.8647575378 31.3431282043
28.6329250336 -27.8912887573 31.1515693665
28.6609077454 -27.9234466553 30.9617519379
28.6932048798 -27.9600696564 30.7733383179
28.7278709412 -27.9991416931 30.5857219696
28.7615795135 -28.0372219086 30.3978538513
28.7898998260 -28.0697269440 30.2083225250
28.8082809448 -28.0919494629 30.0156574249
28.8136844635 -28.1007442474 29.8188610077
28.8065738678 -28.0965938568 29.6180458069
28.7914676666 -28.0841732025 29.4146308899
28.7747421265 -28.0700778961 29.2106571198
28.7614116669 -28.0594940186 29.0077400208
28.7537345886 -28.0547580719 28.8066234589
28.7522087097 -28.0563869476 28.6074867249
28.7570648193 -28.0646171570 28.4104175568
28.7685661316 -28.0797233582 28.2155246735
28.7861099243 -28.1010780334 28.0226268768
28.8075962067 -28.1265087128 27.8310470581
28.8304576874 -28.1533660889 27.6399497986
28.8537883759 -28.1807041168 27.4490394592
28.8793354034 -28.2103366852 27.2588977814
28.9099388123 -28.2451992035 27.0704746246
28.9463672638 -28.2860832214 26.8840408325
28.9854183197 -28.3296813965 26.6985416412
29.0213127136 -28.3700122833 26.5120429993
29.0491104126 -28.4019680023 26.3228721619
29.0667972565 -28.4234657288 26.1303310394
29.0746593475 -28.4348011017 25.9344863892
29.0735759735 -28.4368858337 25.7356090546
29.0642070770 -28.4304027557 25.5338993073
29.0474452972 -28.4162731171 25.3296413422
29.0254707336 -28.3967552185 25.1235580444
29.0022411346 -28.3759365082 24.9169921875
28.9825572968 -28.3587875366 24.7115955353
28.9702644348 -28.3492813110 24.5086975098
28.9671783447 -28.3492984772 24.3089504242
28.9734077454 -28.3589477539 24.1124153137
28.9879665375 -28.3772125244 23.9187774658
29.0088272095 -28.4019927979 23.7273502350
29.0330715179 -28.4302711487 23.5371341705
29.0580139160 -28.4592704773 23.3471927643
29.0824203491 -28.4877166748 23.1571006775
29.1062641144 -28.5155773163 22.9668445587
29.1292133331 -28.5425148010 22.7763042450
29.1497402191 -28.5669479370 22.5849380493
29.1656551361 -28.5866088867 22.3919620514
29.1754417419 -28.5999355316 22.1968250275
29.1793727875 -28.6072082520 21.9996051788
29.1794853210 -28.6105308533 21.8010158539
29.1782436371 -28.6124553680 21.6019306183
29.1771812439 -28.6145629883 21.4028968811
29.1768341064 -28.6174125671 21.2041091919
29.1776599884 -28.6214733124 21.0057334900
29.1808109283 -28.6279411316 20.8081912994
29.1881313324 -28.6387157440 20.6121559143
29.2013683319 -28.6556091309 20.4182777405
29.2210731506 -28.6791896820 20.2267742157
29.2461681366 -28.7083396912 20.0372676849
29.2747859955 -28.7411327362 19.8490867615
29.3053646088 -28.7759513855 19.6616706848
29.3364810944 -28.8113250732 19.4744968414
29.3659610748 -28.8450069427 19.2867641449
29.3911380768 -28.8742408752 19.0974807739
29.4103851318 -28.8973445892 18.9060325623
29.4241924286 -28.9148235321 18.7125816345
29.4348754883 -28.9290733337 18.5179805756
29.4455509186 -28.9433135986 18.3233852386
29.4589748383 -28.9603958130 18.1298274994
29.4763832092 -28.9815959930 17.9377841949
29.4969997406 -29.0061130524 17.7469692230
29.5189571381 -29.0320148468 17.5566883087
29.5408077240 -29.0578060150 17.3663959503
29.5619907379 -29.0829048157 17.1758804321
29.5822715759 -29.1070728302 16.9850482941
29.6016559601 -29.1303138733 16.7939014435
29.6207618713 -29.1532669067 16.6026725769
29.6403312683 -29.1766967773 16.4116458893
29.6600856781 -29.2003192902 16.2207145691
29.6786651611 -29.2227268219 16.0293579102
29.6948318481 -29.2426395416 15.8370914459
29.7083473206 -29.2598114014 15.6438188553
29.7196846008 -29.2747344971 15.4497156143
29.7293758392 -29.2879543304 15.2549819946
29.7378749847 -29.2999439240 15.0597915649
29.7458801270 -29.3114204407 14.8644123077
29.7546577454 -29.3236961365 14.6693391800
29.7660999298 -29.3387241364 14.4753170013
29.7822170258 -29.3585853577 14.2831449509
29.8039817810 -29.3842811584 14.0932168961
29.8301544189 -29.4145317078 13.9050607681
29.8572349548 -29.4457187653 13.7173004150
29.8809604645 -29.4734382629 13.5282468796
29.8984279633 -29.4946918488 13.3367366791
29.9093399048 -29.5091724396 13.1426334381
29.9156551361 -29.5188999176 12.9467010498
29.9201374054 -29.5267372131 12.7500362396
29.9251213074 -29.5350894928 12.5535697937
29.9320869446 -29.5454921722 12.3578996658
29.9418735504 -29.5588073730 12.1633682251
29.9549312592 -29.5755062103 11.9701681137
29.9712162018 -29.5955333710 11.7782878876
29.9896583557 -29.6177921295 11.5873041153
30.0079669952 -29.6399135590 11.3962879181
30.0235462189 -29.6592121124 11.2041816711
30.0350856781 -29.6743392944 11.0104408264
30.0433235168 -29.6860542297 10.8153572083
30.0504016876 -29.6965694427 10.6198015213
30.0588512421 -29.7085037231 10.4248132706
30.0711383820 -29.7244014740 10.2314128876
30.0893859863 -29.7464561462 10.0404882431
30.1146430969 -29.7757530212 9.8524913788
30.1459293365 -29.8112754822 9.6670351028
30.1800708771 -29.8497467041 9.4828128815
30.2126884460 -29.8866424561 9.2980060577
30.2397098541 -29.9177608490 9.1109104156
30.2585277557 -29.9404010773 8.9204158783
30.2682838440 -29.9536819458 8.7261390686
30.2696228027 -29.9582653046 8.5283279419
30.2646121979 -29.9562950134 8.3278303146
30.2570343018 -29.9516716003 8.1262283325
30.2518939972 -29.9495639801 7.9256324768
30.2532863617 -29.9542083740 7.7277913094
30.2621002197 -29.9665145874 7.5330977440
30.2761440277 -29.9842243195 7.3406405449
30.2926502228 -30.0044746399 7.1492495537
30.3101139069 -30.0257148743 6.9582881927
30.3277797699 -30.0471668243 6.7674360275
30.3443222046 -30.0674533844 6.5761208534
30.3581256866 -30.0849132538 6.3836460114
30.3693084717 -30.0996646881 6.1900534630
30.3811206818 -30.1150684357 5.9967436790
30.3987789154 -30.1365089417 5.8059797287
30.4262199402 -30.1680488586 5.6194887161
30.4633464813 -30.2095928192 5.4372558594
30.5059566498 -30.2567977905 5.2574744225
30.5484771729 -30.3039112091 5.0777211189
30.5877285004 -30.3476448059 4.8966016769
30.6248588562 -30.3891887665 4.7146129608
30.6634597778 -30.4322490692 4.5333280563
30.7051410675 -30.4784889221 4.3534617424
30.7466526031 -30.5245552063 4.1735873222
30.7812614441 -30.5634899139 3.9907207489
30.8027820587 -30.5889091492 3.8020980358
30.8086967468 -30.5982170105 3.6065645218
30.8009433746 -30.5934104919 3.4049398899
30.7849788666 -30.5801277161 3.1996235847
30.7676372528 -30.5654220581 2.9936509132
30.7544116974 -30.5549697876 2.7894816399
30.7477493286 -30.5512905121 2.5882253647
30.7472095490 -30.5539360046 2.3897032738
30.7507896423 -30.5608348846 2.1930282116
30.7563781738 -30.5698051453 1.9972562790
30.7630786896 -30.5799255371 1.8019882441
30.7721843719 -30.5925273895 1.6078127623
30.7873229980 -30.6113586426 1.4163876772
30.8133220673 -30.6414012909 1.2299290895
30.8536205292 -30.6862049103 1.0500378609
30.9075012207 -30.7450275421 0.8764247894
30.9699897766 -30.8127365112 0.7068471909
31.0354976654 -30.8835601807 0.5387612581
31.1017036438 -30.9551010132 0.3711054325
31.1694526672 -31.0282344818 0.2042729557
31.2393455505 -31.1035785675 0.0385456756
18.2566509247 -33.3732109070 80.5851364136
18.2591857910 -33.3834686279 80.3888092041
18.2657394409 -33.4019927979 80.1930465698
18.2744579315 -33.4249725342 79.9976043701
18.2827816010 -33.4471397400 79.8021240234
18.2884082794 -33.4637565613 79.6062622070
18.2901782990 -33.4724349976 79.4098510742
18.2885665894 -33.4741630554 79.2129440308
18.2857990265 -33.4735145569 79.0158462524
18.2848396301 -33.4765853882 78.8190078735
18.2869968414 -33.4860649109 78.6226348877
18.2902126312 -33.4977226257 78.4264144897
18.2906589508 -33.5036849976 78.2297744751
18.2866325378 -33.5004425049 78.0324249268
18.2805423737 -33.4929618835 77.8347396851
18.2769451141 -33.4906082153 77.6374206543
18.2788753510 -33.4996223450 77.4409637451
18.2858219147 -33.5189552307 77.2453155518
18.2945861816 -33.5420227051 77.0499801636
18.3017368317 -33.5617752075 76.8543930054
18.3055114746 -33.5745811462 76.6582641602
18.3059310913 -33.5804901123 76.4615707397
18.3036422729 -33.5808296204 76.2644195557
18.2988815308 -33.5760803223 76.0668334961
18.2915115356 -33.5659713745 75.8687744141
18.2819099426 -33.5512733459 75.6703033447
18.2716026306 -33.5351219177 75.4716796875
18.2627353668 -33.5219345093 75.2732620239
18.2568664551 -33.5149154663 75.0753479004
18.2543811798 -33.5148506165 74.8780136108
18.2549419403 -33.5210533142 74.6812133789
18.2579994202 -33.5323905945 74.4848556519
18.2625808716 -33.5468559265 74.2887802124
18.2668781281 -33.5607452393 74.0926589966
18.2686862946 -33.5695114136 73.8960723877
18.2666683197 -33.5704116821 73.6987762451
18.2614936829 -33.5648193359 73.5008697510
18.2557964325 -33.5581550598 73.3028411865
18.2527370453 -33.5569152832 73.1052932739
18.2541217804 -33.5648117065 72.9085845947
18.2596282959 -33.5811843872 72.7126693726
18.2677440643 -33.6029205322 72.5172729492
18.2770252228 -33.6270484924 72.3221282959
18.2860622406 -33.6506729126 72.1269454956
18.2926044464 -33.6691741943 71.9312896729
18.2938079834 -33.6766967773 71.7345657349
18.2881813049 -33.6701850891 71.5364532471
18.2773590088 -33.6529846191 71.3372573853
18.2654933929 -33.6336441040 71.1378021240
18.2564449310 -33.6200981140 70.9388961792
18.2512226105 -33.6144180298 70.7407531738
18.2478904724 -33.6126213074 70.5429763794
18.2436351776 -33.6089286804 70.3449935913
18.2368640900 -33.6000633240 70.1464538574
18.2278232574 -33.5865364075 69.9474029541
18.2179012299 -33.5711936951 69.7481307983
18.2084903717 -33.5569114685 69.5489273071
18.2002811432 -33.5450935364 69.3499526978
18.1932659149 -33.5357322693 69.1512145996
18.1871967316 -33.5283126831 68.9526519775
18.1819343567 -33.5225563049 68.7542495728
18.1775360107 -33.5185737610 68.5560150146
18.1741390228 -33.5166511536 68.3579864502
18.1718845367 -33.5170745850 68.1601943970
18.1708793640 -33.5200691223 67.9626770020
18.1712760925 -33.5259399414 67.7654724121
18.1733684540 -33.5353012085 67.5686569214
18.1776008606 -33.5490570068 67.3723373413
18.1842288971 -33.5677337646 67.1765747070
18.1927337646 -33.5902671814 66.9812698364
18.2015933990 -33.6135292053 66.7860717773
18.2089538574 -33.6337127686 66.5905303955
18.2137794495 -33.6486854553 66.3943862915
18.2164134979 -33.6591567993 66.1977310181
18.2182006836 -33.6678848267 66.0008621216
18.2206802368 -33.6780395508 65.8041610718
18.2247982025 -33.6915588379 65.6078643799
18.2302017212 -33.7077178955 65.4118804932
18.2351665497 -33.7229766846 65.2158050537
18.2376956940 -33.7332305908 65.0191268921
18.2369499207 -33.7367591858 64.8216171265
18.2335529327 -33.7348403931 64.6234359741
18.2286682129 -33.7298622131 64.4248504639
18.2232913971 -33.7238769531 64.2261276245
18.2184486389 -33.7189903259 64.0275115967
18.2155189514 -33.7180328369 63.8293685913
18.2158565521 -33.7237854004 63.6320610046
18.2198181152 -33.7369880676 63.4356956482
18.2261867523 -33.7551307678 63.2399635315
18.2327308655 -33.7736320496 63.0442886353
18.2375030518 -33.7884979248 62.8481521606
18.2396926880 -33.7980537415 62.6513328552
18.2394390106 -33.8025932312 62.4538574219
18.2371768951 -33.8030090332 62.2558326721
18.2331390381 -33.7997779846 62.0573081970
18.2272872925 -33.7928199768 61.8582687378
18.2196578979 -33.7822113037 61.6587181091
18.2109928131 -33.7694816589 61.4588546753
18.2031097412 -33.7583541870 61.2591705322
18.1983776093 -33.7537002563 61.0603370667
18.1984901428 -33.7589950562 60.8628387451
18.2034187317 -33.7741813660 60.6666908264
18.2113494873 -33.7955322266 60.4713935852
18.2196178436 -33.8175773621 60.2762107849
18.2258758545 -33.8354949951 60.0804672241
18.2286529541 -33.8462562561 59.8837356567
18.2273540497 -33.8486557007 59.6858253479
18.2223510742 -33.8434486389 59.4868316650
18.2150726318 -33.8335685730 59.2871513367
18.2074775696 -33.8230400085 59.0873527527
18.2011528015 -33.8151168823 58.8878936768
18.1969337463 -33.8115196228 58.6890335083
18.1954421997 -33.8135261536 58.4909629822
18.1976451874 -33.8231163025 58.2939872742
18.2045879364 -33.8424377441 58.0984306335
18.2164764404 -33.8719139099 57.9043769836
18.2322387695 -33.9093437195 57.7115211487
18.2501621246 -33.9512023926 57.5193634033
18.2685928345 -33.9941062927 57.3274040222
18.2858657837 -34.0346336365 57.1351318359
18.3001499176 -34.0690231323 56.9419784546
18.3101177216 -34.0945510864 56.7475242615
18.3156795502 -34.1110343933 56.5517120361
18.3178958893 -34.1206474304 56.3548660278
18.3185176849 -34.1269912720 56.1575126648
18.3197326660 -34.1345481873 55.9603424072
18.3233985901 -34.1471366882 55.7639465332
18.3298950195 -34.1655387878 55.5684547424
18.3379249573 -34.1870841980 55.3734664917
18.3455944061 -34.2078933716 55.1783752441
18.3515262604 -34.2251358032 54.9827384949
18.3553256989 -34.2379951477 54.7864189148
18.3575458527 -34.2476196289 54.5895843506
18.3591327667 -34.2559394836 54.3925437927
18.3605957031 -34.2640075684 54.1954612732
18.3619613647 -34.2718772888 53.9983406067
18.3633575439 -34.2798080444 53.8012237549
18.3650569916 -34.2883605957 53.6042060852
18.3670005798 -34.2974166870 53.4072685242
18.3688507080 -34.3062782288 53.2102966309
18.3706073761 -34.3149490356 53.0132904053
18.3728275299 -34.3245735168 52.8164405823
18.3761730194 -34.3365058899 52.6199684143
18.3806056976 -34.3506698608 52.4238700867
18.3847351074 -34.3642082214 52.2276725769
18.3860435486 -34.3719596863 52.0305099487
18.3823623657 -34.3694725037 51.8316154480
18.3733901978 -34.3561286926 51.6308631897
18.3604278564 -34.3345985413 51.4286880493
18.3446235657 -34.3072395325 51.2254676819
18.3261165619 -34.2743339539 51.0212478638
18.3052959442 -34.2366828918 50.8161468506
18.2843551636 -34.1987915039 50.6109352112
18.2669124603 -34.1680755615 50.4069023132
18.2561874390 -34.1511459351 50.2052154541
18.2540130615 -34.1517562866 50.0065574646
18.2609424591 -34.1710472107 49.8111648560
18.2760753632 -34.2071685791 49.6187515259
18.2966384888 -34.2544250488 49.4283485413
18.3188800812 -34.3051223755 49.2386054993
18.3399295807 -34.3533782959 49.0484848022
18.3584384918 -34.3964195251 48.8574829102
18.3736457825 -34.4326858521 48.6653060913
18.3847694397 -34.4605751038 48.4716567993
18.3915348053 -34.4795227051 48.2764053345
18.3946018219 -34.4908828735 48.0797882080
18.3951454163 -34.4970703125 47.8822250366
18.3941364288 -34.5000724792 47.6840744019
18.3920173645 -34.5007972717 47.4854927063
18.3886814117 -34.4990234375 47.2864341736
18.3836212158 -34.4937171936 47.0867042542
18.3763294220 -34.4838333130 46.8860969543
18.3669872284 -34.4697418213 46.6846771240
18.3568382263 -34.4539985657 46.4829139709
18.3477077484 -34.4403495789 46.2815017700
18.3410758972 -34.4318237305 46.0810279846
18.3377304077 -34.4300346375 45.8818054199
18.3381595612 -34.4359893799 45.6840400696
18.3427619934 -34.4505004883 45.4879035950
18.3512954712 -34.4730796814 45.2933158875
18.3623657227 -34.5008544922 45.0997505188
18.3739757538 -34.5297355652 44.9064216614
18.3849163055 -34.5572471619 44.7128486633
18.3956851959 -34.5844039917 44.5192337036
18.4082145691 -34.6151695251 44.3263473511
18.4247493744 -34.6541481018 44.1351013184
18.4463825226 -34.7035827637 43.9459495544
18.4718379974 -34.7608489990 43.7583999634
18.4974975586 -34.8185348511 43.5709991455
18.5193767548 -34.8684654236 43.3821220398
18.5356559753 -34.9069175720 43.1910095215
18.5474624634 -34.9361915588 42.9980964661
18.5572319031 -34.9612922668 42.8043708801
18.5664253235 -34.9852104187 42.6104278564
18.5746498108 -35.0071411133 42.4161033630
18.5808334351 -35.0248870850 42.2209434509
18.5850296021 -35.0385627747 42.0249633789
18.5886554718 -35.0510635376 41.8287467957
18.5927963257 -35.0646209717 41.6327514648
18.5968170166 -35.0779342651 41.4367103577
18.5989971161 -35.0874748230 41.2398910522
18.5983181000 -35.0911483765 41.0418548584
18.5953750610 -35.0901908875 40.8428459167
18.5916461945 -35.0876159668 40.6434822083
18.5880355835 -35.0852851868 40.4441490173
18.5843791962 -35.0828590393 40.2447814941
18.5804557800 -35.0798912048 40.0452804565
18.5770645142 -35.0780105591 39.8459892273
18.5757427216 -35.0803756714 39.6475791931
18.5775032043 -35.0890579224 39.4505043030
18.5819816589 -35.1033058167 39.2546157837
18.5877552032 -35.1202125549 39.0593032837
18.5934772491 -35.1370124817 38.8639793396
18.5987930298 -35.1529769897 38.6684799194
18.6043720245 -35.1694831848 38.4731063843
18.6111450195 -35.1884384155 38.2782707214
18.6193675995 -35.2103614807 38.0840988159
18.6281833649 -35.2335014343 37.8902053833
18.6361503601 -35.2548980713 37.6959457397
18.6422405243 -35.2724533081 37.5008583069
18.6463832855 -35.2860183716 37.3048973083
18.6491603851 -35.2967796326 37.1083221436
18.6512145996 -35.3060569763 36.9114189148
18.6529560089 -35.3146972656 36.7143707275
18.6545906067 -35.3231201172 36.5172691345
18.6562423706 -35.3315811157 36.3201713562
18.6580429077 -35.3403396606 36.1231422424
18.6601829529 -35.3498001099 35.9262657166
18.6629829407 -35.3606109619 35.7296943665
18.6669559479 -35.3738250732 35.5336685181
18.6727790833 -35.3908271790 35.3385086060
18.6810245514 -35.4127922058 35.1444931030
18.6917152405 -35.4397697449 34.9516410828
18.7039680481 -35.4699440002 34.7595481873
18.7158832550 -35.4994277954 34.5673217773
18.7247619629 -35.5226898193 34.3736839294
18.7279453278 -35.5342864990 34.1773567200
18.7244186401 -35.5321311951 33.9778327942
18.7159938812 -35.5199470520 33.7759475708
18.7065849304 -35.5057449341 33.5735549927
18.6998672485 -35.4970588684 33.3724250793
18.6975898743 -35.4974670410 33.1734123230
18.6998310089 -35.5071296692 32.9765663147
18.7060470581 -35.5249366760 32.7816543579
18.7152538300 -35.5488739014 32.5882072449
18.7254848480 -35.5749015808 32.3952789307
18.7339744568 -35.5973701477 32.2015190125
18.7386341095 -35.6119880676 32.0058937073
18.7396011353 -35.6190376282 31.8084545135
18.7394237518 -35.6237525940 31.6104450226
18.7416915894 -35.6334724426 31.4136390686
18.7489585876 -35.6534309387 31.2193164825
18.7611427307 -35.6834602356 31.0274581909
18.7755107880 -35.7179565430 30.8367176056
18.7888183594 -35.7502861023 30.6454811096
18.8000431061 -35.7783470154 30.4532260895
18.8109817505 -35.8058242798 30.2608528137
18.8242702484 -35.8381080627 30.0696907043
18.8412036896 -35.8778610229 29.8804073334
18.8612594604 -35.9240036011 29.6927528381
18.8829174042 -35.9734230042 29.5059642792
18.9045238495 -36.0227394104 29.3192043304
18.9245262146 -36.0687675476 29.1316776276
18.9413814545 -36.1083526611 28.9425811768
18.9537773132 -36.1388053894 28.7512264252
18.9612121582 -36.1590957642 28.5573310852
18.9642486572 -36.1703834534 28.3611698151
18.9640407562 -36.1750297546 28.1633243561
18.9615764618 -36.1750526428 27.9642906189
18.9572277069 -36.1712226868 27.7642593384
18.9508399963 -36.1632118225 27.5631351471
18.9423217773 -36.1508445740 27.3608665466
18.9323825836 -36.1355667114 27.1578159332
18.9224548340 -36.1203117371 26.9547328949
18.9134349823 -36.1069221497 26.7520980835
18.9047374725 -36.0941848755 26.5495967865
18.8952636719 -36.0798683167 26.3466510773
18.8854446411 -36.0648422241 26.1434860229
18.8778381348 -36.0543441772 25.9414691925
18.8756275177 -36.0548934937 25.7423229218
18.8806934357 -36.0703392029 25.5470829010
18.8928947449 -36.1003913879 25.3557071686
18.9105415344 -36.1415901184 25.1673049927
18.9309425354 -36.1884193420 24.9804439545
18.9507179260 -36.2339744568 24.7932910919
18.9664764404 -36.2713012695 24.6039962769
18.9758358002 -36.2955360413 24.4112358093
18.9781036377 -36.3052520752 24.2146015167
18.9744300842 -36.3028030396 24.0146942139
18.9675865173 -36.2938690186 23.8130187988
18.9611587524 -36.2857894897 23.6115474701
18.9584159851 -36.2852478027 23.4120941162
18.9615287781 -36.2966957092 23.2158813477
18.9713954926 -36.3219642639 23.0234355927
18.9878959656 -36.3608055115 22.8347187042
19.0104160309 -36.4119682312 22.6494140625
19.0380458832 -36.4735832214 22.4670391083
19.0688209534 -36.5416336060 22.2865066528
19.0991077423 -36.6086845398 22.1057815552
19.1249084473 -36.6665534973 21.9225940704
19.1443481445 -36.7114028931 21.7358646393
19.1585521698 -36.7455368042 21.5462017059
19.1699867249 -36.7740020752 21.3549919128
19.1804733276 -36.8005294800 21.1632652283
19.1908378601 -36.8268089294 20.9714908600
19.2015724182 -36.8538398743 20.7799491882
19.2129039764 -36.8820953369 20.5887775421
19.2242984772 -36.9104766846 20.3976669312
19.2346057892 -36.9366302490 20.2059516907
19.2430458069 -36.9589653015 20.0131721497
19.2498626709 -36.9779853821 19.8194656372
19.2560405731 -36.9956893921 19.6253967285
19.2626113892 -37.0142021179 19.4315700531
19.2702999115 -37.0349998474 19.2384090424
19.2793636322 -37.0586090088 19.0460700989
19.2894306183 -37.0842704773 18.8543415070
19.2995815277 -37.1101036072 18.6626834869
19.3090972900 -37.1346359253 18.4706707001
19.3182849884 -37.1584968567 18.2784824371
19.3282127380 -37.1838722229 18.0867538452
19.3392963409 -37.2116127014 17.8957366943
19.3502464294 -37.2390785217 17.7046623230
19.3586635590 -37.2613601685 17.5120944977
19.3627376556 -37.2747612000 17.3169307709
19.3625812531 -37.2795066833 17.1192245483
19.3605632782 -37.2804450989 16.9203872681
19.3608818054 -37.2861633301 16.7229480743
19.3681869507 -37.3061714172 16.5297412872
19.3851776123 -37.3459930420 16.3424396515
19.4103775024 -37.4025955200 16.1601810455
19.4383010864 -37.4647712708 15.9796533585
19.4625854492 -37.5194969177 15.7969684601
19.4795742035 -37.5593070984 15.6098680496
19.4893283844 -37.5843162537 15.4183559418
19.4939994812 -37.5989341736 15.2237300873
19.4958686829 -37.6078224182 15.0273771286
19.4965629578 -37.6143035889 14.8302927017
19.4972000122 -37.6206703186 14.6331672668
19.4986667633 -37.6287384033 14.4365539551
19.5017147064 -37.6400299072 14.2409210205
19.5069465637 -37.6557960510 14.0466575623
19.5149002075 -37.6771240234 13.8541059494
19.5261020660 -37.7050895691 13.6636104584
19.5408706665 -37.7403564453 13.4753885269
19.5587997437 -37.7820777893 13.2891950607
19.5783348083 -37.8270835876 13.1040611267
19.5969562531 -37.8702163696 12.9183969498
19.6117687225 -37.9055633545 12.7303571701
19.6203212738 -37.9281120300 12.5383653641
19.6217918396 -37.9361801147 12.3418684006
19.6180610657 -37.9336128235 12.1420373917
19.6132965088 -37.9289398193 11.9415273666
19.6118736267 -37.9310913086 11.7431421280
19.6161136627 -37.9448204041 11.5483942032
19.6255340576 -37.9691429138 11.3569955826
19.6377716064 -37.9992218018 11.1674394608
19.6501789093 -38.0296478271 10.9780216217
19.6608848572 -38.0565948486 10.7875251770
19.6689453125 -38.0781326294 10.5953292847
19.6740970612 -38.0937271118 10.4012489319
19.6765251160 -38.1037521362 10.2053928375
19.6767482758 -38.1092681885 10.0080890656
19.6756210327 -38.1120262146 9.8098907471
19.6745147705 -38.1148300171 9.6116962433
19.6754646301 -38.1218338013 9.4148483276
19.6808681488 -38.1379432678 9.2209405899
19.6927127838 -38.1672134399 9.0313129425
19.7119178772 -38.2115249634 8.8466024399
19.7382507324 -38.2704048157 8.6666879654
19.7705287933 -38.3414382935 8.4908094406
19.8067359924 -38.4204940796 8.3176450729
19.8442859650 -38.5022926331 8.1454772949
19.8803787231 -38.5811080933 7.9724321365
19.9121742249 -38.6511421204 7.7965898514
19.9372444153 -38.7074317932 7.6162943840
19.9544773102 -38.7476997375 7.4307651520
19.9644870758 -38.7732124329 7.2403836250
19.9689521790 -38.7873916626 7.0462574959
19.9695892334 -38.7937469482 6.8495306969
19.9676799774 -38.7948989868 6.6510620117
19.9643611908 -38.7931747437 6.4516177177
19.9613265991 -38.7920303345 6.2523488998
19.9611721039 -38.7967681885 6.0550408363
19.9665946960 -38.8129081726 5.8615612984
19.9785690308 -38.8424263000 5.6726026535
19.9949645996 -38.8809814453 5.4867262840
20.0111846924 -38.9191780090 5.3007678986
20.0226345062 -38.9476242065 5.1115388870
20.0272750854 -38.9621582031 4.9176039696
20.0265884399 -38.9658126831 4.7199645042
20.0245780945 -38.9667587280 4.5213904381
20.0256271362 -38.9739570618 4.3249435425
20.0326938629 -38.9934501648 4.1327075958
20.0469589233 -39.0276489258 3.9455411434
20.0685501099 -39.0768089294 3.7635624409
20.0968837738 -39.1397438049 3.5863921642
20.1303062439 -39.2130661011 3.4128918648
20.1659355164 -39.2909011841 3.2410440445
20.2005062103 -39.3665695190 3.0685405731
20.2317867279 -39.4355087280 2.8937885761
20.2590618134 -39.4962730408 2.7162683010
20.2819461823 -39.5480613708 2.5356833935
20.2991104126 -39.5881690979 2.3510663509
20.3091468811 -39.6137123108 2.1613821983
20.3126201630 -39.6258544922 1.9670062065
20.3124580383 -39.6305732727 1.7700161934
20.3121929169 -39.6350822449 1.5729440451
20.3144321442 -39.6447029114 1.3776724339
20.3208198547 -39.6627922058 1.1854013205
20.3322143555 -39.6911125183 0.9967746735
20.3479900360 -39.7283782959 0.8113580346
20.3655529022 -39.7692909241 0.6272794008
20.3818626404 -39.8076477051 0.4423313439
20.3963012695 -39.8421783447 0.2560533583
20.4119358063 -39.8791503906 0.0706858560
7.0422840118 -37.3244171143 80.5816879272
7.0385556221 -37.3136215210 80.3840179443
7.0347208977 -37.3020668030 80.1862869263
7.0326495171 -37.3031806946 79.9893112183
7.0336141586 -37.3261070251 79.7936935425
7.0375986099 -37.3707237244 79.5994796753
7.0434141159 -37.4284934998 79.4061508179
7.0493531227 -37.4871444702 79.2129364014
7.0538735390 -37.5355987549 79.0191116333
7.0560784340 -37.5674209595 78.8242340088
7.0559058189 -37.5821647644 78.6282501221
7.0538973808 -37.5837249756 78.4313735962
7.0506672859 -37.5765151978 78.2338867188
7.0465846062 -37.5631866455 78.0359649658
7.0419321060 -37.5457611084 77.8377227783
7.0371217728 -37.5272102356 77.6393661499
7.0326013565 -37.5107460022 77.4411239624
7.0286459923 -37.4983406067 77.2431335449
7.0253300667 -37.4905281067 77.0454406738
7.0226154327 -37.4870300293 76.8480377197
7.0204086304 -37.4871788025 76.6508865356
7.0185923576 -37.4901351929 76.4539260864
7.0170674324 -37.4951858521 76.2571105957
7.0157995224 -37.5020751953 76.0604324341
7.0148549080 -37.5112876892 75.8639144897
7.0144033432 -37.5240402222 75.6676712036
7.0146126747 -37.5415306091 75.4717941284
7.0154557228 -37.5635757446 75.2762756348
7.0166063309 -37.5878181458 75.0809402466
7.0175857544 -37.6108360291 74.8855361938
7.0180497169 -37.6301536560 74.6898422241
7.0179181099 -37.6451950073 74.4938201904
7.0172729492 -37.6565589905 74.2975082397
7.0162048340 -37.6648826599 74.1009445190
7.0147562027 -37.6704750061 73.9041595459
7.0129570961 -37.6735610962 73.7071609497
7.0108613968 -37.6745185852 73.5099716187
7.0085425377 -37.6738739014 73.3126373291
7.0060677528 -37.6721153259 73.1151885986
7.0034847260 -37.6695785522 72.9176635742
7.0008144379 -37.6664161682 72.7200698853
6.9980325699 -37.6624603271 72.5223846436
6.9950361252 -37.6569671631 72.3245468140
6.9916410446 -37.6486129761 72.1264419556
6.9876904488 -37.6362800598 71.9279556274
6.9832525253 -37.6204566956 71.7291336060
6.9787178040 -37.6039428711 71.5302124023
6.9746179581 -37.5905494690 71.3315429688
6.9713058472 -37.5828018188 71.1333465576
6.9688124657 -37.5809249878 70.9356689453
6.9669895172 -37.5838546753 70.7384185791
6.9656887054 -37.5905303955 70.5415039063
6.9647450447 -37.5997619629 70.3448257446
6.9638452530 -37.6093139648 70.1481704712
6.9625701904 -37.6161727905 69.9512634277
6.9606566429 -37.6184577942 69.7539138794
6.9581813812 -37.6167182922 69.5561676025
6.9554190636 -37.6129226685 69.3582000732
6.9525904655 -37.6086540222 69.1601791382
6.9498143196 -37.6047630310 68.9621658325
6.9472565651 -37.6024398804 68.7642898560
6.9452400208 -37.6039962769 68.5667877197
6.9441418648 -37.6121253967 68.3699264526
6.9441275597 -37.6280250549 68.1738357544
6.9449677467 -37.6500396729 67.9783706665
6.9461464882 -37.6744766235 67.7831726074
6.9471745491 -37.6978378296 67.5878753662
6.9477686882 -37.7180862427 67.3922729492
6.9477767944 -37.7341384888 67.1962509155
6.9470520020 -37.7449455261 66.9996871948
6.9454612732 -37.7495460510 66.8024749756
6.9429826736 -37.7477951050 66.6045837402
6.9397735596 -37.7408180237 66.4061203003
6.9361548424 -37.7309074402 66.2073211670
6.9325461388 -37.7210693359 66.0085067749
6.9293889999 -37.7144660950 65.8100128174
6.9271059036 -37.7141227722 65.6121826172
6.9260721207 -37.7227210999 65.4153060913
6.9265060425 -37.7418251038 65.2195816040
6.9282641411 -37.7704048157 65.0249176025
6.9307365417 -37.8040924072 64.8308410645
6.9330668449 -37.8367576599 64.6366806030
6.9346022606 -37.8637390137 64.4419097900
6.9352092743 -37.8840751648 64.2464065552
6.9352269173 -37.9001884460 64.0504302979
6.9351315498 -37.9154968262 63.8543777466
6.9351563454 -37.9316673279 63.6584243774
6.9351153374 -37.9473648071 63.4624252319
6.9345932007 -37.9596176147 63.2660293579
6.9333248138 -37.9665336609 63.0690116882
6.9314074516 -37.9688072205 62.8714485168
6.9291992188 -37.9690017700 62.6736221313
6.9271011353 -37.9699859619 62.4758796692
6.9254393578 -37.9740943909 62.2784996033
6.9244775772 -37.9832038879 62.0817070007
6.9243702888 -37.9984245300 61.8856506348
6.9248671532 -38.0179672241 61.6901206970
6.9249634743 -38.0346450806 61.4942550659
6.9231538773 -38.0376930237 61.2967300415
6.9185004234 -38.0204124451 61.0966873169
6.9114842415 -37.9862480164 60.8945159912
6.9036273956 -37.9460716248 60.6915435791
6.8963794708 -37.9102592468 60.4890518188
6.8905086517 -37.8842926025 60.2877349854
6.8862428665 -37.8698005676 60.0878257751
6.8836121559 -37.8669967651 59.8893623352
6.8825740814 -37.8755760193 59.6923370361
6.8829402924 -37.8941917419 59.4965972900
6.8843979836 -37.9206047058 59.3018722534
6.8868002892 -37.9537696838 59.1080360413
6.8903608322 -37.9952049255 58.9153099060
6.8951959610 -38.0457420349 58.7238121033
6.9005975723 -38.1003227234 58.5328941345
6.9050650597 -38.1482276917 58.3411483765
6.9071674347 -38.1792335510 58.1472091675
6.9061069489 -38.1876449585 57.9502830505
6.9014849663 -38.1706161499 57.7499465942
6.8931741714 -38.1272392273 57.5460281372
6.8819642067 -38.0631675720 57.3392410278
6.8700618744 -37.9941558838 57.1316871643
6.8601827621 -37.9396018982 56.9260063171
6.8538413048 -37.9103164673 56.7237052917
6.8507375717 -37.9041557312 56.5245399475
6.8497595787 -37.9131736755 56.3274536133
6.8502407074 -37.9326095581 56.1318168640
6.8522219658 -37.9627571106 55.9376831055
6.8557972908 -38.0042800903 55.7451705933
6.8604273796 -38.0533332825 55.5537567139
6.8649272919 -38.1014518738 55.3622627258
6.8680043221 -38.1394119263 55.1693687439
6.8687243462 -38.1605415344 54.9741058350
6.8667392731 -38.1623649597 54.7760848999
6.8625054359 -38.1481361389 54.5757369995
6.8572673798 -38.1267471313 54.3743209839
6.8524818420 -38.1085891724 54.1733360291
6.8490562439 -38.1001434326 53.9737281799
6.8471355438 -38.1024322510 53.7756729126
6.8465518951 -38.1142654419 53.5790138245
6.8473825455 -38.1361846924 53.3838462830
6.8499689102 -38.1706314087 53.1905517578
6.8543734550 -38.2180480957 52.9992256165
6.8598890305 -38.2733879089 52.8091354370
6.8652420044 -38.3275604248 52.6189231873
6.8693528175 -38.3728675842 52.4274253845
6.8718895912 -38.4069442749 52.2342681885
6.8731651306 -38.4320259094 52.0397682190
6.8736758232 -38.4516487122 51.8444519043
6.8737769127 -38.4683532715 51.6486968994
6.8736290932 -38.4832801819 51.4526786804
6.8732628822 -38.4966468811 51.2564201355
6.8726372719 -38.5081672668 51.0598754883
6.8716831207 -38.5173416138 50.8629684448
6.8703355789 -38.5237159729 50.6656188965
6.8685579300 -38.5270195007 50.4677810669
6.8663349152 -38.5271530151 50.2694282532
6.8636579514 -38.5240478516 50.0705490112
6.8605141640 -38.5176200867 49.8711242676
6.8569231033 -38.5080032349 49.6711654663
6.8529982567 -38.4960098267 49.4707984924
6.8489971161 -38.4834785461 49.2703132629
6.8452997208 -38.4731101990 49.0701522827
6.8423027992 -38.4677391052 48.8707733154
6.8402857780 -38.4693489075 48.6725158691
6.8393368721 -38.4785728455 48.4754943848
6.8393964767 -38.4949836731 48.2796516418
6.8403706551 -38.5179061890 48.0848884583
6.8421735764 -38.5467376709 47.8911247253
6.8446359634 -38.5802612305 47.6981620789
6.8474087715 -38.6159973145 47.5055999756
6.8500480652 -38.6507759094 47.3129081726
6.8522272110 -38.6822776794 47.1196937561
6.8538460732 -38.7097854614 46.9258346558
6.8549513817 -38.7336311340 46.7313728333
6.8556222916 -38.7543869019 46.5363998413
6.8559646606 -38.7727966309 46.3410377502
6.8561649323 -38.7901954651 46.1455154419
6.8564515114 -38.8082084656 45.9501037598
6.8569078445 -38.8274307251 45.7549133301
6.8573241234 -38.8463668823 45.5596809387
6.8573246002 -38.8623428345 45.3639411926
6.8566679955 -38.8736381531 45.1673927307
6.8554005623 -38.8805847168 44.9700851440
6.8537416458 -38.8847427368 44.7722778320
6.8518753052 -38.8874282837 44.5742034912
6.8498163223 -38.8887405396 44.3758735657
6.8473844528 -38.8874053955 44.1770591736
6.8443446159 -38.8817405701 43.9774551392
6.8407039642 -38.8718032837 43.7770690918
6.8369312286 -38.8609237671 43.5764808655
6.8337445259 -38.8542213440 43.3766212463
6.8315014839 -38.8542327881 43.1779556274
6.8296847343 -38.8572807312 42.9798278809
6.8270435333 -38.8544616699 42.7806205750
6.8224611282 -38.8378334045 42.5788650513
6.8159427643 -38.8074378967 42.3745498657
6.8088560104 -38.7729988098 42.1694335938
6.8031325340 -38.7482643127 41.9660530090
6.8000502586 -38.7423210144 41.7661132813
6.7995796204 -38.7549552917 41.5696144104
6.8007373810 -38.7791709900 41.3752861023
6.8024144173 -38.8070793152 41.1816596985
6.8038935661 -38.8335762024 40.9877967834
6.8048830032 -38.8565940857 40.7932891846
6.8053469658 -38.8758697510 40.5980949402
6.8053627014 -38.8919601440 40.4023017883
6.8050785065 -38.9059143066 40.2061080933
6.8047399521 -38.9194831848 40.0098457336
6.8046579361 -38.9348754883 39.8139343262
6.8050360680 -38.9535408020 39.6186637878
6.8058004379 -38.9749488831 39.4239273071
6.8066844940 -38.9972076416 39.2293739319
6.8075160980 -39.0190887451 39.0347595215
6.8084020615 -39.0413589478 38.8402328491
6.8096795082 -39.0664100647 38.6462707520
6.8117794991 -39.0973052979 38.4534721375
6.8150959015 -39.1368408203 38.2624015808
6.8198623657 -39.1866798401 38.0734062195
6.8260827065 -39.2468452454 37.8865089417
6.8335590363 -39.3159332275 37.7014503479
6.8418960571 -39.3911285400 37.5176849365
6.8503994942 -39.4674987793 37.3342399597
6.8580765724 -39.5379905701 37.1496963501
6.8639230728 -39.5954742432 36.9626045227
6.8673334122 -39.6356430054 36.7720718384
6.8682813644 -39.6583213806 36.5780296326
6.8671212196 -39.6660270691 36.3809509277
6.8641462326 -39.6608390808 36.1812362671
6.8592925072 -39.6423110962 35.9787712097
6.8523445129 -39.6089096069 35.7732086182
6.8436203003 -39.5629043579 35.5649948120
6.8345098495 -39.5141563416 35.3561401367
6.8270597458 -39.4772071838 35.1496543884
6.8227763176 -39.4627494812 34.9477844238
6.8218445778 -39.4720916748 34.7508506775
6.8235173225 -39.4999237061 34.5577850342
6.8269367218 -39.5401496887 34.3673439026
6.8313274384 -39.5872726440 34.1783905029
6.8357243538 -39.6344375610 33.9894943237
6.8391265869 -39.6745338440 33.7991485596
6.8411183357 -39.7046203613 33.6067085266
6.8420567513 -39.7272262573 33.4127006531
6.8425178528 -39.7464408875 33.2179832458
6.8427376747 -39.7639427185 33.0229072571
6.8426494598 -39.7792625427 32.8273696899
6.8422055244 -39.7920532227 32.6312942505
6.8414893150 -39.8029136658 32.4348030090
6.8406071663 -39.8125991821 32.2380561829
6.8395919800 -39.8213348389 32.0411033630
6.8383998871 -39.8288230896 31.8438720703
6.8369741440 -39.8346481323 31.6462726593
6.8353319168 -39.8389434814 31.4483318329
6.8336658478 -39.8430633545 31.2503433228
6.8324093819 -39.8500976563 31.0529899597
6.8322043419 -39.8645820618 30.8572807312
6.8336744308 -39.8909530640 30.6642169952
6.8370304108 -39.9306945801 30.4741535187
6.8417706490 -39.9802474976 30.2863178253
6.8468651772 -40.0323104858 30.0990943909
6.8513984680 -40.0803871155 29.9110279083
6.8550620079 -40.1222991943 29.7216186523
6.8580365181 -40.1593170166 29.5311450958
6.8605175018 -40.1928367615 29.3399105072
6.8625082970 -40.2228775024 29.1479148865
6.8640012741 -40.2493896484 28.9551391602
6.8651924133 -40.2737541199 28.7618923187
6.8664684296 -40.2987251282 28.5688018799
6.8682169914 -40.3270416260 28.3764991760
6.8705816269 -40.3597221375 28.1852245331
6.8733186722 -40.3950424194 27.9945869446
6.8758487701 -40.4288902283 27.8036403656
6.8774304390 -40.4560165405 27.6111602783
6.8773913383 -40.4716567993 27.4160251617
6.8754434586 -40.4737701416 27.2177333832
6.8719458580 -40.4649047852 27.0168571472
6.8677558899 -40.4511337280 26.8148040771
6.8636937141 -40.4382743835 26.6129322052
6.8601098061 -40.4288024902 26.4118309021
6.8569169044 -40.4221038818 26.2113609314
6.8539800644 -40.4172172546 26.0112991333
6.8515644073 -40.4160308838 25.8120956421
6.8504905701 -40.4243431091 25.6151485443
6.8517298698 -40.4490470886 25.4221210480
6.8556609154 -40.4928016663 25.2336883545
6.8617124557 -40.5515785217 25.0489139557
6.8688588142 -40.6180992126 24.8660717010
6.8763961792 -40.6873855591 24.6839675903
6.8841223717 -40.7580032349 24.5022640228
6.8918719292 -40.8287773132 24.3206768036
6.8991341591 -40.8960952759 24.1383209229
6.9051690102 -40.9547195435 23.9539108276
6.9093642235 -41.0003166199 23.7663669586
6.9114875793 -41.0312423706 23.5752582550
6.9117107391 -41.0487136841 23.3808593750
6.9103736877 -41.0551414490 23.1837387085
6.9075841904 -41.0512924194 22.9840641022
6.9029798508 -41.0345993042 22.7811794281
6.8960418701 -41.0013923645 22.5741443634
6.8868899345 -40.9525222778 22.3631401062
6.8768372536 -40.8972854614 22.1504631042
6.8679933548 -40.8506088257 21.9398498535
6.8622841835 -40.8261184692 21.7347488403
6.8608908653 -40.8321685791 21.5373096466
6.8642416000 -40.8717803955 21.3483543396
6.8718962669 -40.9418373108 21.1671619415
6.8823270798 -41.0315284729 20.9910354614
6.8933062553 -41.1250915527 20.8159999847
6.9029035568 -41.2088699341 20.6385688782
6.9101758003 -41.2761955261 20.4570159912
6.9150414467 -41.3264923096 20.2711620331
6.9177794456 -41.3617362976 20.0814819336
6.9187488556 -41.3844757080 19.8886032104
6.9184460640 -41.3982162476 19.6934108734
6.9176015854 -41.4081268311 19.4972305298
6.9170432091 -41.4200553894 19.3015727997
6.9173116684 -41.4378395081 19.1074409485
6.9183611870 -41.4611358643 18.9147624969
6.9196619987 -41.4862098694 18.7225627899
6.9206161499 -41.5088348389 18.5297393799
6.9208683968 -41.5264930725 18.3356227875
6.9203023911 -41.5383682251 18.1399879456
6.9189128876 -41.5444259644 17.9428157806
6.9167551994 -41.5450477600 17.7441940308
6.9139933586 -41.5414047241 17.5444259644
6.9109663963 -41.5358886719 17.3441390991
6.9082088470 -41.5322799683 17.1443424225
6.9064240456 -41.5355453491 16.9463653564
6.9064016342 -41.5512657166 16.7517242432
6.9088349342 -41.5843353271 16.5617580414
6.9139952660 -41.6366729736 16.3770198822
6.9214210510 -41.7050056458 16.1966609955
6.9299387932 -41.7810516357 16.0184650421
6.9380908012 -41.8545074463 15.8396501541
6.9446721077 -41.9168624878 15.6578922272
6.9490747452 -41.9638175964 15.4719972610
6.9514112473 -41.9961814880 15.2821550369
6.9524893761 -42.0196533203 15.0899019241
6.9536004066 -42.0433578491 14.8977279663
6.9560365677 -42.0764160156 14.7081489563
6.9604740143 -42.1236038208 14.5225019455
6.9667072296 -42.1834716797 14.3404121399
6.9739761353 -42.2506484985 14.1604146957
6.9814405441 -42.3191986084 13.9808721542
6.9882903099 -42.3833999634 13.8001909256
6.9937081337 -42.4374885559 13.6167526245
6.9970984459 -42.4772605896 13.4293594360
6.9984183311 -42.5024108887 13.2378988266
6.9982352257 -42.5169525146 13.0434703827
6.9974837303 -42.5274810791 12.8479156494
6.9971003532 -42.5406112671 12.6530942917
6.9976673126 -42.5604438782 12.4601764679
6.9992308617 -42.5873146057 12.2692680359
7.0014066696 -42.6184997559 12.0796089172
7.0036692619 -42.6502952576 11.8901491165
7.0056676865 -42.6802291870 11.7001848221
7.0074753761 -42.7088088989 11.5098581314
7.0096168518 -42.7397422791 11.3202285767
7.0127859116 -42.7779273987 11.1327133179
7.0173826218 -42.8261833191 10.9481382370
7.0231757164 -42.8828697205 10.7660512924
7.0293431282 -42.9421920776 10.5847854614
7.0348510742 -42.9968605042 10.4022312164
7.0389132500 -43.0413284302 10.2167644501
7.0412478447 -43.0736045837 10.0277833939
7.0420188904 -43.0948524475 9.8356056213
7.0415630341 -43.1074447632 9.6409053802
7.0401139259 -43.1130371094 9.4441499710
7.0376968384 -43.1118011475 9.2453775406
7.0342721939 -43.1034622192 9.0444955826
7.0300717354 -43.0896568298 8.8419704437
7.0258517265 -43.0757141113 8.6393747330
7.0227766037 -43.0698432922 8.4391431808
7.0219092369 -43.0795440674 8.2435226440
7.0236544609 -43.1076583862 8.0533933640
7.0275516510 -43.1509399414 7.8678197861
7.0326480865 -43.2026710510 7.6848192215
7.0382466316 -43.2579421997 7.5029325485
7.0444145203 -43.3172187805 7.3223090172
7.0517883301 -43.3849868774 7.1443085670
7.0608706474 -43.4647903442 6.9700179100
7.0714311600 -43.5550041199 6.7989683151
7.0824174881 -43.6482086182 6.6289291382
7.0923671722 -43.7341003418 6.4567723274
7.1000256538 -43.8038444519 6.2797932625
7.1048192978 -43.8533935547 6.0967240334
7.1069555283 -43.8842201233 5.9079737663
7.1071734428 -43.9015312195 5.7151055336
7.1063542366 -43.9115333557 5.5200004578
7.1052370071 -43.9194374084 5.3242468834
7.1043496132 -43.9289627075 5.1289901733
7.1040754318 -43.9428062439 4.9350671768
7.1047163010 -43.9630928040 4.7431449890
7.1064486504 -43.9910659790 4.5536222458
7.1091933250 -44.0261650085 4.3663387299
7.1125869751 -44.0658340454 4.1805114746
7.1162214279 -44.1071929932 3.9952502251
7.1199464798 -44.1491851807 3.8102266788
7.1238689423 -44.1925697327 3.6256794930
7.1280770302 -44.2379570007 3.4418058395
7.1324815750 -44.2847251892 3.2584109306
7.1368961334 -44.3315620422 3.0750839710
7.1411008835 -44.3769149780 2.8913354874
7.1448268890 -44.4188995361 2.7065627575
7.1478977203 -44.4562644958 2.5203635693
7.1505045891 -44.4903602600 2.3331577778
7.1531815529 -44.5249519348 2.1461396217
7.1562914848 -44.5625877380 1.9601254463
7.1595177650 -44.6010360718 1.7744071484
7.1620478630 -44.6345863342 1.5871521235
7.1633448601 -44.6594543457 1.3971349001
7.1636404991 -44.6772766113 1.2048646212
7.1637005806 -44.6934394836 1.0120687485
7.1643748283 -44.7139244080 0.8206773996
7.1664485931 -44.7442550659 0.6324901581
7.1705708504 -44.7889938354 0.4490084350
7.1768870354 -44.8491592407 0.2705920935
7.1846957207 -44.9198188782 0.0956612974
-4.9013128281 -38.0398178101 80.6039581299
-4.9002065659 -38.0210037231 80.4060745239
-4.8972644806 -37.9918594360 80.2075119019
-4.8943152428 -37.9626731873 80.0088882446
-4.8926157951 -37.9405174255 79.8106689453
-4.8923158646 -37.9262313843 79.6129150391
-4.8928093910 -37.9164123535 79.4154129028
-4.8934183121 -37.9072380066 79.2179260254
-4.8937349319 -37.8964195251 79.0203094482
-4.8936147690 -37.8831405640 78.8225021362
-4.8931107521 -37.8676986694 78.6245193481
-4.8923983574 -37.8510818481 78.4264221191
-4.8916549683 -37.8342895508 78.2282867432
-4.8910441399 -37.8182373047 78.0301589966
-4.8908910751 -37.8047637939 77.8321838379
-4.8917565346 -37.7970199585 77.6345748901
-4.8940787315 -37.7974815369 77.4375305176
-4.8976922035 -37.8052101135 77.2409973145
-4.9018826485 -37.8161888123 77.0446929932
-4.9059848785 -37.8266716003 76.8483505249
-4.9098377228 -37.8357467651 76.6519088745
-4.9137167931 -37.8449707031 76.4554748535
-4.9180178642 -37.8565750122 76.2592163086
-4.9230418205 -37.8722457886 76.0632705688
-4.9288430214 -37.8922996521 75.8676605225
-4.9350733757 -37.9147682190 75.6722564697
-4.9410343170 -37.9357185364 75.4767379761
-4.9460687637 -37.9514541626 75.2808380127
-4.9498929977 -37.9603729248 75.0844039917
-4.9524712563 -37.9622688293 74.8874130249
-4.9538087845 -37.9571762085 74.6898498535
-4.9541611671 -37.9465332031 74.4918212891
-4.9542899132 -37.9346237183 74.2936630249
-4.9551663399 -37.9269294739 74.0958251953
-4.9573850632 -37.9267959595 73.8985824585
-4.9609408379 -37.9342002869 73.7019577026
-4.9654707909 -37.9470863342 73.5057830811
-4.9706120491 -37.9634246826 73.3099060059
-4.9762625694 -37.9826278687 73.1142807007
-4.9825558662 -38.0054550171 72.9189834595
-4.9895191193 -38.0320625305 72.7240219116
-4.9967451096 -38.0601501465 72.5292053223
-5.0034785271 -38.0854644775 72.3341751099
-5.0090298653 -38.1041145325 72.1385726929
-5.0130486488 -38.1141281128 71.9422149658
-5.0154857635 -38.1152267456 71.7450637817
-5.0164766312 -38.1081657410 71.5471649170
-5.0163564682 -38.0948448181 71.3486709595
-5.0156760216 -38.0783615112 71.1498641968
-5.0150084496 -38.0619468689 70.9510269165
-5.0146813393 -38.0474510193 70.7523269653
-5.0147480965 -38.0351753235 70.5538101196
-5.0152268410 -38.0252189636 70.3554840088
-5.0163240433 -38.0187492371 70.1574554443
-5.0184059143 -38.0178298950 69.9599380493
-5.0216870308 -38.0236778259 69.7630538940
-5.0258145332 -38.0342941284 69.5666275024
-5.0297365189 -38.0437507629 69.3700866699
-5.0322175026 -38.0450820923 69.1727523804
-5.0327835083 -38.0356101990 68.9743347168
-5.0322480202 -38.0199241638 68.7752838135
-5.0321788788 -38.0068664551 68.5764617920
-5.0337162018 -38.0028686523 68.3785247803
-5.0368666649 -38.0079727173 68.1814804077
-5.0407958031 -38.0174636841 67.9848785400
-5.0445837975 -38.0261650085 67.7881927490
-5.0477113724 -38.0311355591 67.5911178589
-5.0501341820 -38.0321311951 67.3936309814
-5.0521531105 -38.0308456421 67.1958923340
-5.0542335510 -38.0299072266 66.9981765747
-5.0568494797 -38.0319900513 66.8007659912
-5.0604224205 -38.0394706726 66.6039123535
-5.0653252602 -38.0544586182 66.4078598022
-5.0718140602 -38.0783958435 66.2127685547
-5.0798430443 -38.1110305786 66.0186386108
-5.0889668465 -38.1498451233 65.8252105713
-5.0985460281 -38.1912307739 65.6320953369
-5.1080651283 -38.2322807312 65.4389801025
-5.1172013283 -38.2711715698 65.2456665039
-5.1256947517 -38.3064346313 65.0519943237
-5.1333813667 -38.3371467590 64.8578414917
-5.1403121948 -38.3635940552 64.6632308960
-5.1465950012 -38.3863868713 64.4682312012
-5.1520304680 -38.4043922424 64.2727050781
-5.1560316086 -38.4142990112 64.0762634277
-5.1580061913 -38.4127655029 63.8785018921
-5.1577935219 -38.3988800049 63.6793022156
-5.1557230949 -38.3744964600 63.4788475037
-5.1522397995 -38.3421401978 63.2774200439
-5.1475286484 -38.3028373718 63.0751228333
