28.3972892761 -27.6474876404 31.0776329041
28.4185047150 -27.6726493835 30.8854713440
28.4403266907 -27.6984367371 30.6935291290
28.4596576691 -27.7216453552 30.5008296967
28.4747982025 -27.7405223846 30.3068237305
28.4850540161 -27.7543411255 30.1112785339
28.4902286530 -27.7629051208 29.9141197205
28.4910678864 -27.7669830322 29.7155704498
28.4899787903 -27.7690677643 29.5163955688
28.4906425476 -27.7729644775 29.3177700043
28.4963111877 -27.7820396423 29.1207504272
28.5085659027 -27.7979278564 28.9258651733
28.5277957916 -27.8210296631 28.7332553864
28.5540981293 -27.8514499664 28.5429725647
28.5867061615 -27.8883914948 28.3547878265
28.6226081848 -27.9287395477 28.1677284241
28.6568298340 -27.9673480988 27.9801731110
28.6849536896 -27.9996490479 27.7906627655
28.7055072784 -28.0241184235 27.5986919403
28.7201404572 -28.0424633026 27.4047870636
28.7320575714 -28.0579986572 27.2099971771
28.7441768646 -28.0737438202 27.0152854919
28.7577438354 -28.0909843445 26.8210678101
28.7718906403 -28.1088275909 26.6270580292
28.7846469879 -28.1252288818 26.4325981140
28.7947101593 -28.1388454437 26.2372436523
28.8023738861 -28.1499824524 26.0410861969
28.8090686798 -28.1601142883 25.8446044922
28.8165550232 -28.1710681915 25.6483936310
28.8266143799 -28.1846790314 25.4530601501
28.8409385681 -28.2027034760 25.2591896057
28.8605709076 -28.2262153625 25.0671501160
28.8850021362 -28.2546901703 24.8767814636
28.9119720459 -28.2857894897 24.6873188019
28.9384460449 -28.3163776398 24.4977264404
28.9618701935 -28.3438091278 24.3071155548
28.9806213379 -28.3664073944 24.1149158478
28.9940357208 -28.3834896088 23.9208869934
29.0025806427 -28.3955326080 23.7251739502
29.0077743530 -28.4041118622 23.5282955170
29.0115108490 -28.4111843109 23.3309040070
29.0152988434 -28.4183082581 23.1335277557
29.0199794769 -28.4263572693 22.9364604950
29.0258560181 -28.4356441498 22.7398147583
29.0328922272 -28.4461269379 22.5435791016
29.0408267975 -28.4575386047 22.3476638794
29.0492553711 -28.4694633484 22.1519279480
29.0577239990 -28.4814281464 21.9562129974
29.0658588409 -28.4930477142 21.7603816986
29.0735683441 -28.5042285919 21.5644016266
29.0812721252 -28.5154018402 21.3684234619
29.0901336670 -28.5277729034 21.1728668213
29.1020507813 -28.5433044434 20.9784183502
29.1189632416 -28.5639972687 20.7857894897
29.1417846680 -28.5908012390 20.5953273773
29.1699256897 -28.6231021881 20.4068317413
29.2014522552 -28.6589050293 20.2196140289
29.2331409454 -28.6948738098 20.0325012207
29.2610359192 -28.7269172668 19.8440437317
29.2824440002 -28.7522563934 19.6532421112
29.2976074219 -28.7711391449 19.4601688385
29.3089752197 -28.7860984802 19.2657070160
29.3190307617 -28.7997016907 19.0707721710
29.3289299011 -28.8131427765 18.8757839203
29.3384437561 -28.8261852264 18.6806621552
29.3464832306 -28.8377017975 18.4849948883
29.3518619537 -28.8464717865 18.2883377075
29.3546028137 -28.8525104523 18.0906887054
29.3572807312 -28.8584861755 17.8930110931
29.3648662567 -28.8695354462 17.6971778870
29.3819103241 -28.8903617859 17.5049190521
29.4089317322 -28.9214992523 17.3164596558
29.4417324066 -28.9586086273 17.1302318573
29.4746723175 -28.9958610535 16.9441070557
29.5045509338 -29.0299510956 16.7568645477
29.5314216614 -29.0609302521 16.5685157776
29.5564632416 -29.0900173187 16.3795032501
29.5799598694 -29.1175079346 16.1899337769
29.6014728546 -29.1429481506 15.9996328354
29.6211204529 -29.1664600372 15.8086395264
29.6398181915 -29.1889896393 15.6173048019
29.6584129333 -29.2114124298 15.4259529114
29.6773014069 -29.2341384888 15.2347383499
29.6970615387 -29.2577648163 15.0438880920
29.7188148499 -29.2834510803 14.8538408279
29.7435207367 -29.3121871948 14.6649789810
29.7709217072 -29.3437080383 14.4772090912
29.7995948792 -29.3765430450 14.2899789810
29.8284473419 -29.4095611572 14.1028623581
29.8581047058 -29.4434127808 13.9161052704
29.8903160095 -29.4799022675 13.7304029465
29.9258365631 -29.5198097229 13.5460624695
29.9631366730 -29.5615539551 13.3624839783
29.9992446899 -29.6020679474 13.1784887314
30.0316352844 -29.6387386322 12.9930629730
30.0590972900 -29.6703166962 12.8057107925
30.0808143616 -29.6959571838 12.6160907745
30.0953884125 -29.7142181396 12.4236259460
30.1018390656 -29.7240867615 12.2278995514
30.1016273499 -29.7270698547 12.0294799805
30.0988502502 -29.7274017334 11.8300104141
30.0982246399 -29.7299575806 11.6313982010
30.1032180786 -29.7383213043 11.4350614548
30.1156597137 -29.7543773651 11.2417621613
30.1359214783 -29.7785129547 11.0516729355
30.1630783081 -29.8097705841 10.8644351959
30.1953697205 -29.8463325500 10.6793460846
30.2308235168 -29.8861637115 10.4956073761
30.2676067352 -29.9273643494 10.3124704361
30.3043766022 -29.9685497284 10.1293859482
30.3407821655 -30.0093593597 9.9462060928
30.3771572113 -30.0501365662 9.7630701065
30.4132022858 -30.0905704498 9.5798521042
30.4470710754 -30.1287555695 9.3957824707
30.4760475159 -30.1618881226 9.2097187042
30.4982204437 -30.1879901886 9.0208463669
30.5136661530 -30.2071456909 8.8291797638
30.5243225098 -30.2213516235 8.6355142593
30.5329437256 -30.2334556580 8.4409999847
30.5422153473 -30.2462329865 8.2467651367
30.5545196533 -30.2621402740 8.0538215637
30.5718002319 -30.2831878662 7.8630018234
30.5949268341 -30.3102741241 7.6746912003
30.6228733063 -30.3423366547 7.4884657860
30.6526527405 -30.3762912750 7.3030643463
30.6804580688 -30.4082088470 7.1168627739
30.7033367157 -30.4350357056 6.9285864830
30.7202816010 -30.4557323456 6.7377891541
30.7321472168 -30.4711856842 6.5448246002
30.7406711578 -30.4831867218 6.3504276276
30.7474250793 -30.4933605194 6.1552696228
30.7533569336 -30.5026836395 5.9597563744
30.7590007782 -30.5117111206 5.7641181946
30.7650699615 -30.5211772919 5.5686650276
30.7728691101 -30.5324306488 5.3739671707
30.7840938568 -30.5472202301 5.1807713509
30.7999839783 -30.5668296814 4.9896302223
30.8207283020 -30.5914478302 4.8006391525
30.8458805084 -30.6206188202 4.6136155128
30.8751811981 -30.6540718079 4.4284567833
30.9084796906 -30.6916542053 4.2451081276
30.9451446533 -30.7327098846 4.0633010864
30.9843139648 -30.7763519287 3.8826615810
31.0254669189 -30.8220405579 3.7029664516
31.0676746368 -30.8688182831 3.5238056183
31.1083335876 -30.9139938354 3.3440198898
31.1440200806 -30.9540348053 3.1620731354
31.1732482910 -30.9874076843 2.9772856236
31.1979312897 -31.0160865784 2.7904984951
31.2218761444 -31.0440044403 2.6034140587
31.2480564117 -31.0742282867 2.4173712730
31.2771587372 -31.1074676514 2.2326867580
31.3080921173 -31.1425971985 2.0488748550
31.3391532898 -31.1778583527 1.8651671410
31.3686275482 -31.2114810944 1.6807837486
31.3952789307 -31.2421875000 1.4951573610
31.4191055298 -31.2699775696 1.3082784414
31.4412841797 -31.2960662842 1.1206798553
31.4627056122 -31.3213710785 0.9327628613
31.4828014374 -31.3453102112 0.7442663908
31.5007686615 -31.3670482635 0.5548155904
31.5180187225 -31.3880481720 0.3650568426
31.5385704041 -31.4124546051 0.1768447459
18.0716228485 -32.9925498962 80.5597763062
18.0675106049 -32.9891357422 80.3622665405
18.0632400513 -32.9854011536 80.1647186279
18.0608272552 -32.9854888916 79.9674072266
18.0608825684 -32.9906539917 79.7704391479
18.0619392395 -32.9978752136 79.5736083984
18.0615348816 -33.0020942688 79.3765563965
18.0579509735 -32.9997711182 79.1790313721
18.0509681702 -32.9904594421 78.9809799194
18.0415401459 -32.9761199951 78.7825393677
18.0312919617 -32.9600906372 78.5839385986
18.0223751068 -32.9468040466 78.3854980469
18.0171756744 -32.9411582947 78.1876068115
18.0172615051 -32.9463920593 77.9905090332
18.0223350525 -32.9618797302 77.7941894531
18.0304775238 -32.9836807251 77.5983581543
18.0395488739 -33.0073890686 77.4026947021
18.0481224060 -33.0300788879 77.2069702148
18.0553607941 -33.0500144958 77.0110473633
18.0605697632 -33.0657844543 76.8147964478
18.0632133484 -33.0762748718 76.6181335449
18.0631847382 -33.0812721252 76.4210205078
18.0609588623 -33.0817451477 76.2235336304
18.0574073792 -33.0794944763 76.0258026123
18.0534591675 -33.0764274597 75.8279876709
18.0497188568 -33.0737953186 75.6301956177
18.0463581085 -33.0719375610 75.4324417114
18.0433158875 -33.0707359314 75.2347335815
18.0406951904 -33.0704040527 75.0370788574
18.0390052795 -33.0719833374 74.8395767212
18.0390777588 -33.0771903992 74.6423797607
18.0418090820 -33.0878639221 74.4456558228
18.0478172302 -33.1052742004 74.2495269775
18.0570316315 -33.1292724609 74.0540084839
18.0683403015 -33.1575813293 73.8588867188
18.0798072815 -33.1862144470 73.6638259888
18.0896930695 -33.2115974426 73.4684906006
18.0975265503 -33.2327575684 73.2727813721
18.1040115356 -33.2511444092 73.0768356323
18.1096553802 -33.2678031921 72.8807373047
18.1135482788 -33.2808647156 72.6843032837
18.1137619019 -33.2863578796 72.4871520996
18.1090755463 -33.2817802429 72.2890319824
18.1002006531 -33.2685890198 72.0900573730
18.0892658234 -33.2511711121 71.8906402588
18.0783615112 -33.2338104248 71.6911849976
18.0685768127 -33.2187538147 71.4919281006
18.0600433350 -33.2062721252 71.2928771973
18.0524711609 -33.1957664490 71.0940017700
18.0457782745 -33.1870689392 70.8952789307
18.0404529572 -33.1811828613 70.6968078613
18.0372600555 -33.1796798706 70.4987640381
18.0363464355 -33.1828613281 70.3011856079
18.0368003845 -33.1888542175 70.1038894653
18.0372619629 -33.1948661804 69.9065856934
18.0368671417 -33.1991157532 69.7090911865
18.0355319977 -33.2014350891 69.5113830566
18.0336742401 -33.2026748657 69.3135528564
18.0319385529 -33.2041702271 69.1157379150
18.0311717987 -33.2076568604 68.9181137085
18.0323791504 -33.2151985168 68.7209320068
18.0363693237 -33.2284622192 68.5243606567
18.0430431366 -33.2472419739 68.3283996582
18.0509471893 -33.2685470581 68.1327362061
18.0577659607 -33.2876243591 67.9368362427
18.0614070892 -33.3001632690 67.7402114868
18.0607070923 -33.3037910461 67.5425872803
18.0555534363 -33.2982635498 67.3439254761
18.0469837189 -33.2857170105 67.1444320679
18.0372180939 -33.2707138062 66.9446258545
18.0290565491 -33.2590065002 66.7451629639
18.0248107910 -33.2553482056 66.5466079712
18.0256366730 -33.2621116638 66.3492431641
18.0313854218 -33.2789878845 66.1530685425
18.0405788422 -33.3029441833 65.9577331543
18.0506572723 -33.3287124634 65.7626342773
18.0589084625 -33.3507308960 65.5671081543
18.0636196136 -33.3654785156 65.3707199097
18.0645122528 -33.3723754883 65.1733932495
18.0622692108 -33.3728294373 64.9752731323
18.0578346252 -33.3687858582 64.7765884399
18.0520172119 -33.3619041443 64.5775375366
18.0454216003 -33.3534164429 64.3782577515
18.0385761261 -33.3444213867 64.1788940430
18.0321464539 -33.3362808228 63.9796066284
18.0270328522 -33.3308448792 63.7806358337
18.0242881775 -33.3302726746 63.5822563171
18.0249633789 -33.3367309570 63.3847541809
18.0299072266 -33.3519515991 63.1883697510
18.0394096375 -33.3765411377 62.9931945801
18.0527324677 -33.4089736938 62.7990570068
18.0681037903 -33.4456138611 62.6054954529
18.0836410522 -33.4825935364 62.4120140076
18.0986366272 -33.5184593201 62.2184219360
18.1139907837 -33.5550613403 62.0249671936
18.1311302185 -33.5953292847 61.8320312500
18.1501407623 -33.6394424438 61.6396484375
18.1688270569 -33.6828842163 61.4472274780
18.1838817596 -33.7188682556 61.2538414001
18.1932125092 -33.7430915833 61.0588989258
18.1970691681 -33.7560806274 60.8624420166
18.1972084045 -33.7614288330 60.6649398804
18.1954021454 -33.7627868652 60.4668846130
18.1926765442 -33.7622528076 60.2685508728
18.1892528534 -33.7602882385 60.0700035095
18.1846942902 -33.7559890747 59.8711090088
18.1780147552 -33.7473411560 59.6715850830
18.1680564880 -33.7319602966 59.4710845947
18.1542186737 -33.7086143494 59.2694129944
18.1371707916 -33.6786766052 59.0667572021
18.1189594269 -33.6463508606 58.8637008667
18.1022834778 -33.6171836853 58.6610374451
18.0893592834 -33.5957145691 58.4594345093
18.0810184479 -33.5836601257 58.2591552734
18.0766220093 -33.5797080994 58.0600280762
18.0747051239 -33.5808410645 57.8616256714
18.0737800598 -33.5840148926 57.6635131836
18.0730190277 -33.5875244141 57.4654388428
18.0727386475 -33.5920219421 57.2675056458
18.0741882324 -33.6000671387 57.0700912476
18.0781192780 -33.6132125854 56.8734397888
18.0832862854 -33.6288948059 56.6771736145
18.0870552063 -33.6417007446 56.4804801941
18.0877990723 -33.6483001709 56.2828445435
18.0862007141 -33.6500968933 56.0844650269
18.0841464996 -33.6509513855 55.8859291077
18.0829944611 -33.6536636353 55.6876678467
18.0829792023 -33.6587028503 55.4897537231
18.0836029053 -33.6650581360 55.2920379639
18.0842037201 -33.6713638306 55.0943107605
18.0842666626 -33.6765670776 54.8964004517
18.0835552216 -33.6801834106 54.6982345581
18.0820922852 -33.6822547913 54.4998130798
18.0800762177 -33.6831932068 54.3011970520
18.0777492523 -33.6834907532 54.1024665833
18.0753059387 -33.6835556030 53.9036827087
18.0728683472 -33.6836280823 53.7048835754
18.0705089569 -33.6838607788 53.5060997009
18.0683174133 -33.6844444275 53.3073539734
18.0664749146 -33.6857376099 53.1087112427
18.0652770996 -33.6883544922 52.9102745056
18.0651664734 -33.6932067871 52.7121963501
18.0667247772 -33.7014808655 52.5146751404
18.0705490112 -33.7144088745 52.3179283142
18.0768451691 -33.7324028015 52.1220283508
18.0847454071 -33.7536926270 51.9266929626
18.0920906067 -33.7738456726 51.7311820984
18.0964012146 -33.7877693176 51.5346298218
18.0966300964 -33.7933120728 51.3366546631
18.0940246582 -33.7930488586 51.1376838684
18.0912570953 -33.7924461365 50.9386367798
18.0907363892 -33.7964553833 50.7403717041
18.0935363770 -33.8072814941 50.5432701111
18.0992031097 -33.8239822388 50.3471908569
18.1061897278 -33.8433952332 50.1515922546
18.1128215790 -33.8620834351 49.9558792114
18.1183357239 -33.8784713745 49.7597770691
18.1231040955 -33.8933334351 49.5634078979
18.1279449463 -33.9083442688 49.3670730591
18.1333007813 -33.9244117737 49.1709327698
18.1389160156 -33.9410095215 48.9748954773
18.1438159943 -33.9561386108 48.7786026001
18.1464900970 -33.9667053223 48.5814933777
18.1456527710 -33.9700698853 48.3830871582
18.1415309906 -33.9666938782 48.1834449768
18.1365871429 -33.9616317749 47.9834785461
18.1348056793 -33.9630546570 47.7846755981
18.1397094727 -33.9781913757 47.5883712769
18.1521472931 -34.0087852478 47.3949203491
18.1693897247 -34.0492324829 47.2033195496
18.1866607666 -34.0897369385 47.0117683411
18.1998500824 -34.1218681335 46.8187026978
18.2067890167 -34.1411781311 46.6232681274
18.2067813873 -34.1462364197 46.4251747131
18.2006797791 -34.1388053894 46.2247200012
18.1918201447 -34.1257133484 46.0231704712
18.1851825714 -34.1171836853 45.8224525452
18.1842384338 -34.1203231812 45.6239318848
18.1890010834 -34.1351737976 45.4276351929
18.1975669861 -34.1578178406 45.2328414917
18.2084846497 -34.1852912903 45.0389938354
18.2208614349 -34.2157478333 44.8457450867
18.2329654694 -34.2456512451 44.6524200439
18.2421131134 -34.2694892883 44.4579391479
18.2461547852 -34.2828598022 44.2614326477
18.2446060181 -34.2847595215 44.0626792908
18.2383079529 -34.2769241333 43.8619995117
18.2288780212 -34.2626686096 43.6600265503
18.2189311981 -34.2473564148 43.4578094482
18.2120170593 -34.2382621765 43.2567901611
18.2109832764 -34.2412261963 43.0581512451
18.2159328461 -34.2564544678 42.8619575500
18.2242736816 -34.2786369324 42.6671676636
18.2328586578 -34.3013191223 42.4724960327
18.2398242950 -34.3206825256 42.2771682739
18.2447032928 -34.3357696533 42.0809822083
18.2476406097 -34.3468742371 41.8839950562
18.2488708496 -34.3544731140 41.6862869263
18.2487068176 -34.3592224121 41.4879913330
18.2477397919 -34.3623199463 41.2893486023
18.2469692230 -34.3658256531 41.0907783508
18.2476348877 -34.3722724915 40.8928070068
18.2505073547 -34.3832435608 40.6957740784
18.2549476624 -34.3974266052 40.4994087219
18.2587509155 -34.4103088379 40.3027763367
18.2598114014 -34.4175643921 40.1049652100
18.2585525513 -34.4200706482 39.9061470032
18.2584438324 -34.4249267578 39.7078170776
18.2633590698 -34.4400863647 39.5116653442
18.2741775513 -34.4673423767 39.3180961609
18.2879333496 -34.5006256104 39.1258354187
18.3002014160 -34.5308494568 38.9329528809
18.3082580566 -34.5524444580 38.7382392883
18.3123397827 -34.5658950806 38.5417861938
18.3144474030 -34.5752983093 38.3444595337
18.3163719177 -34.5843238831 38.1470527649
18.3187732697 -34.5943298340 37.9498519897
18.3215599060 -34.6051216125 37.7528228760
18.3247261047 -34.6166954041 37.5559692383
18.3289299011 -34.6303939819 37.3595809937
18.3354454041 -34.6488265991 37.1642417908
18.3456115723 -34.6747436523 36.9705734253
18.3601970673 -34.7097167969 36.7789382935
18.3789863586 -34.7533035278 36.5892562866
18.4004039764 -34.8022727966 36.4008216858
18.4214363098 -34.8504524231 36.2122650146
18.4387245178 -34.8909530640 36.0220375061
18.4504661560 -34.9200935364 35.8292846680
18.4573326111 -34.9392433167 35.6342964172
18.4615993500 -34.9530639648 35.4381103516
18.4657649994 -34.9666824341 35.2418823242
18.4718227386 -34.9841766357 35.0465469360
18.4809627533 -35.0079841614 34.8526649475
18.4931583405 -35.0380477905 34.6602401733
18.5069122314 -35.0713043213 34.4685821533
18.5198307037 -35.1028556824 34.2765579224
18.5298042297 -35.1283645630 34.0831642151
18.5358543396 -35.1458396912 33.8879203796
18.5381431580 -35.1556053162 33.6908836365
18.5374717712 -35.1593132019 33.4924316406
18.5348720551 -35.1590652466 33.2930374146
18.5314006805 -35.1570358276 33.0932083130
18.5280437469 -35.1552391052 32.8934173584
18.5256538391 -35.1554222107 32.6940765381
18.5249538422 -35.1590690613 32.4955444336
18.5266780853 -35.1676826477 32.2981872559
18.5316562653 -35.1829643250 32.1024208069
18.5406265259 -35.2064170837 31.9086227417
18.5538196564 -35.2385215759 31.7169227600
18.5709171295 -35.2786216736 31.5271816254
18.5916175842 -35.3261032104 31.3392677307
18.6157550812 -35.3806190491 31.1531143188
18.6420688629 -35.4395904541 30.9681053162
18.6670036316 -35.4957351685 30.7824764252
18.6859722137 -35.5396614075 30.5939216614
18.6965675354 -35.5664367676 30.4012012482
18.7003345490 -35.5792274475 30.2050628662
18.7011966705 -35.5860710144 30.0074577332
18.7023143768 -35.5934371948 29.8099765778
18.7044029236 -35.6027908325 29.6129837036
18.7064952850 -35.6121520996 29.4159927368
18.7075386047 -35.6193695068 29.2184619904
18.7071323395 -35.6236152649 29.0201835632
18.7054500580 -35.6252479553 28.8212394714
18.7033214569 -35.6259689331 28.6220531464
18.7026824951 -35.6297378540 28.4236240387
18.7063484192 -35.6423225403 28.2274169922
18.7162990570 -35.6677742004 28.0344791412
18.7314605713 -35.7038955688 27.8442821503
18.7473297119 -35.7414703369 27.6544914246
18.7582588196 -35.7689247131 27.4621467590
18.7606048584 -35.7788047791 27.2653121948
18.7544670105 -35.7713165283 27.0640029907
18.7431888580 -35.7533073425 26.8599510193
18.7313003540 -35.7340431213 26.6555347443
18.7222862244 -35.7206726074 26.4526042938
18.7175617218 -35.7160835266 26.2519264221
18.7168312073 -35.7196655273 26.0533618927
18.7190971375 -35.7293853760 25.8563938141
18.7235469818 -35.7435760498 25.6605987549
18.7300262451 -35.7619209290 25.4659004211
18.7390365601 -35.7854461670 25.2725811005
18.7511844635 -35.8153915405 25.0809803009
18.7664737701 -35.8517684937 24.8911113739
18.7839851379 -35.8926963806 24.7024898529
18.8021945953 -35.9350433350 24.5142917633
18.8195705414 -35.9756889343 24.3256816864
18.8348770142 -36.0120964050 24.1359786987
18.8470325470 -36.0420570374 23.9445781708
18.8551635742 -36.0637779236 23.7509841919
18.8592357635 -36.0771903992 23.5551586151
18.8605155945 -36.0848846436 23.3577880859
18.8610935211 -36.0911483765 23.1600246429
18.8629360199 -36.0999984741 22.9629592896
18.8672027588 -36.1138076782 22.7672462463
18.8739051819 -36.1326026917 22.5729026794
18.8819046021 -36.1540489197 22.3792991638
18.8895759583 -36.1748275757 22.1855278015
18.8958969116 -36.1928443909 21.9910068512
18.9010314941 -36.2084274292 21.7958240509
18.9060306549 -36.2237358093 21.6005725861
18.9121761322 -36.2413902283 21.4059791565
18.9204692841 -36.2634391785 21.2126216888
18.9313240051 -36.2907257080 21.0207443237
18.9443950653 -36.3225517273 20.8301620483
18.9587917328 -36.3570861816 20.6403732300
18.9738063812 -36.3928833008 20.4509716034
18.9895687103 -36.4302139282 20.2620391846
19.0067691803 -36.4704818726 20.0739765167
19.0257472992 -36.5143852234 19.8869895935
19.0460720062 -36.5610427856 19.7008323669
19.0667514801 -36.6084289551 19.5149326324
19.0864887238 -36.6538848877 19.3285350800
19.1038837433 -36.6945419312 19.1408100128
19.1179466248 -36.7283859253 18.9511718750
19.1286468506 -36.7553520203 18.7595825195
19.1368198395 -36.7771453857 18.5665245056
19.1434803009 -36.7958412170 18.3725833893
19.1492595673 -36.8127365112 18.1781330109
19.1546764374 -36.8288917542 17.9834766388
19.1608524323 -36.8465957642 17.7892799377
19.1696910858 -36.8697509766 17.5966854095
19.1831073761 -36.9022636414 17.4068508148
19.2018699646 -36.9457168579 17.2202625275
19.2249412537 -36.9979782104 17.0363159180
19.2497215271 -37.0537338257 16.8534584045
19.2730922699 -37.1066055298 16.6698131561
19.2926292419 -37.1516380310 16.4839000702
19.3073215485 -37.1867561340 16.2950916290
19.3174171448 -37.2124710083 16.1035137177
19.3237457275 -37.2304840088 15.9096546173
19.3271694183 -37.2425575256 15.7140293121
19.3284912109 -37.2503280640 15.5171136856
19.3286666870 -37.2557563782 15.3194894791
19.3290824890 -37.2616767883 15.1220064163
19.3316230774 -37.2719421387 14.9258289337
19.3383483887 -37.2907638550 14.7322444916
19.3508243561 -37.3213500977 14.5422458649
19.3695793152 -37.3647651672 14.3561820984
19.3940601349 -37.4198951721 14.1737384796
19.4228172302 -37.4837646484 13.9940338135
19.4535350800 -37.5516471863 13.8156337738
19.4835472107 -37.6180763245 13.6368694305
19.5111827850 -37.6796531677 13.4566898346
19.5368328094 -37.7371635437 13.2753276825
19.5622806549 -37.7942581177 13.0939035416
19.5888900757 -37.8537254333 12.9132814407
19.6163787842 -37.9149894714 12.7332868576
19.6429233551 -37.9743194580 12.5527639389
19.6659774780 -38.0265159607 12.3700809479
19.6830940247 -38.0665664673 12.1836566925
19.6926422119 -38.0911521912 11.9924201965
19.6944980621 -38.1000022888 11.7962579727
19.6903934479 -38.0966758728 11.5962533951
19.6836204529 -38.0878868103 11.3945045471
19.6778964996 -38.0812454224 11.1934080124
19.6759586334 -38.0823478699 10.9947433472
19.6786880493 -38.0929908752 10.7990999222
19.6853885651 -38.1117477417 10.6060428619
19.6949520111 -38.1363563538 10.4148664474
19.7068386078 -38.1657142639 10.2252311707
19.7209568024 -38.1996345520 10.0370855331
19.7369670868 -38.2374191284 9.8502168655
19.7542419434 -38.2777862549 9.6642189026
19.7724075317 -38.3199768066 9.4788522720
19.7913837433 -38.3638229370 9.2940664291
19.8108539581 -38.4086723328 9.1096544266
19.8303089142 -38.4534912109 8.9252815247
19.8496074677 -38.4979972839 8.7408542633
19.8689022064 -38.5424842834 8.5564708710
19.8878326416 -38.5862312317 8.3718919754
19.9051933289 -38.6267662048 8.1863079071
19.9193744659 -38.6608009338 7.9986305237
19.9288768768 -38.6852760315 7.8078355789
19.9328269958 -38.6984062195 7.6133151054
19.9317722321 -38.7013053894 7.4154133797
19.9280796051 -38.6988143921 7.2157130241
19.9251480103 -38.6978797913 7.0165114403
19.9259872437 -38.7046508789 6.8198590279
19.9321994781 -38.7224006653 6.6268668175
19.9437103271 -38.7509765625 6.4375042915
19.9590892792 -38.7874603271 6.2508172989
19.9763927460 -38.8278694153 6.0654864311
19.9940204620 -38.8689422607 5.8804230690
20.0111713409 -38.9090385437 5.6950726509
20.0278949738 -38.9482612610 5.5094685555
20.0448989868 -38.9880599976 5.3241004944
20.0628738403 -39.0298347473 5.1394462585
20.0817222595 -39.0733947754 4.9554438591
20.1005916595 -39.1169967651 4.7715024948
20.1185874939 -39.1588172913 4.5869989395
20.1351718903 -39.1977462769 4.4015517235
20.1500034332 -39.2331008911 4.2149171829
20.1630344391 -39.2647705078 4.0270524025
20.1749515533 -39.2941627502 3.8384344578
20.1870670319 -39.3239669800 3.6499836445
20.2002811432 -39.3560104370 3.4623355865
20.2141532898 -39.3893928528 3.2751832008
20.2271595001 -39.4210128784 3.0874502659
20.2378196716 -39.4478378296 2.8980789185
20.2454795837 -39.4685287476 2.7065923214
20.2502784729 -39.4833793640 2.5130777359
20.2528190613 -39.4936180115 2.3179552555
20.2540550232 -39.5011901855 2.1218962669
20.2553234100 -39.5088310242 1.9258564711
20.2582111359 -39.5197792053 1.7309787273
20.2640361786 -39.5367279053 1.5382193327
20.2731246948 -39.5603408813 1.3478262424
20.2845439911 -39.5887069702 1.1591384411
20.2968616486 -39.6189117432 0.9711282849
20.3095684052 -39.6499099731 0.7834292650
20.3240184784 -39.6844711304 0.5970288515
20.3431720734 -39.7286338806 0.4140946567
20.3703098297 -39.7890968323 0.2370469421
20.4075279236 -39.8701477051 0.0674557984
6.9824647903 -36.8945884705 80.5556793213
6.9824991226 -36.9108505249 80.3593978882
6.9841346741 -36.9386177063 80.1638412476
6.9863061905 -36.9702339172 79.9685363770
6.9880042076 -36.9984474182 79.7730484009
6.9884858131 -37.0179176331 79.5770187378
6.9874019623 -37.0261459351 79.3802795410
6.9848990440 -37.0241775513 79.1828842163
6.9815511703 -37.0161437988 78.9850616455
6.9781413078 -37.0076637268 78.7871932983
6.9754252434 -37.0041694641 78.5896301270
6.9739036560 -37.0092582703 78.3926315308
6.9735565186 -37.0227775574 78.1961975098
6.9737405777 -37.0401115417 78.0000305176
6.9735183716 -37.0545310974 77.8036651611
6.9722762108 -37.0616264343 77.6067962646
6.9700827599 -37.0618896484 77.4094390869
6.9674639702 -37.0590972900 77.2118453979
6.9648971558 -37.0566864014 77.0142669678
6.9625535011 -37.0558738708 76.8167877197
6.9604058266 -37.0564727783 76.6193923950
6.9584679604 -37.0585784912 76.4220962524
6.9569153786 -37.0634460449 76.2249984741
6.9560060501 -37.0729370117 76.0282363892
6.9558572769 -37.0878829956 75.8318862915
6.9562673569 -37.1068420410 75.6358489990
6.9568190575 -37.1268119812 75.4398956299
6.9572114944 -37.1456413269 75.2438659668
6.9575109482 -37.1638031006 75.0477981567
6.9580879211 -37.1839523315 74.8518905640
6.9592986107 -37.2086448669 74.6563568115
6.9611415863 -37.2378807068 74.4612045288
6.9631309509 -37.2681579590 74.2661590576
6.9644980431 -37.2939720154 74.0707778931
6.9645810127 -37.3105735779 73.8746566772
6.9630966187 -37.3159294128 73.6776199341
6.9601283073 -37.3106460571 73.4796829224
6.9559535980 -37.2967109680 73.2810058594
6.9509506226 -37.2768402100 73.0817947388
6.9456810951 -37.2550621033 72.8823776245
6.9409375191 -37.2370529175 72.6832427979
6.9374814034 -37.2282829285 72.4848709106
6.9355769157 -37.2306404114 72.2874450684
6.9348111153 -37.2411613464 72.0907211304
6.9344406128 -37.2545166016 71.8942489624
6.9339265823 -37.2668418884 71.6976852417
6.9331693649 -37.2774238586 71.5009689331
6.9323520660 -37.2875747681 71.3042144775
6.9316549301 -37.2985916138 71.1075363159
6.9310822487 -37.3104972839 70.9109420776
6.9304518700 -37.3219871521 70.7143020630
6.9294929504 -37.3311271667 70.5174560547
6.9279751778 -37.3362579346 70.3202285767
6.9258022308 -37.3367004395 70.1225509644
6.9230475426 -37.3329658508 69.9244689941
6.9199147224 -37.3265304565 69.7261047363
6.9166655540 -37.3192596436 69.5276412964
6.9135351181 -37.3128433228 69.3292388916
6.9106612206 -37.3082656860 69.1309890747
6.9080481529 -37.3055648804 68.9329071045
6.9055862427 -37.3039398193 68.7349166870
6.9031267166 -37.3023338318 68.5369033813
6.9005866051 -37.3001556396 68.3388214111
6.8980097771 -37.2977142334 68.1407012939
6.8955478668 -37.2960968018 67.9426422119
6.8933944702 -37.2966918945 67.7447891235
6.8917217255 -37.3007278442 67.5472793579
6.8906536102 -37.3090934753 67.3502044678
6.8902764320 -37.3224067688 67.1536407471
6.8906254768 -37.3409233093 66.9576187134
6.8915839195 -37.3637962341 66.7620620728
6.8927960396 -37.3884887695 66.5667114258
6.8937811852 -37.4115562439 66.3712081909
6.8942003250 -37.4305686951 66.1752929688
6.8940339088 -37.4453887939 65.9789276123
6.8935627937 -37.4580268860 65.7823410034
6.8932485580 -37.4717903137 65.5858688354
6.8935279846 -37.4897994995 65.3898696899
6.8945078850 -37.5128173828 65.1944351196
6.8957805634 -37.5379371643 64.9992370605
6.8966336250 -37.5600471497 64.8037261963
6.8965058327 -37.5751419067 64.6074523926
6.8952598572 -37.5822296143 64.4102783203
6.8930783272 -37.5826263428 64.2123413086
6.8902068138 -37.5780906677 64.0138320923
6.8867578506 -37.5694198608 63.8148307800
6.8826675415 -37.5561676025 63.6152763367
6.8778257370 -37.5375404358 63.4150733948
6.8723330498 -37.5142593384 63.2142906189
6.8666682243 -37.4897537231 63.0133209229
6.8615336418 -37.4690437317 62.8127517700
6.8575186729 -37.4563407898 62.6130905151
6.8549041748 -37.4536590576 62.4145851135
6.8536872864 -37.4609718323 62.2172584534
6.8536472321 -37.4766998291 62.0209350586
6.8544015884 -37.4981079102 61.8253021240
6.8555083275 -37.5220375061 61.6299896240
6.8565378189 -37.5454139709 61.4346237183
6.8571023941 -37.5654602051 61.2388687134
6.8569240570 -37.5802001953 61.0424690247
6.8559060097 -37.5889320374 60.8453330994
6.8541007042 -37.5920410156 60.6474914551
6.8516993523 -37.5908851624 60.4491081238
6.8491334915 -37.5885543823 60.2505645752
6.8470697403 -37.5898170471 60.0524520874
6.8460397720 -37.5984725952 59.8552703857
6.8459835052 -37.6140823364 59.6589698792
6.8462591171 -37.6320610046 59.4629821777
6.8461527824 -37.6473121643 59.2666511536
6.8453540802 -37.6576194763 59.0696830750
6.8440189362 -37.6640853882 58.8722152710
6.8425221443 -37.6694030762 58.6745910645
6.8411641121 -37.6757125854 58.4770927429
6.8400168419 -37.6835250854 58.2797851563
6.8390288353 -37.6924781799 58.0826225281
6.8382496834 -37.7029228210 57.8856582642
6.8378057480 -37.7157630920 57.6890144348
6.8376073837 -37.7303543091 57.4926109314
6.8372297287 -37.7436676025 57.2960357666
6.8361744881 -37.7521400452 57.0988044739
6.8341302872 -37.7535476685 56.9006080627
6.8309264183 -37.7466812134 56.7012634277
6.8264126778 -37.7304611206 56.5006103516
6.8206071854 -37.7050170898 56.2986412048
6.8140835762 -37.6744537354 56.0959167480
6.8080940247 -37.6477050781 55.8936729431
6.8040008545 -37.6344985962 55.6932792664
6.8023991585 -37.6390800476 55.4953651428
6.8027758598 -37.6577873230 55.2994422913
6.8039855957 -37.6824378967 55.1043739319
6.8050122261 -37.7057800293 54.9091339111
6.8054199219 -37.7247047424 54.7132759094
6.8053350449 -37.7401123047 54.5169219971
6.8051524162 -37.7548217773 54.3204765320
6.8052821159 -37.7717628479 54.1243553162
6.8061103821 -37.7936859131 53.9289703369
6.8081426620 -37.8241996765 53.7348594666
6.8120741844 -37.8682594299 53.5427703857
6.8184518814 -37.9297714233 53.3533020020
6.8269371986 -38.0063133240 53.1661376953
6.8358898163 -38.0861854553 52.9795494080
6.8430008888 -38.1529083252 52.7910766602
6.8465723991 -38.1943817139 52.5988769531
6.8462414742 -38.2080154419 52.4025077820
6.8427042961 -38.1987800598 52.2026710510
6.8369913101 -38.1740264893 52.0004463196
6.8298792839 -38.1392974854 51.7966461182
6.8217415810 -38.0972633362 51.5916633606
6.8129105568 -38.0502853394 51.3858528137
6.8041362762 -38.0037193298 51.1800308228
6.7965254784 -37.9654579163 50.9754257202
6.7909917831 -37.9420089722 50.7730751038
6.7878718376 -37.9357757568 50.5733833313
6.7869729996 -37.9453773499 50.3761596680
6.7877340317 -37.9668121338 50.1808052063
6.7893309593 -37.9942016602 49.9864120483
6.7908897400 -38.0213241577 49.7919998169
6.7918086052 -38.0438804626 49.5968742371
6.7919058800 -38.0605773926 49.4008216858
6.7912983894 -38.0722541809 49.2039642334
6.7902078629 -38.0804862976 49.0065536499
6.7888717651 -38.0869674683 48.8088531494
6.7875752449 -38.0937347412 48.6111907959
6.7866878510 -38.1034126282 48.4140052795
6.7865571976 -38.1184883118 48.2177009583
6.7872786522 -38.1396331787 48.0224075317
6.7885894775 -38.1649742126 47.8278236389
6.7901349068 -38.1919860840 47.6335334778
6.7918562889 -38.2202491760 47.4394760132
6.7940120697 -38.2516059875 47.2459564209
6.7967987061 -38.2874565125 47.0532226563
6.8000311852 -38.3264732361 46.8610534668
6.8031964302 -38.3650169373 46.6688385010
6.8057565689 -38.3992424011 46.4759254456
6.8073797226 -38.4267921448 46.2818984985
6.8079657555 -38.4469566345 46.0866279602
6.8075480461 -38.4599723816 45.8901405334
6.8062162399 -38.4664802551 45.6925277710
6.8041367531 -38.4676628113 45.4939842224
6.8016090393 -38.4656562805 45.2948760986
6.7990450859 -38.4633941650 45.0957031250
6.7968335152 -38.4636383057 44.8969573975
6.7951807976 -38.4678649902 44.6988945007
6.7940673828 -38.4759330750 44.5015029907
6.7933206558 -38.4866065979 44.3045692444
6.7927255630 -38.4983634949 44.1078300476
6.7921161652 -38.5100173950 43.9110717773
6.7914505005 -38.5212707520 43.7142448425
6.7908658981 -38.5331001282 43.5175170898
6.7906999588 -38.5479087830 43.3213310242
6.7914280891 -38.5690803528 43.1263046265
6.7934570313 -38.5995063782 42.9329719543
6.7967424393 -38.6388702393 42.7412910461
6.8004517555 -38.6812438965 42.5502014160
6.8031506538 -38.7164306641 42.3578300476
6.8036417961 -38.7359085083 42.1625938416
6.8017344475 -38.7383193970 41.9642143250
6.7981948853 -38.7291221619 41.7636642456
6.7940917015 -38.7159194946 41.5623474121
6.7903099060 -38.7050056458 41.3614234924
6.7874479294 -38.7006378174 41.1617012024
6.7857885361 -38.7048187256 40.9635658264
6.7853007317 -38.7173347473 40.7669982910
6.7858152390 -38.7369804382 40.5717811584
6.7871789932 -38.7626609802 40.3777236938
6.7891540527 -38.7926864624 40.1845130920
6.7912478447 -38.8235549927 39.9914855957
6.7928280830 -38.8507728577 39.7977867126
6.7934570313 -38.8712234497 39.6028022766
6.7930846214 -38.8845520020 39.4064559937
6.7919497490 -38.8924636841 39.2090606689
6.7903680801 -38.8971977234 39.0110435486
6.7885932922 -38.9005622864 38.8127479553
6.7867836952 -38.9036827087 38.6143989563
6.7849907875 -38.9069175720 38.4160614014
6.7831196785 -38.9095954895 38.2176017761
6.7809143066 -38.9099082947 38.0186653137
6.7781329155 -38.9061203003 37.8189010620
6.7749242783 -38.8993034363 37.6185150146
6.7720584869 -38.8949203491 37.4185943604
6.7705316544 -38.9000511169 37.2205581665
6.7707223892 -38.9173889160 37.0249671936
6.7720036507 -38.9424705505 36.8309478760
6.7733783722 -38.9682159424 36.6370773315
6.7745423317 -38.9924621582 36.4429244995
6.7762889862 -39.0208473206 36.2496299744
6.7799434662 -39.0627784729 36.0591239929
6.7864227295 -39.1247711182 35.8727645874
6.7956748009 -39.2064514160 35.6905174255
6.8068056107 -39.3014640808 35.5111083984
6.8185949326 -39.4011459351 35.3327751160
6.8298025131 -39.4966850281 35.1536941528
6.8391108513 -39.5787315369 34.9719123840
6.8452386856 -39.6381912231 34.7855110168
6.8475337029 -39.6704330444 34.5934753418
6.8464999199 -39.6790351868 34.3965034485
6.8435459137 -39.6740112305 34.1966590881
6.8401446342 -39.6658134460 33.9961204529
6.8371834755 -39.6607437134 33.7962226868
6.8349056244 -39.6605186462 33.5973358154
6.8331761360 -39.6641921997 33.3992652893
6.8317351341 -39.6699142456 33.2016220093
6.8303337097 -39.6759147644 33.0040283203
6.8288111687 -39.6810607910 32.8062477112
6.8271293640 -39.6850738525 32.6082153320
6.8253302574 -39.6882553101 32.4099960327
6.8234667778 -39.6909828186 32.2116661072
6.8215603828 -39.6934051514 32.0132560730
6.8196072578 -39.6954994202 31.8147678375
6.8175969124 -39.6971817017 31.6161766052
6.8155188560 -39.6983909607 31.4174690247
6.8133707047 -39.6991043091 31.2186412811
6.8111610413 -39.6993751526 31.0197010040
6.8089108467 -39.6993675232 30.8206863403
6.8066549301 -39.6993179321 30.6216468811
6.8044424057 -39.6995773315 30.4226627350
6.8023509979 -39.7006988525 30.2238578796
6.8004999161 -39.7035217285 30.0254211426
6.7990479469 -39.7091751099 29.8276100159
6.7981958389 -39.7190856934 29.6307525635
6.7981905937 -39.7349967957 29.4352474213
6.7993092537 -39.7588806152 29.2415580750
6.8017687798 -39.7922668457 29.0500431061
6.8055691719 -39.8351554871 28.8607234955
6.8104310036 -39.8855667114 28.6731643677
6.8159384727 -39.9405479431 28.4867038727
6.8217325211 -39.9975585938 28.3007659912
6.8275179863 -40.0545005798 28.1148719788
6.8329071999 -40.1086349487 27.9283866882
6.8373794556 -40.1562614441 27.7404499054
6.8404707909 -40.1940994263 27.5502853394
6.8420252800 -40.2210464478 27.3576145172
6.8422756195 -40.2387504578 27.1628055573
6.8417110443 -40.2506790161 26.9666519165
6.8408770561 -40.2606964111 26.7700500488
6.8402361870 -40.2720832825 26.5737705231
6.8401398659 -40.2873268127 26.3784027100
6.8408780098 -40.3084831238 26.1844406128
6.8426923752 -40.3372612000 25.9923038483
6.8456516266 -40.3741455078 25.8021183014
6.8494634628 -40.4170722961 25.6134109497
6.8534355164 -40.4611244202 25.4250144958
6.8566722870 -40.4999656677 25.2354087830
6.8584194183 -40.5282592773 25.0432987213
6.8584079742 -40.5440940857 24.8482036591
6.8570704460 -40.5505371094 24.6508407593
6.8554615974 -40.5550613403 24.4530067444
6.8547725677 -40.5661010742 24.2567501068
6.8556699753 -40.5883712769 24.0632343292
6.8579249382 -40.6202468872 23.8720836639
6.8606457710 -40.6554260254 23.6817684174
6.8629274368 -40.6874885559 23.4907188416
6.8644328117 -40.7140541077 23.2983398438
6.8654875755 -40.7374305725 23.1051940918
6.8666572571 -40.7616195679 22.9122638702
6.8681979179 -40.7884292603 22.7200031281
6.8698563576 -40.8160743713 22.5279712677
6.8711624146 -40.8412208557 22.3353366852
6.8719191551 -40.8624839783 22.1417465210
6.8724880219 -40.8824119568 21.9478359222
6.8736782074 -40.9067382813 21.7550430298
6.8762807846 -40.9410552979 21.5647888184
6.8804583549 -40.9865074158 21.3773841858
6.8854508400 -41.0377273560 21.1914844513
6.8899693489 -41.0855903625 21.0047836304
6.8929820061 -41.1227951050 20.8154144287
6.8941783905 -41.1471519470 20.6227931976
6.8938336372 -41.1606063843 20.4273967743
6.8924241066 -41.1665267944 20.2300682068
6.8903684616 -41.1678810120 20.0315570831
6.8879704475 -41.1668167114 19.8324089050
6.8854579926 -41.1649398804 19.6330337524
6.8830194473 -41.1635856628 19.4337806702
6.8808236122 -41.1639518738 19.2349567413
6.8790445328 -41.1672706604 19.0368881226
6.8779082298 -41.1751251221 18.8399982452
6.8777027130 -41.1895675659 18.6448287964
6.8786621094 -41.2122459412 18.4518280029
6.8807158470 -41.2426567078 18.2608776093
6.8833503723 -41.2771682739 18.0710353851
6.8858051300 -41.3104057312 17.8808879852
6.8874683380 -41.3380508423 17.6892833710
6.8881092072 -41.3584671021 17.4957809448
6.8878297806 -41.3723754883 17.3005542755
6.8869171143 -41.3818168640 17.1041355133
6.8857579231 -41.3895072937 16.9072494507
6.8847837448 -41.3985099792 16.7107086182
6.8843731880 -41.4114952087 16.5152397156
6.8846697807 -41.4294738770 16.3211193085
6.8854684830 -41.4510040283 16.1279678345
6.8863663673 -41.4732284546 15.9350194931
6.8870930672 -41.4942436218 15.7417573929
6.8877205849 -41.5145568848 15.5483160019
6.8885769844 -41.5364875793 15.3553285599
6.8899750710 -41.5622444153 15.1634025574
6.8919515610 -41.5920829773 14.9726152420
6.8942008018 -41.6238441467 14.7823810577
6.8963108063 -41.6546249390 14.5919027328
6.8981685638 -41.6836204529 14.4009580612
6.9001832008 -41.7137184143 14.2103414536
6.9031276703 -41.7503814697 14.0215711594
6.9077472687 -41.7988700867 13.8361244202
6.9144287109 -41.8619155884 13.6547851563
6.9230728149 -41.9388046265 13.4773826599
6.9330625534 -42.0251922607 13.3027248383
6.9433102608 -42.1133956909 13.1286745071
6.9525399208 -42.1943969727 12.9526977539
6.9597530365 -42.2611618042 12.7727956772
6.9645442963 -42.3108253479 12.5881319046
6.9671082497 -42.3447685242 12.3990631104
6.9680604935 -42.3673324585 12.2067918777
6.9681663513 -42.3839187622 12.0128364563
6.9680562019 -42.3989868164 11.8184528351
6.9680876732 -42.4150505066 11.6243600845
6.9684448242 -42.4334106445 11.4309320450
6.9693522453 -42.4556541443 11.2386293411
6.9711494446 -42.4841728210 11.0481472015
6.9741134644 -42.5209236145 10.8600625992
6.9782328606 -42.5658187866 10.6743679047
6.9831757545 -42.6165199280 10.4903993607
6.9884572029 -42.6696090698 10.3071756363
6.9936156273 -42.7218208313 10.1237506866
6.9983077049 -42.7707443237 9.9394207001
7.0023279190 -42.8149223328 9.7537517548
7.0055513382 -42.8534812927 9.5664787292
7.0079255104 -42.8860435486 9.3774805069
7.0095772743 -42.9135131836 9.1870107651
7.0108838081 -42.9385452271 8.9958448410
7.0123233795 -42.9645156860 8.8049736023
7.0141739845 -42.9933776855 8.6149787903
7.0163540840 -43.0245628357 8.4256982803
7.0186080933 -43.0562705994 8.2365980148
7.0208711624 -43.0880393982 8.0475425720
7.0234417915 -43.1219673157 7.8591609001
7.0268106461 -43.1615257263 7.6724944115
7.0313291550 -43.2091827393 7.4882969856
7.0369787216 -43.2648086548 7.3065433502
7.0433382988 -43.3254356384 7.1263551712
7.0496573448 -43.3857650757 6.9461431503
7.0549292564 -43.4387168884 6.7637600899
7.0580449104 -43.4764671326 6.5768198967
7.0581626892 -43.4930915833 6.3834900856
7.0552182198 -43.4881362915 6.1835927963
7.0502243042 -43.4687500000 5.9792675972
7.0450963974 -43.4484214783 5.7746148109
7.0420222282 -43.4425621033 5.5743589401
7.0425896645 -43.4623565674 5.3819651604
7.0470690727 -43.5097084045 5.1980686188
7.0543503761 -43.5767898560 5.0203080177
7.0626311302 -43.6509017944 4.8447957039
7.0703511238 -43.7210617065 4.6681399345
7.0767855644 -43.7821617126 4.4887471199
7.0820984840 -43.8353614807 4.3069605827
7.0869660378 -43.8854179382 4.1242494583
7.0920524597 -43.9370117188 3.9420690536
7.0976839066 -43.9924354553 3.7611413002
7.1038022041 -44.0512847900 3.5813462734
7.1100354195 -44.1109390259 3.4018659592
7.1158146858 -44.1673927307 3.2214403152
7.1206316948 -44.2170639038 3.0389335155
7.1243429184 -44.2589530945 2.8540134430
7.1272778511 -44.2953758240 2.6674008369
7.1300711632 -44.3307914734 2.4805026054
7.1333770752 -44.3698158264 2.2947840691
7.1376380920 -44.4155616760 2.1112461090
7.1429352760 -44.4685935974 1.9300823212
7.1488599777 -44.5260391235 1.7503869534
7.1544332504 -44.5810050964 1.5699560642
7.1583523750 -44.6243286133 1.3858383894
7.1597008705 -44.6495590210 1.1959335804
7.1586155891 -44.6576652527 1.0005174875
7.1563005447 -44.6571235657 0.8023002148
7.1544270515 -44.6596870422 0.6050745845
7.1544194221 -44.6753768921 0.4121024907
7.1570549011 -44.7096557617 0.2251874954
7.1624679565 -44.7634735107 0.0446738191
-4.8032684326 -37.5133285522 80.9660034180
-4.8040351868 -37.5050392151 80.7684707642
-4.8037819862 -37.4910087585 80.5705566406
-4.8029241562 -37.4735717773 80.3724136353
-4.8018503189 -37.4549217224 80.1741485596
-4.8007864952 -37.4363212585 79.9758605957
-4.7997574806 -37.4179115295 79.7775421143
-4.7986779213 -37.3992233276 79.5791702271
-4.7976059914 -37.3805694580 79.3807601929
-4.7969975471 -37.3645210266 79.1824874878
-4.7976479530 -37.3555603027 78.9846496582
-4.8003516197 -37.3581542969 78.7875518799
-4.8056125641 -37.3751449585 78.5914154053
-4.8134698868 -37.4067497253 78.3962783813
-4.8232440948 -37.4491500854 78.2019119263
-4.8333492279 -37.4934158325 78.0077133179
-4.8416814804 -37.5277023315 77.8128585815
-4.8466477394 -37.5430374146 77.6166992188
-4.8480606079 -37.5383682251 77.4191284180
-4.8470702171 -37.5201606750 77.2205734253
-4.8452930450 -37.4975242615 77.0216598511
-4.8439946175 -37.4775810242 76.8228988647
-4.8438372612 -37.4640617371 76.6245727539
-4.8450217247 -37.4580955505 76.4267730713
-4.8474602699 -37.4591903687 76.2294845581
-4.8508601189 -37.4656982422 76.0325927734
-4.8547701836 -37.4750823975 75.8359146118
-4.8586807251 -37.4844665527 75.6392364502
-4.8621950150 -37.4916191101 75.4423828125
-4.8652257919 -37.4960517883 75.2453155518
-4.8681225777 -37.4997253418 75.0481796265
-4.8715844154 -37.5065803528 74.8512878418
-4.8763265610 -37.5206489563 74.6549682617
-4.8826465607 -37.5436096191 74.4593658447
-4.8902411461 -37.5737533569 74.2643661499
-4.8984465599 -37.6073379517 74.0696792603
-4.9066262245 -37.6407814026 73.8750000000
-4.9142775536 -37.6712493896 73.6801071167
-4.9208521843 -37.6956520081 73.4847335815
-4.9257149696 -37.7104072571 73.2885665894
-4.9284539223 -37.7131919861 73.0913848877
-4.9292588234 -37.7050781250 72.8932571411
-4.9289445877 -37.6906547546 72.6945648193
-4.9285192490 -37.6756019592 72.4957885742
-4.9286384583 -37.6636161804 72.2972488403
-4.9293913841 -37.6552009583 72.0989913940
-4.9305119514 -37.6488609314 71.9008941650
-4.9317345619 -37.6430892944 71.7028350830
-4.9329991341 -37.6375579834 71.5047683716
-4.9344582558 -37.6331176758 71.3067855835
-4.9363608360 -37.6311798096 71.1090087891
-4.9389352798 -37.6330299377 70.9115676880
-4.9423513412 -37.6396217346 70.7145538330
-4.9467201233 -37.6515846252 70.5180358887
-4.9520487785 -37.6689605713 70.3220291138
-4.9581155777 -37.6905021667 70.1264266968
-4.9644169807 -37.7133674622 69.9309616089
-4.9703521729 -37.7341651917 69.7353210449
-4.9755425453 -37.7507667542 69.5392837524
-4.9799680710 -37.7630538940 69.3428344727
-4.9838147163 -37.7720756531 69.1460723877
-4.9872541428 -37.7788009644 68.9490814209
-4.9903392792 -37.7835235596 68.7518844604
-4.9930109978 -37.7859191895 68.5544509888
-4.9951272011 -37.7851791382 68.3566970825
-4.9964852333 -37.7801589966 68.1584930420
-4.9969501495 -37.7701034546 67.9597549438
-4.9967021942 -37.7560195923 67.7605895996
-4.9963984489 -37.7416229248 67.5613479614
-4.9969425201 -37.7320022583 67.3625793457
-4.9989290237 -37.7305221558 67.1646270752
-5.0022287369 -37.7364501953 66.9674453735
-5.0061120987 -37.7456741333 66.7705917358
-5.0097994804 -37.7537879944 66.5736312866
-5.0128793716 -37.7584800720 66.3762969971
-5.0153336525 -37.7596321106 66.1785736084
-5.0175080299 -37.7592124939 65.9806747437
-5.0202274323 -37.7618637085 65.7830886841
-5.0244717598 -37.7731170654 65.5864410400
-5.0304203033 -37.7939987183 65.3908462524
-5.0368990898 -37.8178710938 65.1955947876
-5.0421714783 -37.8349342346 64.9996032715
-5.0453376770 -37.8401069641 64.8022994995
-5.0467977524 -37.8356475830 64.6038970947
-5.0475320816 -37.8270874023 64.4050216675
-5.0483021736 -37.8187332153 64.2061386108
-5.0495238304 -37.8129234314 64.0075302124
-5.0515246391 -37.8115081787 63.8093986511
-5.0546073914 -37.8162078857 63.6119613647
-5.0588030815 -37.8271903992 63.4152488708
-5.0636763573 -37.8419990540 63.2189826965
-5.0685420036 -37.8567619324 63.0227165222
-5.0729255676 -37.8688087463 62.8261375427
-5.0767812729 -37.8778686523 62.6292037964
-5.0803027153 -37.8850440979 62.4320449829
-5.0836505890 -37.8912353516 62.2347640991
-5.0868444443 -37.8965606689 62.0373725891
-5.0898208618 -37.9006538391 61.8398246765
-5.0924897194 -37.9030075073 61.6420593262
-5.0947103500 -37.9028358459 61.4439697266
-5.0962076187 -37.8985671997 61.2453651428
-5.0965633392 -37.8878555298 61.0459442139
-5.0955238342 -37.8692550659 60.8455162048
-5.0934972763 -37.8450775146 60.6443481445
-5.0916318893 -37.8218040466 60.4432563782
-5.0910739899 -37.8059158325 60.2430496216
-5.0921478271 -37.7992515564 60.0439834595
-5.0944061279 -37.7992782593 59.8457527161
-5.0973005295 -37.8028945923 59.6479682922
-5.1005945206 -37.8087730408 59.4504623413
-5.1043996811 -37.8175392151 59.2533302307
-5.1090974808 -37.8313522339 59.0568542480
-5.1150951385 -37.8525085449 58.8613395691
-5.1224098206 -37.8811111450 58.6668205261
-5.1304554939 -37.9138526917 58.4728736877
-5.1383605003 -37.9457931519 58.2788467407
-5.1455678940 -37.9737968445 58.0843238831
-5.1521105766 -37.9980430603 57.8893203735
-5.1582908630 -38.0202407837 57.6940574646
-5.1641850471 -38.0408248901 57.4985885620
-5.1695613861 -38.0584793091 57.3027381897
-5.1742010117 -38.0719680786 57.1063270569
-5.1781568527 -38.0815887451 56.9093894958
-5.1816997528 -38.0888786316 56.7121315002
-5.1851706505 -38.0957603455 56.5148086548
-5.1889801025 -38.1045532227 56.3177528381
-5.1936845779 -38.1184082031 56.1213989258
-5.1999020576 -38.1408233643 55.9262542725
-5.2079849243 -38.1737899780 55.7326126099
-5.2176747322 -38.2158470154 55.5402870178
-5.2280716896 -38.2619056702 55.3485755920
-5.2379908562 -38.3052673340 55.1565246582
-5.2464799881 -38.3405380249 54.9633522034
-5.2531671524 -38.3656196594 54.7687416077
-5.2582306862 -38.3815155029 54.5728149414
