-45.7282218933 40.9541816711 23.6914386749
-45.7305183411 40.9562149048 23.5073833466
-45.7335929871 40.9589691162 23.3235874176
-45.7337684631 40.9590415955 23.1388149261
-45.7281036377 40.9536972046 22.9520626068
-45.7150001526 40.9414558411 22.7627754211
-45.6944808960 40.9223365784 22.5709419250
-45.6682472229 40.8979263306 22.3771228790
-45.6393775940 40.8710708618 22.1823520660
-45.6115875244 40.8452148438 21.9878959656
-45.5883636475 40.8235931396 21.7949562073
-45.5721244812 40.8084449768 21.6043739319
-45.5633354187 40.8002052307 21.4163265228
-45.5601310730 40.7971343994 21.2301902771
-45.5589561462 40.7959556580 21.0447483063
-45.5560417175 40.7931594849 20.8586940765
-45.5486907959 40.7862510681 20.6710853577
-45.5359039307 40.7743034363 20.4815597534
-45.5183868408 40.7579689026 20.2903518677
-45.4981765747 40.7391395569 20.0981636047
-45.4781112671 40.7204437256 19.9059886932
-45.4611167908 40.7045974731 19.7148551941
-45.4494247437 40.6936645508 19.5255622864
-45.4438781738 40.6884307861 19.3384227753
-45.4437904358 40.6882514954 19.1532058716
-45.4472770691 40.6913909912 18.9692573547
-45.4518280029 40.6955146790 18.7856903076
-45.4547576904 40.6981353760 18.6015434265
-45.4536132813 40.6969833374 18.4159374237
-45.4465713501 40.6903572083 18.2282047272
-45.4327697754 40.6774711609 18.0380191803
-45.4125366211 40.6586189270 17.8454818726
-45.3872680664 40.6351013184 17.6510829926
-45.3589134216 40.6087226868 17.4555130005
-45.3292350769 40.5811157227 17.2594108582
-45.2994422913 40.5534019470 17.0632076263
-45.2702255249 40.5262260437 16.8671607971
-45.2419662476 40.4999351501 16.6714096069
-45.2148246765 40.4746818542 16.4760150909
-45.1888275146 40.4504852295 16.2809906006
-45.1638450623 40.4272308350 16.0862903595
-45.1396141052 40.4046745300 15.8918199539
-45.1161308289 40.3828125000 15.6975803375
-45.0941810608 40.3623695374 15.5038642883
-45.0751724243 40.3446540833 15.3112020493
-45.0603065491 40.3307800293 15.1200475693
-45.0500450134 40.3211708069 14.9305849075
-45.0443077087 40.3157577515 14.7427949905
-45.0428428650 40.3143081665 14.5565977097
-45.0453605652 40.3165435791 14.3718910217
-45.0515251160 40.3221626282 14.1885623932
-45.0611419678 40.3309860229 14.0065450668
-45.0743103027 40.3430976868 13.8258857727
-45.0910415649 40.3585128784 13.6465978622
-45.1101684570 40.3761482239 13.4682474136
-45.1286621094 40.3931961060 13.2896823883
-45.1427574158 40.4061698914 13.1094627380
-45.1504936218 40.4132461548 12.9268217087
-45.1532020569 40.4156608582 12.7422561646
-45.1544647217 40.4167366028 12.5571336746
-45.1576309204 40.4195823669 12.3727445602
-45.1641159058 40.4254951477 12.1896390915
-45.1734542847 40.4340553284 12.0076456070
-45.1845626831 40.4442596436 11.8263521194
-45.1969032288 40.4556083679 11.6455545425
-45.2106323242 40.4682388306 11.4653129578
-45.2255592346 40.4819831848 11.2855596542
-45.2399635315 40.4952430725 11.1056222916
-45.2503433228 40.5047683716 10.9241228104
-45.2523460388 40.5065307617 10.7393369675
-45.2422866821 40.4971122742 10.5497875214
-45.2187767029 40.4752235413 10.3548955917
-45.1838150024 40.4427185059 10.1554183960
-45.1424942017 40.4043159485 9.9533491135
-45.1012115479 40.3659515381 9.7512197495
-45.0652732849 40.3325424194 9.5511465073
-45.0370254517 40.3062629700 9.3540811539
-45.0155754089 40.2862854004 9.1596879959
-44.9982681274 40.2701454163 8.9669151306
-44.9826698303 40.2555885315 8.7747955322
-44.9676704407 40.2415885925 8.5828857422
-44.9533996582 40.2282638550 8.3912391663
-44.9406318665 40.2163314819 8.2001724243
-44.9302902222 40.2066535950 8.0100641251
-44.9232368469 40.2000198364 7.8212709427
-44.9203338623 40.1972351074 7.6341514587
-44.9225502014 40.1991920471 7.4491124153
-44.9307708740 40.2067184448 7.2665305138
-44.9452018738 40.2200050354 7.0865073204
-44.9648551941 40.2381248474 6.9086484909
-44.9876937866 40.2592048645 6.7321310043
-45.0114364624 40.2811164856 6.5560212135
-45.0341682434 40.3020973206 6.3795304298
-45.0543861389 40.3207473755 6.2020311356
-45.0706977844 40.3357696533 6.0229372978
-45.0816307068 40.3458137512 5.8416299820
-45.0858230591 40.3496055603 5.6575241089
-45.0825691223 40.3464927673 5.4703073502
-45.0726203918 40.3371772766 5.2802782059
-45.0585670471 40.3240547180 5.0885033607
-45.0441284180 40.3105735779 4.8965368271
-45.0326652527 40.2998542786 4.7057943344
-45.0259666443 40.2935485840 4.5170388222
-45.0241088867 40.2917327881 4.3303160667
-45.0262222290 40.2935943604 4.1452674866
-45.0311508179 40.2980690002 3.9614155293
-45.0374755859 40.3038368225 3.7781591415
-45.0433959961 40.3092308044 3.5947380066
-45.0475959778 40.3130302429 3.4105858803
-45.0504760742 40.3156051636 3.2258715630
-45.0543975830 40.3191452026 3.0416023731
-45.0626068115 40.3266601563 2.8591794968
-45.0781250000 40.3409538269 2.6799166203
-45.1031723022 40.3640785217 2.5047879219
-45.1386260986 40.3968467712 2.3341989517
-45.1835670471 40.4384193420 2.1677801609
-45.2357292175 40.4866790771 2.0045683384
-45.2927474976 40.5394439697 1.8435555696
-45.3528556824 40.5950698853 1.6839834452
-45.4142303467 40.6518745422 1.5250630379
-45.4742469788 40.7074127197 1.3656476736
-45.5300216675 40.7590255737 1.2044721842
-45.5801544189 40.8054084778 1.0409071445
-45.6262969971 40.8480873108 0.8756666780
-45.6732788086 40.8915481567 0.7108703256
-45.7272453308 40.9414825439 0.5492392778
-45.7928237915 41.0021820068 0.3928387463
-45.8709831238 41.0745468140 0.2421293408
-45.9587059021 41.1557731628 0.0958026424
-26.6628990173 -9.3064155579 80.7776336670
-26.6817779541 -9.3126401901 80.5728759766
-26.7119598389 -9.3223772049 80.3685760498
-26.7413368225 -9.3318634033 80.1642684937
-26.7649765015 -9.3395671844 79.9597702026
-26.7862510681 -9.3465356827 79.7552032471
-26.8124752045 -9.3550424576 79.5508575439
-26.8492851257 -9.3668375015 79.3469772339
-26.8972206116 -9.3820896149 79.1435928345
-26.9524517059 -9.3996067047 78.9405670166
-27.0103282928 -9.4179468155 78.7377243042
-27.0686779022 -9.4364328384 78.5349731445
-27.1290855408 -9.4555587769 78.3323669434
-27.1958885193 -9.4766712189 78.1301269531
-27.2731151581 -9.5010213852 77.9284362793
-27.3613605499 -9.5287952423 77.7273406982
-27.4571914673 -9.5589246750 77.5267028809
-27.5550270081 -9.5896778107 77.3262710571
-27.6489505768 -9.6192140579 77.1257705688
-27.7334442139 -9.6458206177 76.9249267578
-27.8041877747 -9.6681566238 76.7235107422
-27.8593444824 -9.6856498718 76.5214004517
-27.9002933502 -9.6987295151 76.3186416626
-27.9311637878 -9.7086772919 76.1154098511
-27.9575920105 -9.7172460556 75.9119873047
-27.9855194092 -9.7262792587 75.7086639404
-28.0202980042 -9.7374420166 75.5057373047
-28.0658607483 -9.7519540787 75.3034286499
-28.1238384247 -9.7703237534 75.1018371582
-28.1929683685 -9.7921562195 74.9009246826
-28.2689762115 -9.8161258698 74.7004699707
-28.3449783325 -9.8400936127 74.5001068115
-28.4128856659 -9.8615465164 74.2993774414
-28.4660224915 -9.8784112930 74.0978775024
-28.5015430450 -9.8898029327 73.8954238892
-28.5208625793 -9.8961620331 73.6920623779
-28.5282745361 -9.8988227844 73.4880142212
-28.5293273926 -9.8995075226 73.2835922241
-28.5298690796 -9.9000339508 73.0791320801
-28.5357151031 -9.9022073746 72.8749923706
-28.5522594452 -9.9077043533 72.6715164185
-28.5831127167 -9.9176464081 72.4689407349
-28.6278629303 -9.9319057465 72.2672729492
-28.6810073853 -9.9487714767 72.0661926270
-28.7341041565 -9.9656229019 71.8651657104
-28.7800197601 -9.9802427292 71.6637344360
-28.8157615662 -9.9917030334 71.4616928101
-28.8421611786 -10.0002613068 71.2590713501
-28.8617534637 -10.0067052841 71.0560226440
-28.8770427704 -10.0118112564 70.8527069092
-28.8900260925 -10.0162019730 70.6492538452
-28.9025821686 -10.0204601288 70.4457778931
-28.9167137146 -10.0252065659 70.2424163818
-28.9342231750 -10.0310039520 70.0393066406
-28.9559612274 -10.0381126404 69.8365097046
-28.9810523987 -10.0462646484 69.6339721680
-29.0068798065 -10.0546445847 69.4315109253
-29.0302200317 -10.0622520447 69.2289047241
-29.0488853455 -10.0684070587 69.0259780884
-29.0626049042 -10.0730266571 68.8227005005
-29.0728206635 -10.0765571594 68.6191787720
-29.0817890167 -10.0797004700 68.4155731201
-29.0911788940 -10.0829744339 68.2120056152
-29.1002902985 -10.0861616135 68.0084152222
-29.1052646637 -10.0880641937 67.8045196533
-29.1008605957 -10.0870542526 67.5998992920
-29.0841846466 -10.0822324753 67.3943176270
-29.0571002960 -10.0741767883 67.1878890991
-29.0250282288 -10.0645732880 66.9810256958
-28.9936809540 -10.0551939011 66.7741775513
-28.9668941498 -10.0472316742 66.5676422119
-28.9466152191 -10.0412912369 66.3616027832
-28.9337120056 -10.0376405716 66.1561355591
-28.9283866882 -10.0363454819 65.9512634277
-28.9302349091 -10.0372772217 65.7469787598
-28.9382915497 -10.0401372910 65.5432052612
-28.9511623383 -10.0444927216 65.3398437500
-28.9671382904 -10.0498123169 65.1367568970
-28.9842948914 -10.0554990768 64.9337844849
-29.0006427765 -10.0609340668 64.7307510376
-29.0143489838 -10.0655488968 64.5275115967
-29.0239791870 -10.0688972473 64.3239288330
-29.0287132263 -10.0707254410 64.1199188232
-29.0284290314 -10.0709953308 63.9154701233
-29.0236091614 -10.0698556900 63.7106056213
-29.0151176453 -10.0675764084 63.5054016113
-29.0041313171 -10.0645227432 63.2999572754
-28.9921855927 -10.0611705780 63.0944061279
-28.9810962677 -10.0580835342 62.8889122009
-28.9726104736 -10.0558061600 62.6836395264
-28.9679527283 -10.0547180176 62.4787063599
-28.9674644470 -10.0549240112 62.2741508484
-28.9704837799 -10.0562200546 62.0699195862
-28.9756526947 -10.0581827164 61.8658905029
-28.9815559387 -10.0603742599 61.6619300842
-28.9872665405 -10.0625057220 61.4579582214
-28.9924182892 -10.0644636154 61.2539291382
-28.9969654083 -10.0662345886 61.0498428345
-29.0010585785 -10.0678634644 60.8457145691
-29.0052928925 -10.0695362091 60.6415977478
-29.0111904144 -10.0717258453 60.4376487732
-29.0215644836 -10.0753049850 60.2341461182
-29.0403270721 -10.0814905167 60.0314903259
-29.0715656281 -10.0915498734 59.8301162720
-29.1180629730 -10.1063480377 59.6303253174
-29.1800956726 -10.1259717941 59.4321784973
-29.2553272247 -10.1496934891 59.2354621887
-29.3396244049 -10.1762304306 59.0397720337
-29.4278926849 -10.2040004730 58.8445968628
-29.5145301819 -10.2312641144 58.6493530273
-29.5939655304 -10.2562904358 58.4534568787
-29.6613178253 -10.2775650024 58.2563705444
-29.7131690979 -10.2940244675 58.0577087402
-29.7485828400 -10.3053798676 57.8573455811
-29.7698726654 -10.3123483658 57.6554946899
-29.7819156647 -10.3164463043 57.4526634216
-29.7900600433 -10.3193321228 57.2494163513
-29.7982559204 -10.3222351074 57.0461769104
-29.8086261749 -10.3258123398 56.8431816101
-29.8219394684 -10.3303041458 56.6405220032
-29.8379840851 -10.3356447220 56.4381828308
-29.8558769226 -10.3415584564 56.2360610962
-29.8747577667 -10.3477783203 56.0340690613
-29.8939685822 -10.3541011810 55.8321304321
-29.9117374420 -10.3599767685 55.6300506592
-29.9242897034 -10.3642320633 55.4273834229
-29.9280395508 -10.3657541275 55.2237129211
-29.9236164093 -10.3647375107 55.0190925598
-29.9174442291 -10.3631782532 54.8142585754
-29.9193458557 -10.3641262054 54.6103553772
-29.9383869171 -10.3703956604 54.4084739685
-29.9795761108 -10.3835439682 54.2092323303
-30.0428428650 -10.4035472870 54.0126724243
-30.1242790222 -10.4291934967 53.8183670044
-30.2179794312 -10.4586467743 53.6256332397
-30.3168830872 -10.4897165298 53.4336395264
-30.4132442474 -10.5199966431 53.2414588928
-30.5000667572 -10.5473136902 53.0482215881
-30.5729885101 -10.5703144073 52.8533821106
-30.6311779022 -10.5887403488 52.6568069458
-30.6770687103 -10.6033468246 52.4587707520
-30.7154598236 -10.6156244278 52.2598495483
-30.7517852783 -10.6272611618 52.0607109070
-30.7897605896 -10.6394090652 51.8618240356
-30.8299045563 -10.6522321701 51.6632499695
-30.8700828552 -10.6650638580 51.4647293091
-30.9071197510 -10.6769208908 51.2658500671
-30.9382133484 -10.6869325638 51.0662460327
-30.9620056152 -10.6946763992 50.8657302856
-30.9795112610 -10.7004690170 50.6644248962
-30.9940204620 -10.7053308487 50.4627418518
-31.0095806122 -10.7105178833 50.2612113953
-31.0292320251 -10.7169771194 50.0602378845
-31.0543727875 -10.7251396179 49.8600044250
-31.0853042603 -10.7350997925 49.6605682373
-31.1218757629 -10.7468118668 49.4619216919
-31.1631374359 -10.7599802017 49.2639465332
-31.2063579559 -10.7737569809 49.0662765503
-31.2471141815 -10.7867670059 48.8683242798
-31.2810993195 -10.7976760864 48.6694984436
-31.3061008453 -10.8057947159 48.4694786072
-31.3224506378 -10.8112277985 48.2682952881
-31.3322277069 -10.8146200180 48.0662193298
-31.3384151459 -10.8168964386 47.8636512756
-31.3446502686 -10.8191890717 47.6610946655
-31.3552074432 -10.8228235245 47.4591407776
-31.3743858337 -10.8291339874 47.2584114075
-31.4050521851 -10.8390111923 47.0593185425
-31.4472866058 -10.8524808884 46.8619041443
-31.4984703064 -10.8687286377 46.6658096313
-31.5549411774 -10.8866186142 46.4705276489
-31.6137580872 -10.9052362442 46.2756538391
-31.6731605530 -10.9240360260 46.0809288025
-31.7319087982 -10.9426326752 45.8861770630
-31.7888660431 -10.9606723785 45.6912345886
-31.8432521820 -10.9779138565 45.4959831238
-31.8944530487 -10.9941663742 45.3003273010
-31.9410972595 -11.0090045929 45.1040573120
-31.9809398651 -11.0217304230 44.9068336487
-32.0123138428 -11.0318269730 44.7083930969
-32.0356597900 -11.0394315720 44.5087890625
-32.0533905029 -11.0452909470 44.3083648682
-32.0685081482 -11.0503396988 44.1075668335
-32.0836563110 -11.0553989410 43.9067840576
-32.1011810303 -11.0611953735 43.7063751221
-32.1233711243 -11.0684404373 43.5066986084
-32.1520347595 -11.0776948929 43.3080329895
-32.1877593994 -11.0891418457 43.1104812622
-32.2300910950 -11.1026401520 42.9139938354
-32.2786712646 -11.1180782318 42.7185173035
-32.3338737488 -11.1355724335 42.5241317749
-32.3959274292 -11.1551933289 42.3308792114
-32.4634094238 -11.1764984131 42.1385498047
-32.5329513550 -11.1984443665 41.9466247559
-32.6009101868 -11.2198982239 41.7545318604
-32.6653862000 -11.2402706146 41.5619659424
-32.7265968323 -11.2596282959 41.3689537048
-32.7855262756 -11.2782793045 41.1756477356
-32.8427581787 -11.2964019775 40.9821395874
-32.8987808228 -11.3141489029 40.7885017395
-32.9551811218 -11.3320140839 40.5949897766
-33.0150260925 -11.3509483337 40.4021034241
-33.0815696716 -11.3719615936 40.2103805542
-33.1562309265 -11.3954935074 40.0200614929
-33.2374153137 -11.4210529327 39.8309097290
-33.3212661743 -11.4474391937 39.6422920227
-33.4038467407 -11.4734306335 39.4535636902
-33.4833183289 -11.4984560013 39.2644157410
-33.5609397888 -11.5229072571 39.0750541687
-33.6410255432 -11.5481243134 38.8861961365
-33.7299766541 -11.5760927200 38.6989288330
-33.8338356018 -11.6086883545 38.5142822266
-33.9549865723 -11.6466531754 38.3326911926
-34.0901718140 -11.6889743805 38.1536331177
-34.2313919067 -11.7331686020 37.9757728577
-34.3693313599 -11.7763442993 37.7975196838
-34.4973297119 -11.8164329529 37.6177291870
-34.6135749817 -11.8528738022 37.4360618591
-34.7203483582 -11.8863725662 37.2528953552
-34.8217430115 -11.9182014465 37.0689201355
-34.9221954346 -11.9497385025 36.8849029541
-35.0263061523 -11.9824104309 36.7016487122
-35.1387748718 -12.0176782608 36.5199928284
-35.2639045715 -12.0568752289 36.3407020569
-35.4044189453 -12.1008472443 36.1642875671
-35.5596542358 -12.1493883133 35.9906578064
-35.7243118286 -12.2008543015 35.8188972473
-35.8898620605 -12.2525978088 35.6475028992
-36.0485649109 -12.3022155762 35.4750785828
-36.1972808838 -12.3487310410 35.3010482788
-36.3384361267 -12.3929014206 35.1258354187
-36.4783248901 -12.4366769791 34.9505615234
-36.6242256165 -12.4823188782 34.7765541077
-36.7819519043 -12.5316314697 34.6048889160
-36.9543037415 -12.5854835510 34.4360923767
-37.1406021118 -12.6436653137 34.2700767517
-37.3371620178 -12.7050304413 34.1061820984
-37.5386581421 -12.7679281235 33.9434432983
-37.7396774292 -12.8306779861 33.7808647156
-37.9357147217 -12.8918809891 33.6176071167
-38.1234550476 -12.9505071640 33.4530334473
-38.3007469177 -13.0058908463 33.2867355347
-38.4661712646 -13.0575885773 33.1184158325
-38.6180496216 -13.1050825119 32.9477386475
-38.7541465759 -13.1476764679 32.7742538452
-38.8730278015 -13.1849269867 32.5976638794
-38.9761123657 -13.2172737122 32.4182014465
-39.0685119629 -13.2463035583 32.2368164063
-39.1581764221 -13.2744846344 32.0550193787
-39.2537422180 -13.3044958115 31.8744640350
-39.3618049622 -13.3383874893 31.6964416504
-39.4849586487 -13.3769626617 31.5214786530
-39.6217498779 -13.4197702408 31.3493175507
-39.7684326172 -13.4656476974 31.1792564392
-39.9210128784 -13.5133562088 31.0105304718
-40.0763206482 -13.5619106293 30.8425273895
-40.2321243286 -13.6106195450 30.6748104095
-40.3872375488 -13.6591129303 30.5071487427
-40.5420341492 -13.7075071335 30.3396148682
-40.6989746094 -13.7565670013 30.1726970673
-40.8627357483 -13.8077430725 30.0073318481
-41.0396842957 -13.8630132675 29.8448104858
-41.2359199524 -13.9242687225 29.6863822937
-41.4535598755 -13.9921684265 29.5325088501
-41.6876296997 -14.0651655197 29.3822269440
-41.9263305664 -14.1396007538 29.2331752777
-42.1544418335 -14.2107496262 29.0822639465
-42.3577728271 -14.2742042542 28.9265747070
-42.5272407532 -14.3271484375 28.7642059326
-42.6613845825 -14.3691291809 28.5947914124
-42.7662620544 -14.4020261765 28.4195117950
-42.8534736633 -14.4294395447 28.2407093048
-42.9369964600 -14.4557075500 28.0612468719
-43.0288772583 -14.4845685959 27.8836212158
-43.1349830627 -14.5178461075 27.7090721130
-43.2535972595 -14.5550050735 27.5372676849
-43.3779067993 -14.5939311981 27.3668003082
-43.5008583069 -14.6324357986 27.1961994171
-43.6192436218 -14.6695232391 27.0247859955
-43.7346343994 -14.7056798935 26.8528804779
-43.8507537842 -14.7420644760 26.6812725067
-43.9694099426 -14.7792348862 26.5103435516
-44.0880889893 -14.8164119720 26.3395633698
-44.2016792297 -14.8520097733 26.1678371429
-44.3071670532 -14.8850927353 25.9945106506
-44.4068069458 -14.9163599014 25.8200492859
-44.5062332153 -14.9475612640 25.6456642151
-44.6098518372 -14.9800624847 25.4723052979
-44.7182502747 -15.0140476227 25.3001117706
-44.8288841248 -15.0487260818 25.1285362244
-44.9379463196 -15.0829172134 24.9567527771
-45.0423507690 -15.1156616211 24.7840785980
-45.1414718628 -15.1467676163 24.6103706360
-45.2373657227 -15.1768703461 24.4360694885
-45.3324356079 -15.2067184448 24.2617034912
-45.4264106750 -15.2362260818 24.0872077942
-45.5154838562 -15.2642107010 23.9117355347
-45.5947761536 -15.2891607285 23.7341880798
-45.6624450684 -15.3105030060 23.5541381836
-45.7221679688 -15.3293790817 23.3723850250
-45.7818298340 -15.3482379913 23.1906890869
-45.8490982056 -15.3694543839 23.0107765198
-45.9271545410 -15.3940210342 22.8333854675
-46.0142059326 -15.4213781357 22.6581268311
-46.1069793701 -15.4505109787 22.4842720032
-46.2047920227 -15.4812078476 22.3116798401
-46.3101539612 -15.5142469406 22.1409320831
-46.4254226685 -15.5503597260 21.9725818634
-46.5487174988 -15.5889635086 21.8062171936
-46.6728096008 -15.6278142929 21.6401882172
-46.7881813049 -15.6639595032 21.4722938538
-46.8882102966 -15.6953430176 21.3009834290
-46.9723892212 -15.7218055725 21.1261081696
-47.0452232361 -15.7447490692 20.9486904144
-47.1125335693 -15.7659778595 20.7700672150
-47.1786766052 -15.7868442535 20.5912513733
-47.2462387085 -15.8081502914 20.4128456116
-47.3169670105 -15.8304395676 20.2352657318
-47.3925895691 -15.8542480469 20.0589275360
-47.4749259949 -15.8801383972 19.8842697144
-47.5651206970 -15.9084682465 19.7115764618
-47.6623954773 -15.9389934540 19.5406761169
-47.7632293701 -15.9706249237 19.3707447052
-47.8620834351 -16.0016403198 19.2004604340
-47.9533538818 -16.0303039551 19.0284767151
-48.0337600708 -16.0555934906 18.8539867401
-48.1044654846 -16.0778751373 18.6772518158
-48.1718826294 -16.0991344452 18.4998073578
-48.2457237244 -16.1223869324 18.3239994049
-48.3344268799 -16.1502513885 18.1518936157
-48.4405021667 -16.1835079193 17.9841308594
-48.5588531494 -16.2205715179 17.8194961548
-48.6793327332 -16.2582969666 17.6555271149
-48.7921371460 -16.2936401367 17.4898185730
-48.8925018311 -16.3251228333 17.3211841583
-48.9818420410 -16.3531837463 17.1499481201
-49.0651893616 -16.3793869019 16.9773368835
-49.1474800110 -16.4052581787 16.8045616150
-49.2310409546 -16.4315261841 16.6322021484
-49.3147239685 -16.4578323364 16.4599723816
-49.3940200806 -16.4827766418 16.2867469788
-49.4624824524 -16.5043582916 16.1108989716
-49.5149002075 -16.5209598541 15.9310989380
-49.5509452820 -16.5324840546 15.7472333908
-49.5770072937 -16.5409069061 15.5608863831
-49.6049308777 -16.5499095917 15.3750391006
-49.6477470398 -16.5635337830 15.1930027008
-49.7139930725 -16.5844268799 15.0169792175
-49.8038940430 -16.6126613617 14.8470687866
-49.9100265503 -16.6459293365 14.6814184189
-50.0213088989 -16.6807975769 14.5172185898
-50.1270675659 -16.7139511108 14.3517332077
-50.2195777893 -16.7429924011 14.1829624176
-50.2952003479 -16.7667942047 14.0099411011
-50.3537483215 -16.7852973938 13.8325872421
-50.3968734741 -16.7990150452 13.6512994766
-50.4275321960 -16.8088645935 13.4668178558
-50.4511680603 -16.8165359497 13.2805366516
-50.4765014648 -16.8247337341 13.0947246552
-50.5139274597 -16.8366832733 12.9121093750
-50.5716819763 -16.8549404144 12.7348766327
-50.6521530151 -16.8802452087 12.5636940002
-50.7508392334 -16.9112014771 12.3974170685
-50.8588142395 -16.9450397491 12.2337169647
-50.9670829773 -16.9789695740 12.0702257156
-51.0698509216 -17.0111923218 11.9054031372
-51.1643257141 -17.0408420563 11.7384958267
-51.2480621338 -17.0671596527 11.5688343048
-51.3172111511 -17.0889492035 11.3953657150
-51.3675460815 -17.1049041748 11.2169294357
-51.3967704773 -17.1143074036 11.0328722000
-51.4059753418 -17.1174983978 10.8434476852
-51.4001159668 -17.1160163879 10.6499567032
-51.3877868652 -17.1125278473 10.4547004700
-51.3797645569 -17.1103744507 10.2605943680
-51.3864402771 -17.1127815247 10.0704717636
-51.4155540466 -17.1221504211 9.8864765167
-51.4711151123 -17.1397247314 9.7097444534
-51.5526885986 -17.1653690338 9.5402069092
-51.6547241211 -17.1973628998 9.3763895035
-51.7668914795 -17.2325000763 9.2154855728
-51.8763885498 -17.2668075562 9.0539798737
-51.9716415405 -17.2966957092 8.8886690140
-52.0455970764 -17.3199768066 8.7175674438
-52.0968132019 -17.3362007141 8.5402345657
-52.1280708313 -17.3462352753 8.3574028015
-52.1437149048 -17.3514232635 8.1702461243
-52.1473236084 -17.3528785706 7.9797372818
-52.1406021118 -17.3511276245 7.7863297462
-52.1236610413 -17.3462066650 7.5900378227
-52.0970077515 -17.3382740021 7.3909831047
-52.0647315979 -17.3285961151 7.1903018951
-52.0367965698 -17.3202648163 6.9908027649
-52.0277595520 -17.3177967072 6.7966227531
-52.0516166687 -17.3255329132 6.6117739677
-52.1153564453 -17.3456439972 6.4383115768
-52.2148818970 -17.3768539429 6.2751398087
-52.3357658386 -17.4146938324 6.1181998253
-52.4588966370 -17.4532279968 5.9620513916
-52.5672225952 -17.4871692657 5.8017988205
-52.6493453979 -17.5129814148 5.6341314316
-52.6994895935 -17.5288734436 5.4573330879
-52.7165794373 -17.5345096588 5.2710304260
-52.7033348083 -17.5307350159 5.0759501457
-52.6649360657 -17.5191574097 4.8735404015
-52.6083793640 -17.5019474030 4.6657896042
-52.5438346863 -17.4822578430 4.4556322098
-52.4862098694 -17.4647159576 4.2474098206
-52.4536628723 -17.4549541473 4.0464596748
-52.4629669189 -17.4581756592 3.8577551842
-52.5240745544 -17.4774684906 3.6843039989
-52.6362648010 -17.5126075745 3.5259909630
-52.7872657776 -17.5597858429 3.3792874813
-52.9564476013 -17.6126060486 3.2381560802
-53.1213073730 -17.6640834808 3.0959496498
-53.2642059326 -17.7087459564 2.9474124908
-53.3759994507 -17.7437610626 2.7897791862
-53.4556274414 -17.7687988281 2.6226725578
-53.5072784424 -17.7851543427 2.4472849369
-53.5374450684 -17.7948474884 2.2655119896
-53.5529174805 -17.7999801636 2.0793533325
-53.5596122742 -17.8023910522 1.8905651569
-53.5621337891 -17.8035068512 1.7005202770
-53.5640830994 -17.8044471741 1.5103009939
-53.5688743591 -17.8062667847 1.3209393024
-53.5802078247 -17.8101158142 1.1335668564
-53.6016159058 -17.8170909882 0.9492701888
-53.6353492737 -17.8278903961 0.7687563300
-53.6815490723 -17.8425559998 0.5920910239
-53.7381019592 -17.8604316711 0.4186500907
-53.8010826111 -17.8803024292 0.2472479939
-53.8656806946 -17.9006748199 0.0764188766
-36.8970603943 56.7212524414 79.8134078979
-36.8988723755 56.7240066528 79.6341705322
-36.9010887146 56.7274055481 79.4549789429
-36.9040908813 56.7320518494 79.2758712769
-36.9076805115 56.7376327515 79.0968246460
-36.9108428955 56.7425346375 78.9177398682
-36.9118804932 56.7440528870 78.7384185791
-36.9089813232 56.7393188477 78.5586547852
-36.9010581970 56.7266044617 78.3783035278
-36.8881378174 56.7059364319 78.1973648071
-36.8708076477 56.6782646179 78.0158767700
-36.8494949341 56.6442604065 77.8338851929
-36.8246383667 56.6046218872 77.6514129639
-36.7974929810 56.5613441467 77.4686126709
-36.7704086304 56.5181655884 77.2857437134
-36.7462768555 56.4796791077 77.1031646729
-36.7277526855 56.4501075745 76.9212188721
-36.7168045044 56.4325828552 76.7401580811
-36.7144737244 56.4287452698 76.5601425171
-36.7205848694 56.4383392334 76.3811874390
-36.7334823608 56.4587097168 76.2031021118
-36.7499580383 56.4847717285 76.0255050659
-36.7658691406 56.5099411011 75.8478622437
-36.7773857117 56.5281219482 75.6696853638
-36.7822074890 56.5356597900 75.4906387329
-36.7800559998 56.5321121216 75.3106765747
-36.7721710205 56.5194549561 75.1299285889
-36.7604255676 56.5006599426 74.9486389160
-36.7466506958 56.4786376953 74.7670364380
-36.7325134277 56.4560356140 74.5853424072
-36.7197036743 56.4355468750 74.4038009644
-36.7099647522 56.4199371338 74.2226562500
-36.7046508789 56.4113655090 74.0421066284
-36.7042503357 56.4106063843 73.8622360229
-36.7083053589 56.4169235229 73.6830062866
-36.7154579163 56.4281654358 73.5042266846
-36.7233734131 56.4406204224 73.3255767822
-36.7288436890 56.4491958618 73.1465759277
-36.7286109924 56.4486961365 72.9667358398
-36.7205352783 56.4357337952 72.7857208252
-36.7044067383 56.4099655151 72.6034622192
-36.6820106506 56.3742408752 72.4202117920
-36.6566963196 56.3338775635 72.2364501953
-36.6325416565 56.2953529358 72.0528106689
-36.6134414673 56.2648620605 71.8698959351
-36.6022109985 56.2468872070 71.6881561279
-36.5998992920 56.2430839539 71.5078048706
-36.6053924561 56.2516899109 71.3286743164
-36.6156845093 56.2679252625 71.1503295898
-36.6268501282 56.2855491638 70.9721374512
-36.6351814270 56.2986679077 70.7935104370
-36.6378364563 56.3027572632 70.6139678955
-36.6329040527 56.2947959900 70.4331741333
-36.6196823120 56.2736473083 70.2509841919
-36.5993232727 56.2411613464 70.0675735474
-36.5752105713 56.2027053833 69.8834686279
-36.5520057678 56.1656875610 69.6994628906
-36.5338401794 56.1366844177 69.5162506104
-36.5228958130 56.1191635132 69.3342437744
-36.5191116333 56.1130180359 69.1534347534
-36.5209312439 56.1157836914 68.9735946655
-36.5264091492 56.1243667603 68.7943954468
-36.5338630676 56.1360893250 68.6155548096
-36.5418434143 56.1486473083 68.4368209839
-36.5488548279 56.1596679688 68.2579269409
-36.5532951355 56.1666030884 68.0785751343
-36.5535926819 56.1669464111 67.8984832764
-36.5483856201 56.1585426331 67.7173843384
-36.5367355347 56.1398963928 67.5350799561
-36.5186424255 56.1110076904 67.3515548706
-36.4957199097 56.0744438171 67.1670837402
-36.4714126587 56.0356826782 66.9822921753
-36.4502143860 56.0018539429 66.7980270386
-36.4361152649 55.9793128967 66.6150512695
-36.4309959412 55.9710502625 66.4337463379
-36.4337615967 55.9753227234 66.2539443970
-36.4407958984 55.9863739014 66.0749664307
-36.4476737976 55.9971809387 65.8959732056
-36.4509620667 56.0022811890 65.7162857056
-36.4488334656 55.9987754822 65.5355377197
-36.4407119751 55.9857368469 65.3535919189
-36.4268798828 55.9636230469 65.1704864502
-36.4085350037 55.9343299866 64.9864425659
-36.3878059387 55.9012527466 64.8018646240
-36.3673019409 55.8685340881 64.6172866821
-36.3493499756 55.8398666382 64.4331665039
-36.3354949951 55.8177185059 64.2498474121
-36.3264198303 55.8031654358 64.0674743652
-36.3218650818 55.7957954407 63.8860054016
-36.3206634521 55.7937583923 63.7052230835
-36.3211936951 55.7944793701 63.5247993469
-36.3218994141 55.7954711914 63.3444061279
-36.3212471008 55.7943077087 63.1637229919
-36.3175163269 55.7882537842 62.9823760986
-36.3091316223 55.7747955322 62.8000183105
-36.2953414917 55.7527465820 62.6164741516
-36.2766075134 55.7228393555 62.4318161011
-36.2545242310 55.6876106262 62.2463836670
-36.2316169739 55.6510658264 62.0607109070
-36.2110176086 55.6181945801 61.8754920959
-36.1957702637 55.5938301086 61.6914024353
-36.1878242493 55.5810699463 61.5088958740
-36.1873054504 55.5801200867 61.3280258179
-36.1924285889 55.5881385803 61.1484222412
-36.2001190186 55.6002349854 60.9694023132
-36.2070274353 55.6110916138 60.7902221680
-36.2105026245 55.6164894104 60.6102676392
-36.2089576721 55.6139068604 60.4291610718
-36.2017669678 55.6023483276 60.2467460632
-36.1891326904 55.5821380615 60.0630455017
-36.1720924377 55.5549201965 59.8782844543
-36.1523513794 55.5234107971 59.6928443909
-36.1318321228 55.4906654358 59.5071716309
-36.1123390198 55.4595527649 59.3216857910
-36.0955314636 55.4327049255 59.1367874146
-36.0828056335 55.4123497009 58.9528236389
-36.0748519897 55.3995780945 58.7699699402
-36.0712890625 55.3937873840 58.5881500244
-36.0707321167 55.3927764893 58.4070472717
-36.0712280273 55.3934364319 58.2261962891
-36.0706481934 55.3923912048 58.0450782776
-36.0670051575 55.3864707947 57.8631973267
-36.0588188171 55.3733291626 57.6801834106
-36.0456886292 55.3523292542 57.4959144592
-36.0285949707 55.3250274658 57.3106193542
-36.0096321106 55.2947540283 57.1248130798
-35.9914169312 55.2656745911 56.9391441345
-35.9764709473 55.2417869568 56.7542572021
-35.9666404724 55.2260322571 56.5706291199
-35.9626312256 55.2195358276 56.3884582520
-35.9637527466 55.2211875916 56.2075920105
-35.9680099487 55.2278251648 56.0275344849
-35.9727554321 55.2352447510 55.8476066589
-35.9756813049 55.2397689819 55.6672096252
-35.9753952026 55.2391853333 55.4859771729
-35.9711532593 55.2323150635 55.3036994934
-35.9622383118 55.2180175781 55.1201782227
-35.9479217529 55.1951332092 54.9351959229
-35.9281730652 55.1636123657 54.7487297058
-35.9042854309 55.1255111694 54.5611076355
-35.8786926270 55.0846977234 54.3729667664
-35.8541107178 55.0454902649 54.1850318909
-35.8328056335 55.0114974976 53.9979209900
-35.8164024353 54.9852905273 53.8120880127
-35.8058700562 54.9684181213 53.6278190613
-35.8012886047 54.9610099792 53.4451484680
-35.8015937805 54.9613647461 53.2638092041
-35.8046760559 54.9661369324 53.0832366943
-35.8078155518 54.9710044861 52.9026832581
-35.8083343506 54.9717025757 52.7213973999
-35.8044052124 54.9653282166 52.5388641357
-35.7955055237 54.9510536194 52.3549156189
-35.7821960449 54.9297676086 52.1696968079
-35.7656898499 54.9034004211 51.9835319519
-35.7475967407 54.8745117188 51.7968750000
-35.7297210693 54.8459625244 51.6102294922
-35.7138214111 54.8205642700 51.4241065979
-35.7014999390 54.8008499146 51.2389755249
-35.6940956116 54.7889480591 51.0552291870
-35.6923103333 54.7859840393 50.8731002808
-35.6956672668 54.7911911011 50.6924591064
-35.7022590637 54.8015441895 50.5127716064
-35.7092361450 54.8125076294 50.3332099915
-35.7138557434 54.8197250366 50.1529617310
-35.7145042419 54.8206253052 49.9715385437
-35.7110443115 54.8150024414 49.7888908386
-35.7044143677 54.8043327332 49.6052818298
-35.6958618164 54.7906074524 49.4210739136
-35.6863594055 54.7753791809 49.2365570068
-35.6765060425 54.7595825195 49.0519027710
-35.6667976379 54.7440261841 48.8672676086
-35.6579818726 54.7298812866 48.6828727722
-35.6509208679 54.7185287476 48.4989929199
-35.6461410522 54.7108001709 48.3157920837
-35.6434326172 54.7063713074 48.1332168579
-35.6418418884 54.7037124634 47.9509735107
-35.6399574280 54.7005920410 47.7686309814
-35.6364669800 54.6949157715 47.5857772827
-35.6305313110 54.6853485107 47.4021415710
-35.6217193604 54.6712112427 47.2175865173
-35.6096878052 54.6519584656 47.0319900513
-35.5942840576 54.6273460388 46.8452911377
-35.5763168335 54.5986518860 46.6577339172
-35.5582733154 54.5698394775 46.4701080322
-35.5440101624 54.5470390320 46.2836456299
-35.5371170044 54.5359535217 46.0995140076
-35.5387344360 54.5383949280 45.9181022644
-35.5464134216 54.5504722595 45.7386589050
-35.5550918579 54.5641441345 45.5595512390
-35.5595130920 54.5710449219 45.3790702820
-35.5562400818 54.5657157898 45.1960754395
-35.5443954468 54.5467567444 45.0102500916
-35.5254516602 54.5165176392 44.8220520020
-35.5023765564 54.4797019958 44.6324386597
-35.4783897400 54.4414443970 44.4424629211
-35.4560852051 54.4058570862 44.2529869080
-35.4372367859 54.3757629395 44.0646095276
-35.4230308533 54.3530540466 43.8777389526
-35.4141960144 54.3388824463 43.6926383972
-35.4107894897 54.3333396912 43.5093498230
-35.4118232727 54.3348503113 43.3275527954
-35.4152717590 54.3402061462 43.1465759277
-35.4188880920 54.3458251953 42.9656562805
-35.4212455750 54.3494453430 42.7843132019
-35.4219970703 54.3505172729 42.6024169922
-35.4209594727 54.3487358093 42.4198989868
-35.4171257019 54.3425140381 42.2364044189
-35.4090309143 54.3295211792 42.0514183044
-35.3959693909 54.3086280823 41.8646774292
-35.3786659241 54.2809906006 41.6764144897
-35.3588562012 54.2493705750 41.4872245789
-35.3387107849 54.2172164917 41.2978706360
-35.3206367493 54.1883544922 41.1091918945
-35.3069152832 54.1664085388 40.9220085144
-35.2988929749 54.1535263062 40.7368164063
-35.2963752747 54.1494026184 40.5535659790
-35.2977256775 54.1514167786 40.3716850281
-35.3002586365 54.1553153992 40.1902313232
-35.3006553650 54.1558227539 40.0080070496
-35.2956352234 54.1477127075 39.8238220215
-35.2829742432 54.1274528503 39.6368446350
-35.2621803284 54.0942687988 39.4468727112
-35.2342948914 54.0498085022 39.2542610168
-35.2012367249 53.9971275330 39.0596847534
-35.1654319763 53.9400787354 38.8640136719
-35.1296958923 53.8831367493 38.6682777405
-35.0968933105 53.8308639526 38.4735374451
-35.0692710876 53.7868194580 38.2806358337
-35.0477142334 53.7524223328 38.0899238586
-35.0314178467 53.7263870239 37.9011230469
-35.0180931091 53.7050743103 37.7133865356
-35.0047035217 53.6836624146 37.5255928040
-34.9884223938 53.6576499939 37.3366699219
-34.9674758911 53.6242218018 37.1459426880
-34.9417343140 53.5831680298 36.9533386230
-34.9130172729 53.5373840332 36.7595367432
-34.8847770691 53.4923629761 36.5658493042
-34.8610267639 53.4544754028 36.3738059998
-34.8449287415 53.4287567139 36.1846389771
-34.8377647400 53.4172401428 35.9988708496
-34.8386192322 53.4184684753 35.8161773682
-34.8448371887 53.4282226563 35.6355628967
-34.8529548645 53.4410018921 35.4556961060
-34.8598289490 53.4518013000 35.2753562927
-34.8633918762 53.4573402405 35.0937347412
-34.8626022339 53.4559555054 34.9104118347
-34.8568420410 53.4466705322 34.7251205444
-34.8457031250 53.4288330078 34.5376930237
-34.8293495178 53.4027023315 34.3481674194
-34.8088111877 53.3699226379 34.1569366455
-34.7859230042 53.3334121704 33.9647178650
-34.7630920410 53.2969818115 33.7724647522
-34.7428207397 53.2646255493 33.5811729431
-34.7268791199 53.2391586304 33.3915710449
-34.7154998779 53.2209396362 33.2037658691
-34.7072677612 53.2077217102 33.0172004700
-34.6998748779 53.1958427429 32.8309478760
-34.6911811829 53.1818885803 32.6441459656
-34.6798934937 53.1638183594 32.4562606812
-34.6655502319 53.1408843994 32.2670936584
-34.6480674744 53.1129608154 32.0766029358
-34.6276702881 53.0804061890 31.8848667145
-34.6053962708 53.0448684692 31.6923027039
-34.5835647583 53.0100326538 31.4998645782
-34.5654869080 52.9811592102 31.3089256287
-34.5543403625 52.9633102417 31.1208229065
-34.5519332886 52.9593544006 30.9363327026
-34.5581245422 52.9690704346 30.7554302216
-34.5710678101 52.9895172119 30.5773677826
-34.5877876282 53.0159721375 30.4009208679
-34.6047782898 53.0428543091 30.2246227264
-34.6185951233 53.0646934509 30.0470161438
-34.6264991760 53.0771293640 29.8669281006
-34.6268196106 53.0775108337 29.6836299896
-34.6189727783 53.0649032593 29.4968433380
-34.6033859253 53.0399971008 29.3067245483
-34.5815925598 53.0052185059 29.1138992310
-34.5562667847 52.9648284912 28.9195003510
-34.5308761597 52.9243316650 28.7250061035
-34.5087280273 52.8889961243 28.5318508148
-34.4918556213 52.8620376587 28.3409252167
-34.4802780151 52.8435020447 28.1522579193
-34.4721832275 52.8305091858 27.9650764465
-34.4648933411 52.8187866211 27.7782230377
-34.4560012817 52.8045234680 27.5906448364
-34.4440536499 52.7854003906 27.4016971588
-34.4285163879 52.7605705261 27.2111339569
-34.4094810486 52.7301788330 27.0189838409
-34.3874206543 52.6949768066 26.8254432678
-34.3629951477 52.6560134888 26.6307945251
-34.3368873596 52.6143760681 26.4353332520
-34.3098831177 52.5713157654 26.2394065857
-34.2831954956 52.5287590027 26.0435504913
-34.2585067749 52.4893836975 25.8485260010
-34.2374153137 52.4557228088 25.6550579071
-34.2205543518 52.4287834167 25.4634418488
-34.2070655823 52.4072151184 25.2733097076
-34.1948699951 52.3876914978 25.0837249756
-34.1815147400 52.3663330078 24.8935794830
-34.1650962830 52.3400993347 24.7020015717
-34.1446380615 52.3074455261 24.5085315704
-34.1201095581 52.2683181763 24.3131427765
-34.0923271179 52.2240219116 24.1161956787
-34.0627250671 52.1768302917 23.9183387756
-34.0331878662 52.1297416687 23.7204360962
-34.0061302185 52.0865936279 23.5236072540
-33.9843788147 52.0518836975 23.3291740417
-33.9701042175 52.0290641785 23.1381645203
-33.9634132385 52.0182914734 22.9506568909
-33.9620475769 52.0159950256 22.7656192780
-33.9625167847 52.0166091919 22.5814342499
-33.9614677429 52.0148124695 22.3965320587
-33.9565582275 52.0068778992 22.2098026276
-33.9469680786 51.9915046692 22.0208435059
-33.9337272644 51.9703254700 21.8301277161
-33.9193878174 51.9473953247 21.6388511658
-33.9069366455 51.9274749756 21.4484386444
-33.8986091614 51.9141006470 21.2599563599
-33.8951301575 51.9084396362 21.0737724304
-33.8956260681 51.9090995789 20.8894805908
-33.8981742859 51.9130210876 20.7061729431
-33.9007949829 51.9170570374 20.5229015350
-33.9021835327 51.9191398621 20.3390350342
-33.9015235901 51.9179573059 20.1541748047
-33.8977050781 51.9117546082 19.9677734375
-33.8890533447 51.8978729248 19.7790050507
-33.8739624023 51.8737525940 19.5870704651
-33.8518791199 51.8385124207 19.3916721344
-33.8238792419 51.7938652039 19.1933155060
-33.7925643921 51.7439498901 18.9932575226
-33.7612571716 51.6940498352 18.7931270599
-33.7328567505 51.6487655640 18.5943489075
-33.7090721130 51.6108245850 18.3977870941
-33.6904144287 51.5810317993 18.2037086487
-33.6764106750 51.5586395264 18.0118961334
-33.6655998230 51.5413169861 17.8216362000
-33.6555595398 51.5252265930 17.6317310333
-33.6434593201 51.5058593750 17.4407653809
-33.6270713806 51.4796752930 17.2476139069
-33.6057624817 51.4456672668 17.0519409180
-33.5809402466 51.4060745239 16.8544387817
-33.5555305481 51.3655471802 16.6565742493
-33.5325469971 51.3288764954 16.4598770142
-33.5135612488 51.2985572815 16.2651500702
-33.4981155396 51.2738761902 16.0721778870
-33.4844360352 51.2519950867 15.8800630569
-33.4705467224 51.2297821045 15.6878061295
-33.4550323486 51.2049865723 15.4946765900
-33.4371719360 51.1764602661 15.3003005981
-33.4169235229 51.1441421509 15.1046466827
-33.3949203491 51.1090278625 14.9080314636
-33.3722839355 51.0729064941 14.7110328674
-33.3503189087 51.0378570557 14.5143241882
-33.3302650452 51.0058441162 14.3185510635
-33.3130683899 50.9783782959 14.1242170334
-33.2991600037 50.9561271667 13.9315509796
-33.2883224487 50.9387702942 13.7404584885
-33.2798919678 50.9252357483 13.5505952835
-33.2729835510 50.9141197205 13.3615093231
-33.2666893005 50.9039840698 13.1727256775
-33.2601661682 50.8934822083 12.9838008881
-33.2527503967 50.8815650940 12.7943840027
-33.2442092896 50.8678550720 12.6043462753
-33.2350616455 50.8531799316 12.4139614105
-33.2266693115 50.8397102356 12.2239522934
-33.2207221985 50.8301239014 12.0352239609
-33.2185211182 50.8264923096 11.8484811783
-33.2207336426 50.8298835754 11.6640987396
-33.2276191711 50.8406944275 11.4822263718
-33.2388954163 50.8584938049 11.3027353287
-33.2531509399 50.8810310364 11.1248731613
-33.2674179077 50.9035797119 10.9470462799
-33.2777557373 50.9198875427 10.7671165466
-33.2807197571 50.9244689941 10.5831985474
-33.2747268677 50.9148101807 10.3943996429
-33.2603340149 50.8917999268 10.2009973526
-33.2395133972 50.8585662842 10.0040359497
-33.2148513794 50.8192253113 9.8049135208
-33.1893234253 50.7785072327 9.6052522659
-33.1660346985 50.7413482666 9.4067583084
-33.1474914551 50.7117385864 9.2108249664
-33.1349067688 50.6916007996 9.0181379318
-33.1280021667 50.6804924011 8.8285646439
-33.1252250671 50.6759490967 8.6412639618
-33.1241493225 50.6741104126 8.4548988342
-33.1221389771 50.6707801819 8.2680034637
-33.1172523499 50.6628799438 8.0794897079
-33.1088943481 50.6494598389 7.8890147209
-33.0978736877 50.6318130493 7.6970224380
-33.0860900879 50.6129455566 7.5045671463
-33.0760879517 50.5969123840 7.3130831718
-33.0704574585 50.5878295898 7.1240415573
-33.0709495544 50.5884819031 6.9384479523
-33.0777587891 50.5991783142 6.7564358711
-33.0894660950 50.6176605225 6.5772185326
-33.1035842896 50.6399726868 6.3993968964
-33.1172828674 50.6616249084 6.2213659286
-33.1279792786 50.6784973145 6.0416431427
-33.1338195801 50.6876525879 5.8591575623
-33.1341323853 50.6880226135 5.6735067368
-33.1296463013 50.6807594299 5.4850859642
-33.1223564148 50.6690406799 5.2950339317
-33.1151771545 50.6574897766 5.1050214767
-33.1112251282 50.6510772705 4.9168572426
-33.1129035950 50.6536140442 4.7319474220
-33.1210327148 50.6664085388 4.5507884026
-33.1345291138 50.6877365112 4.3727717400
-33.1508827209 50.7136116028 4.1964516640
-33.1672210693 50.7394523621 4.0201544762
-33.1812973022 50.7617073059 3.8425672054
-33.1921501160 50.7788276672 3.6631112099
-33.2003822327 50.7917861938 3.4821345806
-33.2081108093 50.8039436340 3.3008742332
-33.2182350159 50.8199119568 3.1210455894
-33.2332763672 50.8436965942 2.9441475868
-33.2544250488 50.8771858215 2.7709026337
-33.2814025879 50.9199523926 2.6011722088
-33.3129425049 50.9699668884 2.4342181683
-33.3470611572 51.0240821838 2.2688734531
-33.3810882568 51.0780525208 2.1035490036
-33.4120864868 51.1272048950 1.9364855289
-33.4378356934 51.1680183411 1.7663391829
-33.4575843811 51.1992874146 1.5926367044
-33.4721336365 51.2222862244 1.4158394337
-33.4836120605 51.2404098511 1.2372196913
-33.4951782227 51.2586631775 1.0586718321
-33.5103950500 51.2827301025 0.8823627830
-33.5325126648 51.3177680969 0.7102782726
-33.5638732910 51.3674964905 0.5438688397
-33.6055679321 51.4336585999 0.3838345110
-33.6574287415 51.5159835815 0.2301079482
-33.7184143066 51.6128120422 0.0820882618
-32.5744972229 -2.2638030052 80.1203842163
-32.6031875610 -2.2652740479 79.9186248779
-32.6599807739 -2.2678530216 79.7179870605
-32.7363929749 -2.2712059021 79.5181732178
-32.8198471069 -2.2748360634 79.3187255859
-32.8968505859 -2.2782115936 79.1191101074
-32.9573554993 -2.2809367180 78.9189071655
-32.9987831116 -2.2829093933 78.7179794312
-33.0272407532 -2.2843704224 78.5165481567
-33.0542945862 -2.2857758999 78.3150863647
-33.0909729004 -2.2875611782 78.1140670776
-33.1422615051 -2.2899224758 77.9137344360
-33.2047195435 -2.2927238941 77.7139511108
-33.2694206238 -2.2956135273 77.5143356323
-33.3290061951 -2.2983014584 77.3145523071
-33.3830451965 -2.3007705212 77.1145858765
-33.4367752075 -2.3032274246 76.9146652222
-33.4955749512 -2.3058841228 76.7150421143
-33.5612411499 -2.3088114262 76.5158081055
-33.6327934265 -2.3119704723 76.3169403076
-33.7091331482 -2.3153183460 76.1183853149
-33.7896080017 -2.3188288212 75.9201202393
-33.8719367981 -2.3224122524 75.7220458984
-33.9513244629 -2.3258798122 75.5239105225
-34.0229148865 -2.3290398121 75.3254623413
-34.0844154358 -2.3318018913 75.1265640259
-34.1357574463 -2.3341634274 74.9272003174
-34.1782035828 -2.3361742496 74.7274169922
-34.2150154114 -2.3379631042 74.5273666382
-34.2516593933 -2.3397452831 74.3273544312
-34.2931632996 -2.3417189121 74.1276473999
-34.3407096863 -2.3439304829 73.9283218384
-34.3904495239 -2.3462283611 73.7291717529
-34.4351882935 -2.3483290672 73.5297851563
-34.4678993225 -2.3499560356 73.3297576904
-34.4857940674 -2.3509988785 73.1288986206
-34.4924125671 -2.3515973091 72.9273910522
-34.4960784912 -2.3520793915 72.7257156372
-34.5066299438 -2.3528330326 72.5244522095
-34.5323982239 -2.3541860580 72.3241119385
-34.5768318176 -2.3562743664 72.1249465942
-34.6359405518 -2.3589408398 71.9267272949
-34.6998062134 -2.3617947102 71.7288818359
-34.7577743530 -2.3644158840 71.5307235718
-34.8030815125 -2.3665385246 71.3318328857
-34.8342132568 -2.3681023121 71.1320800781
-34.8534202576 -2.3691964149 70.9315795898
-34.8644180298 -2.3699672222 70.7305603027
-34.8713302612 -2.3705768585 70.5292816162
-34.8796043396 -2.3712401390 70.3281021118
-34.8971977234 -2.3722705841 70.1275482178
-34.9333152771 -2.3740308285 69.9282608032
-34.9938659668 -2.3767530918 69.7306900024
-35.0761718750 -2.3803322315 69.5346832275
-35.1677627563 -2.3842771053 69.3394165039
-35.2519569397 -2.3879301548 69.1437377930
-35.3168487549 -2.3908228874 68.9467773438
-35.3609085083 -2.3928952217 68.7484130859
-35.3912963867 -2.3944289684 68.5491104126
-35.4170265198 -2.3957793713 68.3494949341
-35.4424667358 -2.3971183300 68.1498870850
-35.4652976990 -2.3983542919 67.9501113892
-35.4797172546 -2.3992588520 67.7497253418
-35.4818420410 -2.3996796608 67.5484390259
-35.4736328125 -2.3996934891 67.3463592529
-35.4632301331 -2.3996207714 67.1441040039
-35.4615478516 -2.3998916149 66.9424972534
-35.4767684937 -2.4008278847 66.7421875000
-35.5101699829 -2.4024801254 66.5433120728
-35.5560417175 -2.4046230316 66.3454513550
-35.6050109863 -2.4068880081 66.1478881836
-35.6491661072 -2.4089632034 65.9499893188
-35.6865005493 -2.4107699394 65.7515945435
-35.7213592529 -2.4124789238 65.5530319214
-35.7597694397 -2.4143278599 65.3547973633
-35.8039169312 -2.4164023399 65.1570739746
-35.8512725830 -2.4186034203 64.9596710205
-35.8985900879 -2.4208025932 64.7623062134
-35.9459762573 -2.4230046272 64.5650024414
-35.9973793030 -2.4253644943 64.3680877686
-36.0584373474 -2.4281044006 64.1720581055
-36.1338081360 -2.4314074516 63.9773178101
-36.2238922119 -2.4352893829 63.7839317322
-36.3219032288 -2.4394831657 63.5913429260
-36.4142494202 -2.4434540272 63.3983650208
-36.4845619202 -2.4465572834 63.2035522461
-36.5188293457 -2.4482421875 63.0056152344
-36.5104522705 -2.4482486248 62.8039054871
-36.4640045166 -2.4467568398 62.5987548828
-36.3944969177 -2.4443578720 62.3914527893
-36.3210411072 -2.4418036938 62.1837043762
-36.2597122192 -2.4397268295 61.9769744873
-36.2199554443 -2.4384989738 61.7721557617
-36.2040786743 -2.4382107258 61.5695037842
-36.2078819275 -2.4386970997 61.3686714172
-36.2226791382 -2.4396157265 61.1688728333
-36.2391929626 -2.4406020641 60.9692459106
-36.2515640259 -2.4414253235 60.7692413330
-36.2587394714 -2.4420442581 60.5687484741
-36.2630729675 -2.4425511360 60.3679809570
-36.2684288025 -2.4430983067 60.1673126221
-36.2794494629 -2.4438683987 59.9672012329
-36.3016014099 -2.4450762272 59.7681922913
-36.3403663635 -2.4469377995 59.5708465576
-36.3983535767 -2.4495553970 59.3754539490
-36.4716110229 -2.4527733326 59.1816596985
-36.5484695435 -2.4561328888 58.9883079529
-36.6125221252 -2.4589884281 58.7937431335
-36.6479415894 -2.4607179165 58.5963325500
-37.0363578796 -2.4770026207 58.0335922241
-37.0447273254 -2.4776675701 57.8336753845
-37.0622100830 -2.4786908627 57.6347198486
-37.0868568420 -2.4799959660 57.4365348816
-37.1195297241 -2.4816167355 57.2392234802
-37.1640815735 -2.4837045670 57.0432167053
-37.2239570618 -2.4863948822 56.8489036560
-37.2969970703 -2.4896025658 56.6560745239
-37.3736610413 -2.4929528236 56.4637260437
