-36.1863670349 -2.4061307907 66.5229721069
-36.2307701111 -2.4078903198 66.3277206421
-36.2539482117 -2.4088442326 66.1305541992
-36.2558097839 -2.4089894295 65.9314193726
-36.2423782349 -2.4085543156 65.7308349609
-36.2237968445 -2.4079236984 65.5297393799
-36.2109184265 -2.4075095654 65.3291702271
-36.2123794556 -2.4076397419 65.1299438477
-36.2333106995 -2.4085085392 64.9326019287
-36.2752952576 -2.4101760387 64.7373352051
-36.3365211487 -2.4125738144 64.5439910889
-36.4114303589 -2.4154908657 64.3520660400
-36.4906616211 -2.4185717106 64.1606674194
-36.5627975464 -2.4213833809 63.9686470032
-36.6179809570 -2.4235515594 63.7750091553
-36.6512985229 -2.4248902798 63.5792274475
-36.6635246277 -2.4254288673 63.3813400269
-36.6592063904 -2.4253394604 63.1817703247
-36.6443328857 -2.4248495102 62.9811019897
-36.6251068115 -2.4241945744 62.7799606323
-36.6071701050 -2.4235885143 62.5789222717
-36.5947341919 -2.4231913090 62.3784332275
-36.5901756287 -2.4230928421 62.1787528992
-36.5944786072 -2.4233305454 61.9800033569
-36.6079444885 -2.4239161015 61.7822303772
-36.6302261353 -2.4248359203 61.5854148865
-36.6597137451 -2.4260292053 61.3894004822
-36.6934165955 -2.4273824692 61.1938743591
-36.7282638550 -2.4287788868 60.9985122681
-36.7633323669 -2.4301841259 60.8032112122
-36.8014450073 -2.4317045212 60.6082839966
-36.8486862183 -2.4335713387 60.4144172668
-36.9115676880 -2.4360313416 60.2223472595
-36.9929237366 -2.4391922951 60.0324287415
-37.0890922546 -2.4429154396 59.8442764282
-37.1906013489 -2.4468410015 59.6568489075
-37.2863426208 -2.4505476952 59.4688835144
-37.3683700562 -2.4537339211 59.2794570923
-37.4336929321 -2.4562864304 59.0882034302
-37.4822273254 -2.4582021236 58.8950729370
-37.5138397217 -2.4594757557 58.7000274658
-37.5281867981 -2.4600944519 58.5029907227
-37.5273361206 -2.4601364136 58.3041725159
-37.5173568726 -2.4598321915 58.1042633057
-37.5062675476 -2.4594857693 57.9042053223
-37.5005455017 -2.4593431950 57.7047729492
-37.5035934448 -2.4595332146 57.5063858032
-37.5165214539 -2.4600977898 57.3091888428
-37.5393142700 -2.4610369205 57.1132087708
-37.5711860657 -2.4623203278 56.9183578491
-37.6105880737 -2.4638893604 56.7244720459
-37.6554489136 -2.4656655788 56.5313034058
-37.7036132813 -2.4675669670 56.3385963440
-37.7528800964 -2.4695100784 56.1460800171
-37.8010635376 -2.4714121819 55.9534873962
-37.8467636108 -2.4732201099 55.7606353760
-37.8903350830 -2.4749472141 55.5675659180
-37.9338836670 -2.4766733646 55.3745422363
-37.9801750183 -2.4785037041 55.1819229126
-38.0314636230 -2.4805235863 54.9899940491
-38.0890197754 -2.4827809334 54.7989349365
-38.1532783508 -2.4852926731 54.6088142395
-38.2235488892 -2.4880323410 54.4195556641
-38.2971076965 -2.4908969402 54.2308082581
-38.3690414429 -2.4936997890 54.0419349670
-38.4336357117 -2.4962239265 53.8521766663
-38.4862976074 -2.4982957840 53.6609039307
-38.5248718262 -2.4998331070 53.4678115845
-38.5504455566 -2.5008771420 53.2730178833
-38.5678176880 -2.5016102791 53.0771408081
-38.5848617554 -2.5023310184 52.8812408447
-38.6104621887 -2.5033760071 52.6865196228
-38.6514587402 -2.5050051212 52.4939308167
-38.7097129822 -2.5072889328 52.3037567139
-38.7805404663 -2.5100493431 52.1153907776
-38.8538551331 -2.5129044056 51.9274482727
-38.9179229736 -2.5154085159 51.7383079529
-38.9639358521 -2.5172278881 51.5467185974
-38.9892272949 -2.5182611942 51.3522682190
-38.9978179932 -2.5186610222 51.1554832458
-38.9987907410 -2.5187718868 50.9576301575
-39.0037574768 -2.5190343857 50.7603378296
-39.0238609314 -2.5198707581 50.5652122498
-39.0663833618 -2.5215578079 50.3733253479
-39.1323966980 -2.5241355896 50.1848793030
-39.2171096802 -2.5274224281 49.9992218018
-39.3121261597 -2.5311000347 49.8151626587
-39.4078025818 -2.5348026752 49.6313133240
-39.4950866699 -2.5381870270 49.4463500977
-39.5672874451 -2.5409991741 49.2592658997
-39.6213798523 -2.5431249142 49.0695877075
-39.6584129333 -2.5446031094 48.8774337769
-39.6829490662 -2.5456078053 48.6834526062
-39.7020530701 -2.5464060307 48.4886856079
-39.7239341736 -2.5473098755 48.2943572998
-39.7563743591 -2.5486140251 48.1016426086
-39.8048591614 -2.5505268574 47.9114036560
-39.8709831238 -2.5531084538 47.7239074707
-39.9521865845 -2.5562617779 47.5387992859
-40.0431709290 -2.5597860813 47.3552894592
-40.1379966736 -2.5634560585 47.1724815369
-40.2318496704 -2.5670890808 46.9896392822
-40.3224716187 -2.5705995560 46.8064041138
-40.4104766846 -2.5740108490 46.6228713989
-40.4979629517 -2.5774021149 46.4393615723
-40.5866012573 -2.5808374882 46.2561378479
-40.6770858765 -2.5843424797 46.0733108521
-40.7697792053 -2.5879311562 45.8909416199
-40.8650627136 -2.5916182995 45.7090988159
-40.9626693726 -2.5953931808 45.5277442932
-41.0605812073 -2.5991797447 45.3465538025
-41.1546630859 -2.6028211117 45.1648635864
-41.2401008606 -2.6061346531 44.9818840027
-41.3140678406 -2.6090130806 44.7971458435
-41.3770027161 -2.6114730835 44.6106948853
-41.4312286377 -2.6136028767 44.4228935242
-41.4790954590 -2.6154916286 44.2341079712
-41.5227355957 -2.6172199249 44.0446815491
-41.5648307800 -2.6188895702 43.8550491333
-41.6089973450 -2.6206378937 43.6658058167
-41.6596755981 -2.6226332188 43.4777030945
-41.7216224670 -2.6250555515 43.2915420532
-41.7985115051 -2.6280446053 43.1079711914
-41.8911018372 -2.6316289902 42.9271392822
-41.9961814880 -2.6356868744 42.7485351563
-42.1072769165 -2.6399726868 42.5710792542
-42.2166557312 -2.6441934109 42.3934669495
-42.3175888062 -2.6480939388 42.2145385742
-42.4063682556 -2.6515333652 42.0336418152
-42.4839172363 -2.6545472145 41.8509140015
-42.5558662415 -2.6573486328 41.6673126221
-42.6300735474 -2.6602356434 41.4841842651
-42.7130584717 -2.6634552479 41.3026771545
-42.8078117371 -2.6671211720 41.1233291626
-42.9137153625 -2.6712098122 40.9460525513
-43.0276298523 -2.6756021976 40.7703170776
-43.1450691223 -2.6801280975 40.5953445435
-43.2609252930 -2.6845939159 40.4202308655
-43.3697547913 -2.6887934208 40.2440071106
-43.4663810730 -2.6925301552 40.0657348633
-43.5473594666 -2.6956734657 39.8847656250
-43.6124877930 -2.6982157230 39.7010421753
-43.6650886536 -2.7002830505 39.5151329041
-43.7107429504 -2.7020871639 39.3280220032
-43.7553291321 -2.7038505077 39.1407699585
-43.8035011292 -2.7057499886 38.9542236328
-43.8583564758 -2.7079029083 38.7689590454
-43.9216194153 -2.7103743553 38.5853004456
-43.9935417175 -2.7131741047 38.4033164978
-44.0725059509 -2.7162406445 38.2227210999
-44.1551818848 -2.7194480896 38.0429077148
-44.2374572754 -2.7226402760 37.8631172180
-44.3152961731 -2.7256641388 37.6825981140
-44.3848876953 -2.7283754349 37.5006256104
-44.4433212280 -2.7306635380 37.3166313171
-44.4911384583 -2.7325494289 37.1307029724
-44.5349693298 -2.7342839241 36.9440727234
-44.5868263245 -2.7363226414 36.7590179443
-44.6592254639 -2.7391402721 36.5779457092
-44.7588844299 -2.7429912090 36.4021720886
-44.8829345703 -2.7477664948 36.2312049866
-45.0200500488 -2.7530374527 36.0629043579
-45.1558723450 -2.7582590580 35.8945236206
-45.2788238525 -2.7629926205 35.7238121033
-45.3826942444 -2.7670030594 35.5495376587
-45.4661827087 -2.7702405453 35.3714103699
-45.5322723389 -2.7728185654 35.1899757385
-45.5882949829 -2.7750151157 35.0066413879
-45.6453742981 -2.7772514820 34.8235816956
-45.7160415649 -2.7800028324 34.6432723999
-45.8104667664 -2.7836549282 34.4677619934
-45.9327125549 -2.7883615494 34.2979011536
-46.0787467957 -2.7939696312 34.1329307556
-46.2374687195 -2.8000588417 33.9706840515
-46.3945884705 -2.8060872555 33.8083076477
-46.5374298096 -2.8115742207 33.6432495117
-46.6585731506 -2.8162386417 33.4739799500
-46.7570762634 -2.8200447559 33.3002662659
-46.8369102478 -2.8231434822 33.1228790283
-46.9037361145 -2.8257489204 32.9429283142
-46.9623947144 -2.8280446529 32.7613906860
-47.0164680481 -2.8301665783 32.5789756775
-47.0691299438 -2.8322350979 32.3963356018
-47.1239089966 -2.8343837261 32.2141952515
-47.1848907471 -2.8367676735 32.0334014893
-47.2560234070 -2.8395361900 31.8547897339
-47.3394203186 -2.8427693844 31.6788177490
-47.4336776733 -2.8464143276 31.5052146912
-47.5345077515 -2.8503084183 31.3331050873
-47.6380538940 -2.8543052673 31.1616859436
-47.7437629700 -2.8583841324 30.9908504486
-47.8535919189 -2.8626189232 30.8210124969
-47.9684257507 -2.8670437336 30.6523704529
-48.0856628418 -2.8715591431 30.4843769073
-48.1996688843 -2.8759522438 30.3158397675
-48.3041152954 -2.8799831867 30.1453933716
-48.3950271606 -2.8835008144 29.9721660614
-48.4736747742 -2.8865537643 29.7964115143
-48.5471572876 -2.8894107342 29.6196327209
-48.6250228882 -2.8924338818 29.4438896179
-48.7141914368 -2.8958854675 29.2706966400
-48.8158187866 -2.8998091221 29.1003246307
-48.9256553650 -2.9040436745 28.9318675995
-49.0367240906 -2.9083251953 28.7638149261
-49.1425666809 -2.9124085903 28.5947475433
-49.2395820618 -2.9161570072 28.4238643646
-49.3278045654 -2.9195725918 28.2511539459
-49.4098968506 -2.9227554798 28.0771923065
-49.4887962341 -2.9258174896 27.9026203156
-49.5652770996 -2.9287879467 27.7276020050
-49.6372642517 -2.9315879345 27.5516700745
-49.7015457153 -2.9340956211 27.3740978241
-49.7568778992 -2.9362645149 27.1945915222
-49.8064498901 -2.9382147789 27.0138492584
-49.8579101563 -2.9402368069 26.8335914612
-49.9202880859 -2.9426722527 26.6558685303
-49.9991607666 -2.9457330704 26.4819679260
-50.0934219360 -2.9493770599 26.3116683960
-50.1961593628 -2.9533419609 26.1434192657
-50.2989387512 -2.9573085308 25.9753036499
-50.3960456848 -2.9610600471 25.8060092926
-50.4857063293 -2.9645295143 25.6351184845
-50.5686492920 -2.9677441120 25.4627819061
-50.6466522217 -2.9707717896 25.2894001007
-50.7224082947 -2.9737138748 25.1155891418
-50.7997016907 -2.9767143726 24.9422264099
-50.8829879761 -2.9799420834 24.7703571320
-50.9761657715 -2.9835445881 24.6009025574
-51.0805816650 -2.9875726700 24.4342021942
-51.1931610107 -2.9919102192 24.2695484161
-51.3070411682 -2.9962968826 24.1053371429
-51.4149551392 -3.0004575253 23.9398536682
-51.5120964050 -3.0042097569 23.7719440460
-51.5960845947 -3.0074636936 23.6010227203
-51.6657714844 -3.0101754665 23.4267883301
-51.7214012146 -3.0123548508 23.2492752075
-51.7658729553 -3.0141112804 23.0691490173
-51.8051261902 -3.0156700611 22.8878211975
-51.8468894958 -3.0173239708 22.7071418762
-51.8979187012 -3.0193285942 22.5287494659
-51.9612350464 -3.0217990875 22.3533954620
-52.0353927612 -3.0246803761 22.1807498932
-52.1161956787 -3.0278131962 22.0098114014
-52.1990737915 -3.0310246944 21.8394775391
-52.2802658081 -3.0341722965 21.6688308716
-52.3565330505 -3.0371334553 21.4970722198
-52.4243812561 -3.0397753716 21.3233318329
-52.4801254272 -3.0419585705 21.1466846466
-52.5214157104 -3.0435941219 20.9665260315
-52.5487289429 -3.0447001457 20.7829475403
-52.5651893616 -3.0453951359 20.5966987610
-52.5751266479 -3.0458426476 20.4088420868
-52.5831375122 -3.0462174416 20.2205104828
-52.5941772461 -3.0467069149 20.0329418182
-52.6135749817 -3.0475132465 19.8474826813
-52.6459541321 -3.0488109589 19.6653099060
-52.6936912537 -3.0506906509 19.4870529175
-52.7563514709 -3.0531358719 19.3126258850
-52.8310279846 -3.0560362339 19.1413230896
-52.9127273560 -3.0592026711 18.9718952179
-52.9951934814 -3.0623981953 18.8027629852
-53.0727653503 -3.0654082298 18.6324768066
-53.1420249939 -3.0681030750 18.4601516724
-53.2018737793 -3.0704414845 18.2854938507
-53.2527923584 -3.0724415779 18.1086063385
-53.2969627380 -3.0741860867 17.9300365448
-53.3389091492 -3.0758464336 17.7509422302
-53.3846588135 -3.0776505470 17.5728797913
-53.4393424988 -3.0797932148 17.3971958160
-53.5053634644 -3.0823652744 17.2245292664
-53.5823020935 -3.0853509903 17.0547943115
-53.6673774719 -3.0886449814 16.8872833252
-53.7557449341 -3.0920634270 16.7207374573
-53.8417625427 -3.0953931808 16.5536823273
-53.9213218689 -3.0984778404 16.3850250244
-53.9932403564 -3.1012732983 16.2144412994
-54.0586357117 -3.1038215160 16.0422172546
-54.1191482544 -3.1061847210 15.8687705994
-54.1752395630 -3.1083803177 15.6942186356
-54.2256393433 -3.1103603840 15.5182132721
-54.2684364319 -3.1120524406 15.3402318954
-54.3027648926 -3.1134235859 15.1600275040
-54.3294754028 -3.1145064831 14.9778137207
-54.3509407043 -3.1153903008 14.7942152023
-54.3711853027 -3.1162281036 14.6103086472
-54.3959197998 -3.1172358990 14.4276390076
-54.4310455322 -3.1186373234 14.2478151321
-54.4800453186 -3.1205639839 14.0718040466
-54.5422859192 -3.1229925156 13.8994598389
-54.6133232117 -3.1257541180 13.7295942307
-54.6863021851 -3.1285891533 13.5603437424
-54.7537307739 -3.1312141418 13.3896579742
-54.8098220825 -3.1334095001 13.2159309387
-54.8530120850 -3.1351163387 13.0387134552
-54.8872337341 -3.1364831924 12.8590660095
-54.9206619263 -3.1378200054 12.6792354584
-54.9622192383 -3.1394648552 12.5017004013
-55.0173873901 -3.1416251659 12.3280010223
-55.0858955383 -3.1442906857 12.1580877304
-55.1628570557 -3.1472766399 11.9906196594
-55.2421531677 -3.1503505707 11.8238973618
-55.3194465637 -3.1533486843 11.6567068100
-55.3929710388 -3.1562042236 11.4885492325
-55.4622077942 -3.1588973999 11.3192701340
-55.5262451172 -3.1613934040 11.1486024857
-55.5834541321 -3.1636307240 10.9760761261
-55.6320800781 -3.1655430794 10.8011798859
-55.6705551147 -3.1670708656 10.6234493256
-55.6975746155 -3.1681647301 10.4424953461
-55.7125587463 -3.1688029766 10.2581300735
-55.7160644531 -3.1690061092 10.0704889297
-55.7097816467 -3.1688387394 9.8800373077
-55.6967658997 -3.1684165001 9.6876354218
-55.6819725037 -3.1679265499 9.4946985245
-55.6718521118 -3.1676139832 9.3030891418
-55.6724205017 -3.1677062511 9.1145582199
-55.6870727539 -3.1683316231 8.9301118851
-55.7159347534 -3.1694953442 8.7498130798
-55.7567405701 -3.1711113453 8.5730285645
-55.8062248230 -3.1730558872 8.3988265991
-55.8612823486 -3.1752116680 8.2263145447
-55.9192924500 -3.1774790287 8.0547323227
-55.9774017334 -3.1797502041 7.8832478523
-56.0319709778 -3.1818873882 7.7107892036
-56.0795288086 -3.1837587357 7.5363230705
-56.1185379028 -3.1853067875 7.3593821526
-56.1502685547 -3.1865787506 7.1803255081
-56.1782264709 -3.1877079010 7.0001835823
-56.2068862915 -3.1888639927 6.8202810287
-56.2401390076 -3.1901936531 6.6417798996
-56.2798385620 -3.1917674541 6.4652457237
-56.3251647949 -3.1935544014 6.2904419899
-56.3730697632 -3.1954391003 6.1164669991
-56.4194984436 -3.1972675323 5.9421014786
-56.4607009888 -3.1988983154 5.7662134171
-56.4942054749 -3.2002375126 5.5880465508
-56.5189323425 -3.2012441158 5.4072556496
-56.5344963074 -3.2019040585 5.2237110138
-56.5406494141 -3.2022075653 5.0373177528
-56.5374717712 -3.2021577358 4.8480834961
-56.5265197754 -3.2018132210 4.6564640999
-56.5120353699 -3.2013351917 4.4637455940
-56.5008277893 -3.2009813786 4.2720093727
-56.5000534058 -3.2010223866 4.0834598541
-56.5146408081 -3.2016453743 3.8996369839
-56.5469779968 -3.2029399872 3.7213039398
-56.5983467102 -3.2049555779 3.5488939285
-56.6692543030 -3.2077109814 3.3825984001
-56.7575149536 -3.2111234665 3.2217767239
-56.8569259644 -3.2149579525 3.0645303726
-56.9587287903 -3.2188830376 2.9081499577
-57.0544052124 -3.2225761414 2.7499802113
-57.1375122070 -3.2257931232 2.5879902840
-57.2045974731 -3.2284035683 2.4210755825
-57.2558326721 -3.2304139137 2.2492589951
-57.2944145203 -3.2319450378 2.0735170841
-57.3247222900 -3.2331626415 1.8952069283
-57.3506278992 -3.2342138290 1.7155389786
-57.3747444153 -3.2351973057 1.5353323221
-57.3980979919 -3.2361516953 1.3549076319
-57.4202651978 -3.2370612621 1.1741315126
-57.4405364990 -3.2378990650 0.9927729368
-57.4593849182 -3.2386829853 0.8109815717
-57.4788208008 -3.2394890785 0.6293960810
-57.5011596680 -3.2404050827 0.4487613738
-57.5275382996 -3.2414741516 0.2694489658
-57.5573196411 -3.2426719666 0.0912591442
-19.1466236115 -38.5045509338 81.0963287354
-19.1629257202 -38.5362510681 80.9009704590
-19.1923446655 -38.5928955078 80.7066802979
-19.2274875641 -38.6604232788 80.5129241943
-19.2608776093 -38.7246131897 80.3191146851
-19.2866687775 -38.7743568420 80.1247558594
-19.3015155792 -38.8032913208 79.9295349121
-19.3048515320 -38.8103408813 79.7333679199
-19.2986755371 -38.7993049622 79.5363845825
-19.2868995667 -38.7776222229 79.3388824463
-19.2743949890 -38.7545509338 79.1412887573
-19.2659053802 -38.7391128540 78.9440155029
-19.2650985718 -38.7382850647 78.7474212646
-19.2740631104 -38.7560348511 78.5517349243
-19.2932262421 -38.7931747437 78.3570175171
-19.3213348389 -38.8473243713 78.1632080078
-19.3557224274 -38.9134140015 77.9700622559
-19.3933677673 -38.9856910706 77.7773284912
-19.4321861267 -39.0602073669 77.5848007202
-19.4710159302 -39.1347351074 77.3923721313
-19.5080947876 -39.2059402466 77.1998519897
-19.5401153564 -39.2675247192 77.0069046021
-19.5635509491 -39.3127899170 76.8131408691
-19.5770320892 -39.3391227722 76.6183776855
-19.5822429657 -39.3497352600 76.4227600098
-19.5829277039 -39.3517417908 76.2266616821
-19.5836391449 -39.3537979126 76.0305557251
-19.5888423920 -39.3643951416 75.8349533081
-19.6016387939 -39.3894271851 75.6402053833
-19.6222515106 -39.4293251038 75.4463806152
-19.6477890015 -39.4785804749 75.2531585693
-19.6738510132 -39.5288391113 75.0600662231
-19.6966190338 -39.5728302002 74.8666458130
-19.7139225006 -39.6064300537 74.6726303101
-19.7253322601 -39.6288299561 74.4779510498
-19.7318611145 -39.6419448853 74.2827072144
-19.7353820801 -39.6493415833 74.0871047974
-19.7378540039 -39.6547470093 73.8913726807
-19.7408084869 -39.6610679626 73.6957092285
-19.7453289032 -39.6703643799 73.5002441406
-19.7522048950 -39.6841430664 73.3050842285
-19.7619552612 -39.7033843994 73.1103057861
-19.7747821808 -39.7284736633 72.9159545898
-19.7905654907 -39.7591857910 72.7220153809
-19.8088130951 -39.7945785522 72.5284423828
-19.8285102844 -39.8327331543 72.3351058960
-19.8480529785 -39.8705902100 72.1417922974
-19.8655433655 -39.9045486450 71.9482421875
-19.8794841766 -39.9317550659 71.7542419434
-19.8894786835 -39.9514579773 71.5597305298
-19.8964195251 -39.9653587341 71.3648071289
-19.9020366669 -39.9767417908 71.1697082520
-19.9082393646 -39.9892387390 70.9747085571
-19.9167690277 -40.0061569214 70.7800521851
-19.9290523529 -40.0302124023 70.5859527588
-19.9458827972 -40.0629119873 70.3925552368
-19.9669780731 -40.1037216187 70.1998291016
-19.9908084869 -40.1497306824 70.0075607300
-20.0149059296 -40.1962432861 69.8153839111
-20.0366020203 -40.2381935120 69.6229019165
-20.0539073944 -40.2717971802 69.4298019409
-20.0660343170 -40.2955551147 69.2359390259
-20.0734310150 -40.3103218079 69.0413589478
-20.0774841309 -40.3187294006 68.8462753296
-20.0802021027 -40.3245964050 68.6509857178
-20.0839633942 -40.3324508667 68.4558639526
-20.0911617279 -40.3468360901 68.2612991333
-20.1035823822 -40.3711509705 68.0675964355
-20.1215553284 -40.4060249329 67.8748245239
-20.1434631348 -40.4483757019 67.6827468872
-20.1661987305 -40.4923019409 67.4908599854
-20.1863498688 -40.5313110352 67.2985916138
-20.2011566162 -40.5601615906 67.1054687500
-20.2090435028 -40.5758590698 66.9112091064
-20.2101173401 -40.5786018372 66.7157897949
-20.2063560486 -40.5721549988 66.5195388794
-20.2008628845 -40.5624122620 66.3229751587
-20.1965236664 -40.5548667908 66.1265869141
-20.1952056885 -40.5530624390 65.9307174683
-20.1978473663 -40.5587882996 65.7355499268
-20.2048130035 -40.5727348328 65.5411529541
-20.2157840729 -40.5942916870 65.3474960327
-20.2293071747 -40.6207046509 65.1543197632
-20.2427368164 -40.6469345093 64.9611587524
-20.2531147003 -40.6673660278 64.7674636841
-20.2584304810 -40.6781730652 64.5728607178
-20.2582569122 -40.6785430908 64.3772354126
-20.2534809113 -40.6701660156 64.1807403564
-20.2457218170 -40.6561203003 63.9836616516
-20.2369499207 -40.6401481628 63.7863693237
-20.2293338776 -40.6263732910 63.5892677307
-20.2249965668 -40.6188278198 63.3927764893
-20.2255535126 -40.6205940247 63.1972236633
-20.2316055298 -40.6328010559 63.0027389526
-20.2424678802 -40.6541519165 62.8092155457
-20.2562446594 -40.6810417175 62.6162910461
-20.2702293396 -40.7083282471 62.4234390259
-20.2816562653 -40.7307510376 62.2301025391
-20.2886199951 -40.7446937561 62.0358924866
-20.2907791138 -40.7495002747 61.8407173157
-20.2894248962 -40.7476310730 61.6448249817
-20.2869148254 -40.7435607910 61.4486846924
-20.2858943939 -40.7423210144 61.2528419495
-20.2887973785 -40.7485427856 61.0578117371
-20.2976436615 -40.7660598755 60.8640289307
-20.3138618469 -40.7975921631 60.6718215942
-20.3380260468 -40.8442306519 60.4813385010
-20.3695392609 -40.9048347473 60.2924842834
-20.4065322876 -40.9758605957 60.1048812866
-20.4461555481 -41.0518798828 59.9179420471
-20.4850673676 -41.1265487671 59.7309417725
-20.5200042725 -41.1936607361 59.5431671143
-20.5484523773 -41.2484397888 59.3540534973
-20.5694313049 -41.2890205383 59.1633529663
-20.5838966370 -41.3172187805 58.9712486267
-20.5943355560 -41.3377609253 58.7782783508
-20.6037902832 -41.3564338684 58.5851058960
-20.6148967743 -41.3782501221 58.3923263550
-20.6292343140 -41.4062042236 58.2003097534
-20.6468448639 -41.4403800964 58.0090751648
-20.6660995483 -41.4776802063 57.8182601929
-20.6843032837 -41.5129852295 57.6272430420
-20.6988792419 -41.5413894653 57.4354248047
-20.7082958221 -41.5599937439 57.2424316406
-20.7123775482 -41.5684509277 57.0482025146
-20.7121696472 -41.5687561035 56.8529624939
-20.7096633911 -41.5646934509 56.6571693420
-20.7074069977 -41.5611038208 56.4614257813
-20.7080516815 -41.5630302429 56.2663688660
-20.7137641907 -41.5745925903 56.0725364685
-20.7255973816 -41.5977859497 55.8801994324
-20.7432937622 -41.6321258545 55.6893272400
-20.7656841278 -41.6753845215 55.4996452332
-20.7912559509 -41.7246894836 55.3108062744
-20.8183383942 -41.7768707275 55.1224021912
-20.8449668884 -41.8281822205 54.9339485168
-20.8689002991 -41.8743782043 54.7448806763
-20.8882293701 -41.9118194580 54.5547103882
-20.9022293091 -41.9391288757 54.3632354736
-20.9116191864 -41.9576759338 54.1706161499
-20.9179515839 -41.9704132080 53.9772338867
-20.9229183197 -41.9805526733 53.7835121155
-20.9282760620 -41.9914360046 53.5898971558
-20.9360599518 -42.0069313049 53.3969230652
-20.9484119415 -42.0311088562 53.2051582336
-20.9668140411 -42.0667877197 53.0150070190
-20.9912319183 -42.1138992310 52.8264884949
-21.0197772980 -42.1688537598 52.6391220093
-21.0492362976 -42.2255477905 52.4520683289
-21.0761966705 -42.2774925232 52.2644157410
-21.0981788635 -42.3199729919 52.0754890442
-21.1143302917 -42.3513717651 51.8850364685
-21.1255054474 -42.3733139038 51.6932716370
-21.1339206696 -42.3900070190 51.5007781982
-21.1426410675 -42.4072837830 51.3083839417
-21.1549205780 -42.4313201904 51.1169891357
-21.1732921600 -42.4669342041 50.9273033142
-21.1986675262 -42.5158691406 50.7396125793
-21.2298965454 -42.5759239197 50.5536155701
-21.2638912201 -42.6412353516 50.3684692383
-21.2963180542 -42.7035636902 50.1829643250
-21.3228130341 -42.7546195984 49.9958572388
-21.3404045105 -42.7887573242 49.8062820435
-21.3484764099 -42.8047981262 49.6140289307
-21.3488731384 -42.8062515259 49.4195899963
-21.3452491760 -42.8000564575 49.2239837646
-21.3418827057 -42.7943611145 49.0284423828
-21.3423118591 -42.7958717346 48.8339881897
-21.3483238220 -42.8079986572 48.6411628723
-21.3599090576 -42.8307151794 48.4499855042
-21.3760547638 -42.8621025085 48.2601776123
-21.3955554962 -42.8998641968 48.0713996887
-21.4172515869 -42.9417991638 47.8833160400
-21.4398956299 -42.9855308533 47.6955718994
-21.4621067047 -43.0284461975 47.5077476501
-21.4823608398 -43.0676383972 47.3193893433
-21.4990634918 -43.1000823975 47.1300048828
-21.5110092163 -43.1234817505 46.9392089844
-21.5181159973 -43.1376876831 46.7469673157
-21.5217971802 -43.1453857422 46.5536880493
-21.5245571136 -43.1513252258 46.3601303101
-21.5291271210 -43.1607093811 46.1671371460
-21.5377807617 -43.1778564453 45.9754142761
-21.5520191193 -43.2056121826 45.7854499817
-21.5724277496 -43.2451019287 45.5974464417
-21.5984401703 -43.2952384949 45.4112548828
-21.6281547546 -43.3524093628 45.2262878418
-21.6585159302 -43.4108047485 45.0415992737
-21.6860141754 -43.4637641907 44.8560752869
-21.7079010010 -43.5060615540 44.6688270569
-21.7234172821 -43.5362472534 44.4795875549
-21.7341690063 -43.5573768616 44.2888488770
-21.7432994843 -43.5754280090 44.0976104736
-21.7541332245 -43.5967140198 43.9069442749
-21.7691249847 -43.6259040833 43.7176551819
-21.7893581390 -43.6650543213 43.5301132202
-21.8143901825 -43.7133216858 43.3441925049
-21.8424243927 -43.7672996521 43.1593208313
-21.8707752228 -43.8218765259 42.9746246338
-21.8964862823 -43.8714370728 42.7891197205
-21.9170742035 -43.9112586975 42.6019668579
-21.9312191010 -43.9388389587 42.4127044678
-21.9390659332 -43.9544487000 42.2213592529
-21.9419746399 -43.9606742859 42.0283660889
-21.9420433044 -43.9614982605 41.8344116211
-21.9417400360 -43.9616165161 41.6403274536
-21.9437313080 -43.9661026001 41.4470214844
-21.9506950378 -43.9800338745 41.2554168701
-21.9648056030 -44.0075454712 41.0662841797
-21.9869594574 -44.0503425598 40.8799552917
-22.0163135529 -44.1068267822 40.6961746216
-22.0506591797 -44.1727905273 40.5141983032
-22.0871620178 -44.2428550720 40.3330612183
-22.1225719452 -44.3108482361 40.1516304016
-22.1531887054 -44.3697242737 39.9685974121
-22.1756572723 -44.4131202698 39.7827682495
-22.1885490417 -44.4383163452 39.5936012268
-22.1933765411 -44.4481887817 39.4015998840
-22.1942462921 -44.4505348206 39.2081909180
-22.1965179443 -44.4555473328 39.0152816772
-22.2052059174 -44.4727516174 38.8246803284
-22.2235355377 -44.5082855225 38.6375732422
-22.2519378662 -44.5629539490 38.4541473389
-22.2876377106 -44.6314926147 38.2734451294
-22.3251762390 -44.7035217285 38.0934982300
-22.3581676483 -44.7669143677 37.9119796753
-22.3817996979 -44.8125190735 37.7271080017
-22.3943672180 -44.8370971680 37.5382194519
-22.3968906403 -44.8425865173 37.3456459045
-22.3917274475 -44.8334693909 37.1502265930
-22.3817081451 -44.8151245117 36.9529800415
-22.3700504303 -44.7936668396 36.7550926208
-22.3604927063 -44.7761993408 36.5579566956
-22.3570938110 -44.7704353333 36.3631095886
-22.3633613586 -44.7830390930 36.1718902588
-22.3807907104 -44.8168563843 35.9849128723
-22.4078216553 -44.8689193726 35.8016204834
-22.4403476715 -44.9314193726 35.6204872131
-22.4736404419 -44.9953842163 35.4397239685
-22.5041313171 -45.0540199280 35.2579727173
-22.5297622681 -45.1034202576 35.0744209290
-22.5493450165 -45.1413269043 34.8885917664
-22.5622520447 -45.1665496826 34.7002258301
-22.5687580109 -45.1796073914 34.5093955994
-22.5702781677 -45.1831893921 34.3166351318
-22.5690727234 -45.1815910339 34.1228065491
-22.5677642822 -45.1798019409 33.9289321899
-22.5689716339 -45.1827888489 33.7360382080
-22.5750408173 -45.1950187683 33.5450630188
-22.5876121521 -45.2196006775 33.3566818237
-22.6068992615 -45.2569427490 33.1709976196
-22.6310310364 -45.3034934998 32.9872932434
-22.6562347412 -45.3520812988 32.8040733337
-22.6782646179 -45.3946342468 32.6196403503
-22.6943645477 -45.4259223938 32.4328689575
-22.7043800354 -45.4456520081 32.2436790466
-22.7102832794 -45.4575614929 32.0528373718
-22.7146816254 -45.4666137695 31.8613948822
-22.7197151184 -45.4768714905 31.6702194214
-22.7269268036 -45.4912681580 31.4799423218
-22.7375564575 -45.5121612549 31.2910842896
-22.7523803711 -45.5410232544 31.1039791107
-22.7711639404 -45.5774078369 30.9185428619
-22.7923488617 -45.6183586121 30.7341461182
-22.8133373260 -45.6589317322 30.5497169495
-22.8312168121 -45.6936035156 30.3640422821
-22.8436603546 -45.7179412842 30.1761322021
-22.8497142792 -45.7301368713 29.9855690002
-22.8500595093 -45.7314834595 29.7926101685
-22.8464813232 -45.7253799438 29.5979919434
-22.8409881592 -45.7156333923 29.4025478363
-22.8352718353 -45.7054672241 29.2069911957
-22.8307228088 -45.6975173950 29.0119113922
-22.8285541534 -45.6940917969 28.8178329468
-22.8296890259 -45.6969375610 28.6251621246
-22.8345298767 -45.7068328857 28.4340839386
-22.8429603577 -45.7235450745 28.2445602417
-22.8546905518 -45.7465286255 28.0564842224
-22.8696193695 -45.7755889893 27.8698196411
-22.8876800537 -45.8106002808 27.6845550537
-22.9083023071 -45.8504753113 27.5004482269
-22.9302234650 -45.8928222656 27.3169593811
-22.9521312714 -45.9351425171 27.1335182190
-22.9737491608 -45.9769096375 26.9500007629
-22.9962844849 -46.0204238892 26.7669391632
-23.0216083527 -46.0692329407 26.5851669312
-23.0508422852 -46.1254730225 26.4051914215
-23.0836849213 -46.1885681152 26.2268962860
-23.1187133789 -46.2558174133 26.0496597290
-23.1539020538 -46.3233718872 25.8725795746
-23.1868076324 -46.3865852356 25.6945590973
-23.2145614624 -46.4400100708 25.5142955780
-23.2341251373 -46.4778747559 25.3303985596
-23.2430553436 -46.4955368042 25.1417255402
-23.2406253815 -46.4916114807 24.9479045868
-23.2285747528 -46.4694061279 24.7496871948
-23.2107505798 -46.4362297058 24.5487918854
-23.1917285919 -46.4007797241 24.3472976685
-23.1753654480 -46.3703804016 24.1469726563
-23.1641368866 -46.3497428894 23.9489707947
-23.1592960358 -46.3412399292 23.7538871765
-23.1612281799 -46.3456001282 23.5619258881
-23.1695613861 -46.3621253967 23.3729419708
-23.1831607819 -46.3886566162 23.1864318848
-23.2003116608 -46.4219360352 23.0016136169
-23.2190341949 -46.4582023621 22.8175716400
-23.2372951508 -46.4935874939 22.6333541870
-23.2531948090 -46.5244903564 22.4480686188
-23.2653217316 -46.5482215881 22.2610340118
-23.2730083466 -46.5635223389 22.0719223022
-23.2764129639 -46.5706825256 21.8807907104
-23.2765846252 -46.5716972351 21.6881198883
-23.2755889893 -46.5704994202 21.4948902130
-23.2762126923 -46.5723762512 21.3024272919
-23.2808475494 -46.5818748474 21.1118888855
-23.2903518677 -46.6006240845 20.9237041473
-23.3040161133 -46.6272773743 20.7375488281
-23.3204708099 -46.6592330933 20.5527782440
-23.3382835388 -46.6937675476 20.3687019348
-23.3557167053 -46.7275810242 20.1844844818
-23.3704338074 -46.7562370300 19.9989814758
-23.3799304962 -46.7749710083 19.8109550476
-23.3825550079 -46.7806472778 19.6195735931
-23.3784008026 -46.7734451294 19.4248600006
-23.3694858551 -46.7572021484 19.2277812958
-23.3592796326 -46.7385025024 19.0300369263
-23.3518505096 -46.7250785828 18.8336372375
-23.3506202698 -46.7234344482 18.6402988434
-23.3570404053 -46.7363243103 18.4507656097
-23.3701000214 -46.7618293762 18.2645645142
-23.3870525360 -46.7947273254 18.0803432465
-23.4046802521 -46.8289108276 17.8965015411
-23.4202060699 -46.8591003418 17.7116413116
-23.4316177368 -46.8814697266 17.5247364044
-23.4376754761 -46.8936729431 17.3351478577
-23.4380588531 -46.8950920105 17.1426887512
-23.4337654114 -46.8876304626 16.9478454590
-23.4273891449 -46.8762054443 16.7519245148
-23.4226131439 -46.8678245544 16.5568008423
-23.4228591919 -46.8689804077 16.3642349243
-23.4298114777 -46.8828849792 16.1751136780
-23.4428367615 -46.9083213806 15.9891357422
-23.4596328735 -46.9409217834 15.8051347733
-23.4775161743 -46.9755859375 15.6217365265
-23.4943809509 -47.0083198547 15.4378509521
-23.5089340210 -47.0366592407 15.2528009415
-23.5206165314 -47.0595436096 15.0662851334
-23.5297298431 -47.0775527954 14.8784523010
-23.5376224518 -47.0932388306 14.6899967194
-23.5463085175 -47.1104278564 14.5019731522
-23.5574645996 -47.1323165894 14.3152713776
-23.5715274811 -47.1597213745 14.1301288605
-23.5875434875 -47.1908416748 13.9460525513
-23.6038475037 -47.2225074768 13.7621660233
-23.6189937592 -47.2519721985 13.5777006149
-23.6323623657 -47.2780609131 13.3923215866
-23.6441059113 -47.3010597229 13.2061033249
-23.6545505524 -47.3215942383 13.0192146301
-23.6634464264 -47.3391838074 12.8315162659
-23.6694908142 -47.3513603210 12.6422996521
-23.6704158783 -47.3538093567 12.4503297806
-23.6638240814 -47.3419761658 12.2542886734
-23.6486854553 -47.3139076233 12.0535888672
-23.6268329620 -47.2730865479 11.8491926193
-23.6031799316 -47.2288436890 11.6437540054
-23.5841445923 -47.1933746338 11.4407730103
-23.5752391815 -47.1771469116 11.2432870865
-23.5793476105 -47.1856460571 11.0529193878
-23.5963573456 -47.2186508179 10.8696575165
-23.6238098145 -47.2714920044 10.6921958923
-23.6580333710 -47.3372001648 10.5185451508
-23.6951007843 -47.4083061218 10.3465547562
-23.7313079834 -47.4777793884 10.1741771698
-23.7632827759 -47.5392112732 9.9995317459
-23.7880516052 -47.5869522095 9.8209419250
-23.8033466339 -47.6167030334 9.6371135712
-23.8082580566 -47.6267204285 9.4474973679
-23.8038463593 -47.6190299988 9.2526483536
-23.7931213379 -47.5993499756 9.0542287827
-23.7801399231 -47.5753822327 8.8545026779
-23.7686462402 -47.5542373657 8.6555795670
-23.7610301971 -47.5404586792 8.4588203430
-23.7579765320 -47.5353507996 8.2646322250
-23.7587127686 -47.5374374390 8.0725898743
-23.7615356445 -47.5434951782 7.8817372322
-23.7643775940 -47.5495834351 7.6908969879
-23.7652359009 -47.5519027710 7.4989223480
-23.7624301910 -47.5472679138 7.3048396111
-23.7547187805 -47.5333099365 7.1079163551
-23.7415180206 -47.5089263916 6.9077992439
-23.7234516144 -47.4752960205 6.7048268318
-23.7028656006 -47.4368820190 6.5003404617
-23.6836051941 -47.4009895325 6.2965674400
-23.6698551178 -47.3755607605 6.0959510803
-23.6647357941 -47.3665275574 5.9003348351
-23.6695270538 -47.3763198853 5.7105016708
-23.6836643219 -47.4038658142 5.5261583328
-23.7050342560 -47.4451560974 5.3460998535
-23.7302665710 -47.4937744141 5.1683673859
-23.7551231384 -47.5416793823 4.9904727936
-23.7753715515 -47.5808372498 4.8099117279
-23.7879848480 -47.6054878235 4.6248707771
-23.7920532227 -47.6139068604 4.4347786903
-23.7889175415 -47.6086425781 4.2404003143
-23.7814407349 -47.5951309204 4.0434184074
-23.7728977203 -47.5795936584 3.8457741737
-23.7661552429 -47.5674781799 3.6491837502
-23.7635116577 -47.5631484985 3.4550335407
-23.7668762207 -47.5702285767 3.2644886971
-23.7778301239 -47.5917320251 3.0785293579
-23.7972736359 -47.6293525696 2.8977260590
-23.8246307373 -47.6820106506 2.7217659950
-23.8571453094 -47.7444610596 2.5490031242
-23.8898544312 -47.8072853088 2.3764390945
-23.9166736603 -47.8589172363 2.2003629208
-23.9322109222 -47.8891220093 2.0174555779
-23.9334754944 -47.8922119141 1.8258408308
-23.9206085205 -47.8684654236 1.6255524158
-23.8963699341 -47.8231124878 1.4182293415
-23.8648605347 -47.7639541626 1.2063585520
-23.8304080963 -47.6992073059 0.9925830960
-23.7968940735 -47.6362419128 0.7792951465
-23.7673683167 -47.5808486938 0.5683885813
-23.7436904907 -47.5365638733 0.3610363603
-23.7263221741 -47.5042686462 0.1575491279
-42.4382095337 8.6092939377 80.9953231812
-42.4467582703 8.6111660004 80.8011627197
-42.4561767578 8.6132345200 80.6070480347
-42.4640846252 8.6149606705 80.4128723145
-42.4729232788 8.6168985367 80.2187423706
-42.4863395691 8.6198787689 80.0248565674
-42.5047569275 8.6239967346 79.8312454224
-42.5251808167 8.6285724640 79.6377639771
-42.5440368652 8.6327905655 79.4442138672
-42.5596122742 8.6362619400 79.2505035400
-42.5729064941 8.6392145157 79.0566864014
-42.5876007080 8.6424856186 78.8629531860
-42.6094856262 8.6473932266 78.6696472168
-42.6446952820 8.6553354263 78.4771118164
-42.6970291138 8.6671752930 78.2855987549
-42.7661705017 8.6828432083 78.0951309204
-42.8477783203 8.7013483047 77.9054718018
-42.9346351624 8.7210483551 77.7162170410
-43.0177803040 8.7399044037 77.5268554688
-43.0874328613 8.7556877136 77.3367767334
-43.1347770691 8.7663927078 77.1454162598
-43.1555366516 8.7710447311 76.9524612427
-43.1533432007 8.7704706192 76.7581024170
-43.1393013000 8.7671995163 76.5629806519
-43.1269950867 8.7643232346 76.3679504395
-43.1270561218 8.7642621994 76.1736907959
-43.1449584961 8.7682638168 75.9805908203
-43.1814422607 8.7764959335 75.7887268066
-43.2330818176 8.7881784439 75.5979156494
-43.2924270630 8.8016157150 75.4076766968
-43.3494377136 8.8145208359 75.2173538208
-43.3947219849 8.8247566223 75.0262908936
-43.4226799011 8.8310480118 74.8340988159
-43.4324989319 8.8332090378 74.6406707764
-43.4273757935 8.8319683075 74.4461975098
-43.4134712219 8.8287286758 74.2510910034
-43.3989524841 8.8253479004 74.0559234619
-43.3924751282 8.8237981796 73.8613052368
-43.4011955261 8.8257102966 73.6677856445
-43.4294776917 8.8320751190 73.4757080078
-43.4790382385 8.8432846069 73.2852325439
-43.5497665405 8.8593130112 73.0963973999
-43.6395416260 8.8796787262 72.9090805054
-43.7430191040 8.9031639099 72.7229156494
-43.8510551453 8.9276876450 72.5372314453
-43.9519042969 8.9505748749 72.3511199951
-44.0339164734 8.9691724777 72.1636734009
-44.0890045166 8.9816408157 71.9742050171
-44.1156539917 8.9876346588 71.7825546265
-44.1195259094 8.9884424210 71.5891113281
-44.1108093262 8.9863834381 71.3946609497
-44.1002197266 8.9838972092 71.2000427246
-44.0961914063 8.9829063416 71.0059356689
-44.1038055420 8.9845647812 70.8127822876
-44.1244125366 8.9891824722 70.6207122803
-44.1561393738 8.9963321686 70.4295883179
-44.1955223083 9.0052242279 70.2391510010
-44.2392654419 9.0151100159 70.0491256714
-44.2850608826 9.0254631042 69.8593292236
-44.3316764832 9.0360021591 69.6696548462
-44.3785934448 9.0466108322 69.4800643921
-44.4251022339 9.0571250916 69.2904968262
-44.4694824219 9.0671558380 69.1007919312
-44.5094909668 9.0761919022 68.9107513428
-44.5443534851 9.0840549469 68.7202911377
-44.5767097473 9.0913476944 68.5296478271
-44.6122932434 9.0993757248 68.3393402100
-44.6568298340 9.1094417572 68.1498870850
-44.7124977112 9.1220426559 67.9615097046
-44.7762298584 9.1364793777 67.7739410400
-44.8402748108 9.1509866714 67.5864868164
-44.8948173523 9.1633310318 67.3982086182
-44.9321479797 9.1717567444 67.2083740234
-44.9503746033 9.1758327484 67.0167617798
-44.9545631409 9.1767120361 66.8238220215
-44.9549293518 9.1767215729 66.6305160522
-44.9631423950 9.1785173416 66.4379653931
-44.9882011414 9.1841497421 66.2470626831
-45.0337715149 9.1944503784 66.0582122803
-45.0977668762 9.2089471817 65.8712387085
-45.1735458374 9.2261276245 65.6855163574
-45.2517814636 9.2438669205 65.5001296997
-45.3230323792 9.2600164413 65.3141403198
-45.3803405762 9.2729902267 65.1268157959
-45.4203720093 9.2820310593 64.9377899170
-45.4426879883 9.2870378494 64.7469940186
-45.4485855103 9.2883071899 64.5545120239
-45.4404678345 9.2863845825 64.3605804443
-45.4215316772 9.2819995880 64.1654968262
-45.3953056335 9.2759542465 63.9696159363
-45.3652076721 9.2690267563 63.7732849121
-45.3345489502 9.2619714737 63.5768508911
-45.3068084717 9.2555809021 63.3806838989
-45.2853851318 9.2506303787 63.1851615906
-45.2726669312 9.2476596832 62.9905509949
-45.2691497803 9.2467842102 62.7969245911
-45.2735862732 9.2477207184 62.6041641235
-45.2842826843 9.2500820160 62.4120979309
-45.3006820679 9.2537422180 62.2206726074
-45.3242454529 9.2590332031 62.0300636292
-45.3579978943 9.2666444778 61.8406295776
-45.4048538208 9.2772388458 61.6527137756
-45.4659080505 9.2910661697 61.4664726257
-45.5402717590 9.3079252243 61.2818260193
-45.6264877319 9.3274822235 61.0986328125
-45.7236175537 9.3495244980 60.9168128967
-45.8305435181 9.3737964630 60.7362480164
-45.9440040588 9.3995571136 60.5565834045
-46.0576438904 9.4253587723 60.3770790100
-46.1632575989 9.4493322372 60.1967658997
-46.2531661987 9.4697303772 60.0147171021
-46.3218498230 9.4852962494 59.8302383423
-46.3663597107 9.4953565598 59.6429367065
-46.3863220215 9.4998283386 59.4527206421
-46.3841819763 9.4992675781 59.2598381042
-46.3655815125 9.4949579239 59.0649337769
-46.3391494751 9.4888658524 58.8690414429
-46.3149147034 9.4832735062 58.6733818054
-46.3016929626 9.4801893234 58.4790496826
-46.3049697876 9.4808616638 58.2867584229
-46.3261032104 9.4855995178 58.0967025757
-46.3627738953 9.4938755035 57.9086265564
-46.4099197388 9.5045375824 57.7219200134
-46.4607582092 9.5160388947 57.5357398987
-46.5082206726 9.5267724991 57.3491859436
-46.5469627380 9.5355195999 57.1615676880
-46.5750694275 9.5418462753 56.9726181030
-46.5946044922 9.5462207794 56.7825889587
-46.6113357544 9.5499563217 56.5922126770
-46.6338386536 9.5550060272 56.4026107788
-46.6709747314 9.5633888245 56.2149581909
-46.7279396057 9.5762863159 56.0299797058
-46.8037986755 9.5934858322 55.8475799561
-46.8926696777 9.6136474609 55.6670150757
-46.9866676331 9.6349773407 55.4872474670
-47.0776824951 9.6556282043 55.3071899414
-47.1581535339 9.6738777161 55.1258201599
-47.2227630615 9.6885166168 54.9423828125
-47.2708778381 9.6993980408 54.7567634583
-47.3071899414 9.7075929642 54.5695800781
-47.3390159607 9.7147665024 54.3818168640
-47.3720130920 9.7222061157 54.1942520142
-47.4079704285 9.7303199768 54.0071372986
-47.4459152222 9.7388868332 53.8203392029
-47.4844970703 9.7475986481 53.6336784363
-47.5232543945 9.7563505173 53.4470863342
-47.5623321533 9.7651748657 53.2605857849
-47.6017570496 9.7740783691 53.0741767883
-47.6409759521 9.7829351425 52.8877868652
-47.6785392761 9.7914152145 52.7012023926
-47.7118530273 9.7989273071 52.5140495300
-47.7377586365 9.8047523499 52.3258552551
-47.7542839050 9.8084411621 52.1363182068
-47.7624053955 9.8102178574 51.9455680847
-47.7662582397 9.8110218048 51.7541923523
-47.7717094421 9.8121891022 51.5630569458
-47.7844734192 9.8150224686 51.3730049133
-47.8088035583 9.8204879761 51.1846923828
-47.8468132019 9.8290700912 50.9984550476
-47.8982200623 9.8407030106 50.8142776489
-47.9600448608 9.8547067642 50.6317329407
-48.0262756348 9.8697147369 50.4499359131
-48.0887908936 9.8838768005 50.2676506042
-48.1406173706 9.8956041336 50.0838050842
-48.1799964905 9.9044981003 49.8981056213
-48.2116508484 9.9116325378 49.7112617493
-48.2441673279 9.9189624786 49.5245857239
-48.2863731384 9.9285001755 49.3394584656
-48.3453102112 9.9418478012 49.1569900513
-48.4252548218 9.9599781036 48.9778900146
-48.5264968872 9.9829587936 48.8022422791
-48.6445922852 10.0097780228 48.6293869019
-48.7717895508 10.0386686325 48.4581222534
-48.9000816345 10.0678091049 48.2871932983
-49.0234069824 10.0958185196 48.1156272888
-49.1376113892 10.1217508316 47.9427490234
-49.2391433716 10.1447973251 47.7679672241
-49.3240280151 10.1640539169 47.5906143188
-49.3883781433 10.1786336899 47.4100227356
-49.4303588867 10.1881198883 47.2258567810
-49.4520378113 10.1929836273 47.0384140015
-49.4594192505 10.1945915222 46.8486366272
-49.4606056213 10.1947879791 46.6578445435
-49.4632186890 10.1953096390 46.4672813416
-49.4722175598 10.1972856522 46.2777824402
-49.4892730713 10.2010965347 46.0896339417
-49.5136642456 10.2065773010 45.9027366638
-49.5433464050 10.2132625580 45.7167549133
-49.5753822327 10.2204856873 45.5312042236
-49.6062202454 10.2274341583 45.3454895020
-49.6326904297 10.2333889008 45.1590614319
-49.6536560059 10.2380905151 44.9717216492
-49.6713409424 10.2420434952 44.7838439941
-49.6911888123 10.2464904785 44.5963516235
-49.7199554443 10.2529678345 44.4104270935
-49.7629814148 10.2626924515 44.2270088196
-49.8223876953 10.2761468887 44.0464935303
-49.8969573975 10.2930555344 43.8687057495
-49.9830093384 10.3125782013 43.6930198669
-50.0750389099 10.3334608078 43.5184936523
-50.1659317017 10.3540859222 43.3438835144
-50.2478256226 10.3726615906 43.1677856445
-50.3146171570 10.3877983093 42.9890975952
-50.3649291992 10.3991823196 42.8075485229
-50.4027862549 10.4077301025 42.6238212585
-50.4353256226 10.4150676727 42.4391784668
-50.4697532654 10.4228334427 42.2549171448
-50.5112991333 10.4322223663 42.0719833374
-50.5624008179 10.4437856674 41.8908386230
-50.6225090027 10.4574003220 41.7113990784
-50.6884956360 10.4723548889 41.5331115723
-50.7557601929 10.4875984192 41.3551368713
-50.8197898865 10.5021066666 41.1766471863
-50.8774909973 10.5151739120 40.9970626831
-50.9273796082 10.5264616013 40.8160934448
-50.9692916870 10.5359325409 40.6336975098
-51.0047378540 10.5439319611 40.4501419067
-51.0372772217 10.5512695313 40.2660789490
-51.0714836121 10.5589857101 40.0823707581
-51.1110382080 10.5679206848 39.8997077942
-51.1578674316 10.5785112381 39.7184753418
-51.2125244141 10.5908861160 39.5387878418
-51.2744407654 10.6049127579 39.3605499268
-51.3418312073 10.6201868057 39.1834373474
-51.4122161865 10.6361417770 39.0069808960
-51.4833030701 10.6522579193 38.8307456970
-51.5527839661 10.6680068970 38.6542854309
-51.6171150208 10.6825847626 38.4769134521
-51.6712646484 10.6948432922 38.2976303101
-51.7104492188 10.7036933899 38.1154899597
-51.7325210571 10.7086467743 37.9300384521
-51.7388916016 10.7100248337 37.7415161133
-51.7336730957 10.7087640762 37.5507125854
-51.7221794128 10.7060737610 37.3586540222
-51.7096862793 10.7031555176 37.1663742065
-51.7005882263 10.7010116577 36.9747505188
-51.6981430054 10.7003812790 36.7844429016
-51.7050094604 10.7018728256 36.5959968567
-51.7238998413 10.7061014175 36.4099731445
-51.7566757202 10.7134923935 36.2267723083
-51.8019447327 10.7237281799 36.0461387634
-51.8539390564 10.7354965210 35.8669281006
-51.9046859741 10.7469806671 35.6875267029
-51.9476127625 10.7566833496 35.5065841675
-51.9792671204 10.7638196945 35.3233795166
-51.9985809326 10.7681455612 35.1376686096
-52.0058174133 10.7697200775 34.9494857788
-52.0031471252 10.7690401077 34.7592544556
-51.9963989258 10.7674293518 34.5681686401
-51.9955749512 10.7671699524 34.3783035278
-52.0121879578 10.7708806992 34.1920776367
-52.0544738770 10.7804374695 34.0112495422
-52.1241416931 10.7962303162 33.8362312317
-52.2167282104 10.8172426224 33.6661376953
-52.3240432739 10.8416090012 33.4992713928
-52.4364471436 10.8671340942 33.3336181641
-52.5446166992 10.8916959763 33.1672058105
-52.6410675049 10.9135875702 32.9984245300
-52.7205848694 10.9316244125 32.8261337280
-52.7795753479 10.9449853897 32.6495323181
-52.8162498474 10.9532651901 32.4681892395
-52.8327102661 10.9569416046 32.2825241089
-52.8364830017 10.9577274323 32.0941200256
-52.8389511108 10.9582176208 31.9054355621
-52.8513755798 10.9609746933 31.7189197540
-52.8814964294 10.9677619934 31.5362854004
-52.9321708679 10.9792289734 31.3581943512
-53.0013084412 10.9949016571 31.1842250824
-53.0824699402 11.0133132935 31.0129928589
-53.1664962769 11.0323762894 30.8424949646
-53.2441596985 11.0499897003 30.6706867218
-53.3088340759 11.0646467209 30.4960842133
-53.3577575684 11.0757160187 30.3180427551
-53.3914489746 11.0833158493 30.1366500854
-53.4125289917 11.0880441666 29.9524650574
-53.4252052307 11.0908584595 29.7664089203
-53.4350280762 11.0930242538 29.5797195435
-53.4479179382 11.0958871841 29.3937320709
-53.4687500000 11.1005582809 29.2095603943
-53.5006027222 11.1077404022 29.0279216766
-53.5449600220 11.1177692413 28.8491744995
-53.6021537781 11.1307229996 28.6734199524
-53.6713638306 11.1464118958 28.5004920959
-53.7497406006 11.1641893387 28.3297615051
-53.8312301636 11.1826753616 28.1598472595
-53.9067001343 11.1997900009 27.9886379242
-53.9665412903 11.2133464813 27.8138904572
-54.0047988892 11.2219867706 27.6341876984
-54.0221595764 11.2258682251 27.4496498108
-54.0261383057 11.2267017365 27.2619953156
-54.0284614563 11.2271585464 27.0739517212
-54.0406646729 11.2298660278 26.8882312775
-54.0698890686 11.2364492416 26.7065429688
-54.1169166565 11.2470874786 26.5291023254
-54.1771125793 11.2607240677 26.3548450470
-54.2437095642 11.2758188248 26.1821823120
-54.3118515015 11.2912645340 26.0099716187
-54.3806114197 11.3068523407 25.8379898071
-54.4512634277 11.3228712082 25.6665477753
-54.5234222412 11.3392324448 25.4955539703
-54.5930366516 11.3550138474 25.3240337372
-54.6541061401 11.3688497543 25.1505317688
-54.7022476196 11.3797416687 24.9739665985
-54.7368774414 11.3875560760 24.7941722870
-54.7606430054 11.3928976059 24.6117687225
-54.7773323059 11.3966255188 24.4276599884
-54.7903175354 11.3995103836 24.2426586151
-54.8027153015 11.4022626877 24.0575256348
-54.8181648254 11.4057092667 23.8731555939
-54.8401756287 11.4106492996 23.6904220581
-54.8699378967 11.4173555374 23.5096321106
-54.9048690796 11.4252395630 23.3301620483
-54.9397239685 11.4331045151 23.1507091522
-54.9692802429 11.4397640228 22.9699764252
-54.9904022217 11.4445028305 22.7871646881
-55.0024642944 11.4471769333 22.6021003723
-55.0068550110 11.4481058121 22.4151172638
-55.0063667297 11.4479227066 22.2269020081
-55.0044364929 11.4474105835 22.0383186340
-55.0043983459 11.4473295212 21.8502063751
