39.1956405640 13.2073497772 31.2042179108
39.2985420227 13.2392234802 31.0293502808
39.4035110474 13.2717351913 30.8550605774
39.5073699951 13.3039026260 30.6806621552
39.6048545837 13.3341016769 30.5050067902
39.6923751831 13.3612222672 30.3272953033
39.7717552185 13.3858270645 30.1479091644
39.8497695923 13.4100093842 29.9683227539
39.9342117310 13.4361772537 29.7902507782
40.0304794312 13.4660005569 29.6149024963
40.1408882141 13.5001926422 29.4428119659
40.2652168274 13.5386857986 29.2739601135
40.4009628296 13.5807065964 29.1078166962
40.5432395935 13.6247453690 28.9433078766
40.6855125427 13.6687822342 28.7789783478
40.8213500977 13.7108316422 28.6133842468
40.9460144043 13.7494277954 28.4454402924
41.0567665100 13.7837257385 28.2745037079
41.1527442932 13.8134574890 28.1003513336
41.2350921631 13.8389787674 27.9232158661
41.3066291809 13.8611602783 27.7437114716
41.3707542419 13.8810510635 27.5626010895
41.4309921265 13.8997402191 27.3806743622
41.4916801453 13.9185676575 27.1989250183
41.5584259033 13.9392681122 27.0186519623
41.6370811462 13.9636478424 26.8412227631
41.7314376831 13.9928789139 26.6675395966
41.8408775330 14.0267705917 26.4974918365
41.9595832825 14.0635261536 26.3297500610
42.0786514282 14.1003913879 26.1622428894
42.1902122498 14.1349391937 25.9931221008
42.2912330627 14.1662282944 25.8216609955
42.3847045898 14.1951866150 25.6485424042
42.4776954651 14.2239961624 25.4754276276
42.5775222778 14.2549171448 25.3040542603
42.6885757446 14.2893066406 25.1354846954
42.8111915588 14.3272686005 24.9698181152
42.9419860840 14.3677587509 24.8062686920
43.0752830505 14.4090213776 24.6434898376
43.2057228088 14.4493999481 24.4801902771
43.3302841187 14.4879636765 24.3156375885
43.4474868774 14.5242538452 24.1494636536
43.5547180176 14.5574617386 23.9810123444
43.6473350525 14.5861549377 23.8091392517
43.7211380005 14.6090335846 23.6327857971
43.7757682800 14.6259899139 23.4518299103
43.8160133362 14.6385011673 23.2674064636
43.8499565125 14.6490640640 23.0814781189
43.8857040405 14.6601867676 22.8960380554
43.9291801453 14.6736946106 22.7125511169
43.9839897156 14.6907062531 22.5319290161
44.0524711609 14.7119417191 22.3547782898
44.1361579895 14.7378749847 22.1815090179
44.2347755432 14.7684211731 22.0120773315
44.3444900513 14.8023967743 21.8455562592
44.4574089050 14.8373613358 21.6799793243
44.5635223389 14.8702239990 21.5128326416
44.6545257568 14.8984184265 21.3419971466
44.7273063660 14.9209814072 21.1666584015
44.7853012085 14.9389762878 20.9876537323
44.8369293213 14.9550037384 20.8070964813
44.8915901184 14.9719676971 20.6273765564
44.9555168152 14.9917955399 20.4500980377
45.0302696228 15.0149688721 20.2756786346
45.1142311096 15.0409860611 20.1037216187
45.2048492432 15.0690603256 19.9335899353
45.2994651794 15.0983695984 19.7646083832
45.3947296143 15.1278800964 19.5959129333
45.4862518311 15.1562337875 19.4263668060
45.5697250366 15.1821002960 19.2548351288
45.6430053711 15.2048177719 19.0807456970
45.7069702148 15.2246561050 18.9043045044
45.7641410828 15.2423963547 18.7261581421
45.8167953491 15.2587404251 18.5468940735
45.8667564392 15.2742528915 18.3669815063
45.9166793823 15.2897529602 18.1871204376
45.9707832336 15.3065452576 18.0084304810
46.0341720581 15.3262062073 17.8322753906
46.1113014221 15.3501119614 17.6598644257
46.2042083740 15.3788928986 17.4917659760
46.3113021851 15.4120578766 17.3275890350
46.4277534485 15.4481143951 17.1660633087
46.5471496582 15.4850788116 17.0054759979
46.6627616882 15.5208749771 16.8440227509
46.7683601379 15.5535764694 16.6800041199
46.8595275879 15.5818204880 16.5122070313
46.9349822998 15.6052083969 16.3402500153
46.9962272644 15.6242074966 16.1645145416
47.0461349487 15.6397018433 15.9857568741
47.0883636475 15.6528244019 15.8049554825
47.1277313232 15.6650629044 15.6234188080
47.1699104309 15.6781711578 15.4427042007
47.2200851440 15.6937475204 15.2642450333
47.2819061279 15.7129240036 15.0890693665
47.3575286865 15.7363643646 14.9177951813
47.4476127625 15.7642717361 14.7506351471
47.5505561829 15.7961530685 14.5871706009
47.6618728638 15.8306226730 14.4261760712
47.7749786377 15.8656425476 14.2658224106
47.8828620911 15.8990497589 14.1041488647
47.9793548584 15.9289379120 13.9394092560
48.0596237183 15.9538135529 13.7702198029
48.1206703186 15.9727497101 13.5957002640
48.1623229980 15.9856948853 13.4157648087
48.1885299683 15.9938669205 13.2314949036
48.2073860168 15.9997673035 13.0451622009
48.2287025452 16.0064277649 12.8595523834
48.2605056763 16.0163288116 12.6769618988
48.3071899414 16.0308265686 12.4986715317
48.3697357178 16.0502262115 12.3249921799
48.4463386536 16.0739688873 12.1554365158
48.5328178406 16.1007633209 11.9888257980
48.6233100891 16.1287975311 11.8234834671
48.7112274170 16.1560344696 11.6575107574
48.7900199890 16.1804542542 11.4889974594
48.8537979126 16.2002334595 11.3162145615
48.8982543945 16.2140445709 11.1378717422
48.9220886230 16.2214832306 10.9535522461
48.9286231995 16.2235755920 10.7641897202
48.9262504578 16.2229194641 10.5722160339
48.9267082214 16.2231330872 10.3810653687
48.9415740967 16.2278022766 10.1941623688
48.9786262512 16.2393245697 10.0138330460
49.0395164490 16.2582111359 9.8406143188
49.1201210022 16.2831897736 9.6733274460
49.2130622864 16.3119812012 9.5098142624
49.3103561401 16.3421154022 9.3477163315
49.4047393799 16.3713512421 9.1848716736
49.4902610779 16.3978481293 9.0194921494
49.5630531311 16.4204120636 8.8503961563
49.6222343445 16.4387702942 8.6772937775
49.6700477600 16.4536170959 8.5008373260
49.7109184265 16.4663200378 8.3223390579
49.7497062683 16.4783782959 8.1432590485
49.7902183533 16.4909687042 7.9647483826
49.8348083496 16.5048198700 7.7875280380
49.8848152161 16.5203456879 7.6120128632
49.9407157898 16.5376911163 7.4383592606
50.0017852783 16.5566329956 7.2663593292
50.0661888123 16.5766048431 7.0954570770
50.1316108704 16.5968914032 6.9249477386
50.1953964233 16.6166744232 6.7540163994
50.2540664673 16.6348762512 6.5815844536
50.3036193848 16.6502590179 6.4064011574
50.3408432007 16.6618347168 6.2274537086
50.3640975952 16.6690921783 6.0442075729
50.3728027344 16.6718578339 5.8564548492
50.3665657043 16.6700057983 5.6640429497
50.3445663452 16.6632823944 5.4666848183
50.3048400879 16.6510829926 5.2637357712
50.2433662415 16.6321659088 5.0538954735
50.1539611816 16.6046180725 4.8351759911
50.0311012268 16.5667343140 4.6057763100
49.8768501282 16.5191535950 4.3662829399
49.7094535828 16.4675102234 4.1224174500
49.5660820007 16.4232902527 3.8859529495
49.4928321838 16.4007339478 3.6716048717
49.5244674683 16.4105815887 3.4905943871
49.6658020020 16.4543228149 3.3446691036
49.8874702454 16.5228824615 3.2246441841
50.1402893066 16.6010665894 3.1149010658
50.3794021606 16.6750144958 3.0010793209
50.5809631348 16.7373619080 2.8754739761
50.7417488098 16.7871093750 2.7369661331
50.8682556152 16.8262691498 2.5875794888
50.9679756165 16.8571510315 2.4296722412
51.0471458435 16.8816852570 2.2652189732
51.1116485596 16.9016876221 2.0960905552
51.1674957275 16.9190158844 1.9242208004
51.2205352783 16.9354763031 1.7515028715
51.2756767273 16.9525871277 1.5795377493
51.3358650208 16.9712562561 1.4092953205
51.4016036987 16.9916400909 1.2409529686
51.4716796875 17.0133628845 1.0741212368
51.5443840027 17.0359001160 0.9082453847
51.6182594299 17.0587978363 0.7428478599
51.6923332214 17.0817565918 0.5776076913
51.7660675049 17.1046104431 0.4123475254
51.8388328552 17.1271667480 0.2468589544
51.9092826843 17.1490058899 0.0806886852
11.6209249496 55.8356819153 80.0881347656
11.6158409119 55.8146247864 79.8989410400
11.6093425751 55.7873153687 79.7094497681
11.6045589447 55.7675857544 79.5202560425
11.6027297974 55.7609252930 79.3315963745
11.6031351089 55.7641448975 79.1433639526
11.6041507721 55.7700653076 78.9552459717
11.6041259766 55.7713851929 78.7669296265
11.6018295288 55.7626571655 78.5781402588
11.5967330933 55.7415466309 78.3887557983
11.5892114639 55.7097129822 78.1988296509
11.5804500580 55.6723976135 78.0086059570
11.5718917847 55.6359786987 77.8183670044
11.5645322800 55.6048622131 77.6283340454
11.5587263107 55.5806159973 77.4386062622
11.5547542572 55.5644836426 77.2492523193
11.5535020828 55.5603752136 77.0604934692
11.5562791824 55.5740814209 76.8726348877
11.5636959076 55.6083068848 76.6858673096
11.5747547150 55.6586380005 76.4999847412
11.5872440338 55.7152938843 76.3145065308
11.5990457535 55.7689056396 76.1289215088
11.6090040207 55.8143730164 75.9429473877
11.6168365479 55.8504333496 75.7565078735
11.6226615906 55.8776168823 75.5696029663
11.6267728806 55.8972244263 75.3823013306
11.6296081543 55.9111900330 75.1947021484
11.6316442490 55.9216232300 75.0069046021
11.6332101822 55.9299697876 74.8189926147
11.6344861984 55.9370384216 74.6310119629
11.6356716156 55.9437141418 74.4430084229
11.6369915009 55.9509735107 74.2550430298
11.6385478973 55.9592819214 74.0671463013
11.6404027939 55.9689140320 73.8793334961
11.6427803040 55.9808540344 73.6916732788
11.6459188461 55.9961547852 73.5042343140
11.6497201920 56.0143928528 73.3169937134
11.6536912918 56.0333786011 73.1298141479
11.6571769714 56.0502166748 72.9425201416
11.6595945358 56.0623321533 72.7549285889
11.6605739594 56.0680923462 72.5669326782
11.6600828171 56.0673484802 72.3785018921
11.6583986282 56.0613288879 72.1897201538
11.6558780670 56.0516128540 72.0006637573
11.6528091431 56.0394706726 71.8114318848
11.6494550705 56.0260658264 71.6220932007
11.6460437775 56.0124130249 71.4327163696
11.6425619125 55.9984474182 71.2432861328
11.6386680603 55.9826583862 71.0537109375
11.6339063644 55.9630355835 70.8638381958
11.6280393600 55.9385185242 70.6735839844
11.6212434769 55.9099006653 70.4830017090
11.6141004562 55.8797531128 70.2922592163
11.6074676514 55.8518524170 70.1016464233
11.6023674011 55.8307304382 69.9114913940
11.5999078751 55.8212852478 69.7221832275
11.6010303497 55.8276786804 69.5340576172
11.6060771942 55.8514213562 69.3472595215
11.6145019531 55.8900947571 69.1616287231
11.6249666214 55.9377899170 68.9767379761
11.6356830597 55.9865989685 68.7919845581
11.6447753906 56.0282249451 68.6067276001
11.6506433487 56.0555953979 68.4203796387
11.6523141861 56.0644111633 68.2325820923
11.6495552063 56.0536422729 68.0432128906
11.6427755356 56.0250968933 67.8523864746
11.6330146790 55.9833717346 67.6604309082
11.6221647263 55.9368324280 67.4680328369
11.6130037308 55.8977622986 67.2761917114
11.6084852219 55.8792152405 67.0860061646
11.6104555130 55.8893547058 66.8982086182
11.6186628342 55.9270668030 66.7127609253
11.6308765411 55.9824905396 66.5288696289
11.6441459656 56.0425796509 66.3454360962
11.6561384201 56.0970268250 66.1615829468
11.6655740738 56.1401672363 65.9768066406
11.6718378067 56.1692848206 65.7908401489
11.6746063232 56.1829528809 65.6035461426
11.6738376617 56.1809844971 65.4148635864
11.6698942184 56.1649818420 65.2249145508
11.6635675430 56.1384391785 65.0339965820
11.6559438705 56.1061668396 64.8425140381
11.6482124329 56.0734176636 64.6509399414
11.6414461136 56.0449333191 64.4597167969
11.6364755630 56.0243911743 64.2691879272
11.6338024139 56.0140037537 64.0795745850
11.6334047318 56.0136718750 63.8908958435
11.6344823837 56.0198631287 63.7028236389
11.6354923248 56.0257606506 63.5147285461
11.6346359253 56.0233993530 63.3258399963
11.6305789948 56.0069007874 63.1355819702
11.6230430603 55.9750137329 62.9438056946
11.6130027771 55.9320640564 62.7509002686
11.6023893356 55.8865737915 62.5576896667
11.5933160782 55.8478965759 62.3650932312
11.5872449875 55.8224906921 62.1737632751
11.5846519470 55.8124618530 61.9839363098
11.5853099823 55.8167991638 61.7955398560
11.5886573792 55.8330268860 61.6083488464
11.5938310623 55.8573226929 61.4219970703
11.5995759964 55.8841514587 61.2359275818
11.6044149399 55.9069671631 61.0494728088
11.6069726944 55.9197044373 60.8619918823
11.6062364578 55.9178810120 60.6730003357
11.6018686295 55.9000015259 60.4823188782
11.5945882797 55.8692550659 60.2902450562
11.5861120224 55.8332176208 60.0975685120
11.5783643723 55.8004035950 59.9051856995
11.5726404190 55.7765312195 59.7137184143
11.5693960190 55.7636222839 59.5234031677
11.5685110092 55.7611427307 59.3342018127
11.5695047379 55.7669677734 59.1459007263
11.5716066360 55.7776870728 58.9581375122
11.5739002228 55.7892570496 58.7704772949
11.5756769180 55.7985382080 58.5825691223
11.5767908096 55.8048934937 58.3943443298
11.5777158737 55.8104171753 58.2060241699
11.5791740417 55.8182907104 58.0179748535
11.5816717148 55.8307609558 57.8304481506
11.5853567123 55.8484764099 57.6435356140
11.5901041031 55.8708953857 57.4571762085
11.5955190659 55.8962593079 57.2711791992
11.6008825302 55.9213943481 57.0851821899
11.6053838730 55.9427185059 56.8987655640
11.6085796356 55.9582748413 56.7116966248
11.6105928421 55.9686050415 56.5240211487
11.6118717194 55.9756889343 56.3359680176
11.6129007339 55.9816627502 56.1477890015
11.6140480042 55.9881668091 55.9596710205
11.6153793335 55.9954795837 55.7716560364
11.6165571213 56.0021171570 55.5835609436
11.6171779633 56.0062904358 55.3951721191
11.6173601151 56.0085258484 55.2065429688
11.6180095673 56.0128250122 55.0181694031
11.6205244064 56.0253715515 54.8308105469
11.6261844635 56.0518188477 54.6451873779
11.6354665756 56.0942687988 54.4615859985
11.6476268768 56.1494445801 54.2796287537
11.6609077454 56.2095680237 54.0983581543
11.6732225418 56.2654266357 53.9166145325
11.6827888489 56.3091316223 53.7333869934
11.6884565353 56.3356094360 53.5480079651
11.6899385452 56.3435897827 53.3602828979
11.6879262924 56.3361282349 53.1705665588
11.6839227676 56.3198623657 52.9796943665
11.6798124313 56.3031234741 52.7887382507
11.6772985458 56.2934455872 52.5986785889
11.6773471832 56.2950897217 52.4100914001
11.6799287796 56.3079299927 52.2229766846
11.6842908859 56.3286399841 52.0369186401
11.6894998550 56.3530845642 51.8513793945
11.6947402954 56.3776741028 51.6658859253
11.6992874146 56.3992004395 51.4800033569
11.7024450302 56.4145851135 51.2933082581
11.7037143707 56.4216232300 51.1054992676
11.7031316757 56.4204750061 50.9165725708
11.7015056610 56.4147186279 50.7270126343
11.7002716064 56.4106979370 50.5376739502
11.7008590698 56.4147224426 50.3494377136
11.7039327621 56.4297332764 50.1627311707
11.7091627121 56.4542770386 49.9773635864
11.7157344818 56.4847450256 49.7928504944
11.7230501175 56.5185050964 49.6088371277
11.7309627533 56.5548973083 49.4252281189
11.7394466400 56.5938186646 49.2420158386
11.7481508255 56.6337127686 49.0589904785
11.7562360764 56.6708679199 48.8756141663
11.7626609802 56.7006874084 48.6912231445
11.7666444778 56.7197151184 48.5053024292
11.7678985596 56.7266883850 48.3176536560
11.7665300369 56.7220687866 48.1283226013
11.7628641129 56.7072982788 47.9374923706
11.7574558258 56.6848258972 47.7455101013
11.7512130737 56.6586723328 47.5529479980
11.7454080582 56.6344490051 47.3606376648
11.7414388657 56.6183433533 47.1694984436
11.7405090332 56.6156616211 46.9803390503
11.7433376312 56.6295890808 46.7936630249
11.7498874664 56.6599617004 46.6094703674
11.7591362000 56.7022590637 46.4271163940
11.7691860199 56.7480926514 46.2453422546
11.7779140472 56.7880859375 46.0627326965
11.7838497162 56.8157424927 45.8782768250
11.7867193222 56.8298492432 45.6917686462
11.7873325348 56.8339881897 45.5037384033
11.7870302200 56.8340835571 45.3150787354
11.7871160507 56.8358917236 45.1266784668
11.7885866165 56.8438186646 44.9392318726
11.7920846939 56.8607025146 44.7531929016
11.7978487015 56.8875999451 44.5687446594
11.8056735992 56.9235992432 44.3857650757
11.8150568008 56.9664840698 44.2039108276
11.8254556656 57.0138626099 44.0228233337
11.8363265991 57.0633201599 43.8421211243
11.8469285965 57.1115951538 43.6612815857
11.8563146591 57.1544914246 43.4796333313
11.8636512756 57.1883316040 43.2965660095
11.8685827255 57.2115478516 43.1118125916
11.8713388443 57.2251548767 42.9255180359
11.8726558685 57.2324028015 42.7381935120
11.8736162186 57.2380676270 42.5506172180
11.8753633499 57.2472190857 42.3636131287
11.8787107468 57.2634315491 42.1777801514
11.8838253021 57.2874565125 41.9932632446
11.8902482986 57.3172607422 41.8097305298
11.8971776962 57.3493003845 41.6266021729
11.9037532806 57.3797836304 41.4432487488
11.9091882706 57.4052238464 41.2590789795
11.9128293991 57.4227371216 41.0735931396
11.9142475128 57.4304237366 40.8864555359
11.9133348465 57.4278221130 40.6975746155
11.9103918076 57.4162445068 40.5071487427
11.9061508179 57.3989372253 40.3157196045
11.9016923904 57.3806648254 40.1240997314
11.8981695175 57.3665275574 39.9331665039
11.8964872360 57.3605232239 39.7436180115
11.8971261978 57.3647727966 39.5558395386
11.9001560211 57.3795852661 39.3699073792
11.9052972794 57.4037246704 39.1856231689
11.9120006561 57.4347648621 39.0025749207
11.9195270538 57.4694442749 38.8202018738
11.9270296097 57.5040168762 38.6378479004
11.9336395264 57.5346412659 38.4548301697
11.9386806488 57.5583419800 38.2706069946
11.9419889450 57.5743827820 38.0850410461
11.9441328049 57.5852813721 37.8985671997
11.9463138580 57.5963401794 37.7121276855
11.9499263763 57.6137275696 37.5268402100
11.9559106827 57.6415901184 37.3434715271
11.9642066956 57.6796646118 37.1619873047
11.9737033844 57.7230453491 36.9815139771
11.9828453064 57.7648544312 36.8008041382
11.9904136658 57.7997131348 36.6188583374
11.9958953857 57.8253555298 36.4352531433
11.9993257523 57.8419342041 36.2499961853
12.0009765625 57.8506546021 36.0632934570
12.0012025833 57.8530769348 35.8754272461
12.0004072189 57.8509864807 35.6867103577
11.9990253448 57.8463096619 35.4975051880
11.9974918365 57.8409614563 35.3081588745
11.9962186813 57.8367652893 35.1190185547
11.9956264496 57.8355751038 34.9304389954
11.9961948395 57.8395080566 34.7428245544
11.9984855652 57.8510513306 34.5566635132
12.0030813217 57.8727798462 34.3724555969
12.0103979111 57.9065246582 34.1905746460
12.0204191208 57.9522171021 34.0110282898
12.0324840546 58.0069351196 33.8332748413
12.0452575684 58.0647888184 33.6561927795
12.0569791794 58.1179885864 33.4782714844
12.0658826828 58.1587409973 33.2979850769
12.0706024170 58.1810150146 33.1141319275
12.0705175400 58.1820678711 32.9261360168
12.0660924911 58.1639442444 32.7343635559
12.0589475632 58.1338081360 32.5401916504
12.0513505936 58.1016769409 32.3455848694
12.0453653336 58.0766639709 32.1523437500
12.0422248840 58.0642166138 31.9615726471
12.0421285629 58.0652160645 31.7734680176
12.0443277359 58.0763549805 31.5873889923
12.0474863052 58.0917320251 31.4021739960
12.0502786636 58.1054916382 31.2166442871
12.0518894196 58.1140327454 31.0300693512
12.0521488190 58.1166038513 30.8422908783
12.0513658524 58.1145706177 30.6535720825
12.0500764847 58.1102981567 30.4643878937
12.0488491058 58.1063041687 30.2752494812
12.0481414795 58.1046028137 30.0865726471
12.0482177734 58.1063652039 29.8986034393
12.0491552353 58.1119346619 29.7114143372
12.0509023666 58.1210746765 29.5249691010
12.0533628464 58.1333656311 29.3391838074
12.0564346313 58.1483612061 29.1539726257
12.0599699020 58.1653976440 28.9692020416
12.0636768341 58.1831970215 28.7846069336
12.0670642853 58.1995849609 28.5997314453
12.0694913864 58.2117271423 28.4139747620
12.0703229904 58.2168273926 28.2267379761
12.0691566467 58.2131004333 28.0376300812
12.0659980774 58.2005767822 27.8466396332
12.0612888336 58.1812019348 27.6541652679
12.0557699203 58.1582527161 27.4608974457
12.0503063202 58.1355476379 27.2676486969
12.0457773209 58.1169738770 27.0752544403
12.0430097580 58.1061782837 26.8845119476
12.0426483154 58.1060028076 26.6960525513
12.0449419022 58.1175613403 26.5101318359
12.0495548248 58.1393585205 26.3264522552
12.0554895401 58.1669960022 26.1440677643
12.0612630844 58.1939201355 25.9615554810
12.0653963089 58.2135963440 25.7774810791
12.0669918060 58.2220726013 25.5909576416
12.0659437180 58.2188682556 25.4018611908
12.0626707077 58.2058410645 25.2105789185
12.0578651428 58.1860427856 25.0177726746
12.0524988174 58.1637687683 24.8243865967
12.0477752686 58.1443367004 24.6315994263
12.0447797775 58.1325302124 24.4404926300
12.0441398621 58.1311302185 24.2517013550
12.0459976196 58.1407661438 24.0653877258
12.0501317978 58.1604499817 23.8813495636
12.0559625626 58.1876220703 23.6990261078
12.0624475479 58.2176856995 23.5173873901
12.0681324005 58.2442169189 23.3349761963
12.0715522766 58.2607460022 23.1503086090
12.0718078613 58.2633018494 22.9624595642
12.0689897537 58.2522811890 22.7714920044
12.0642595291 58.2328224182 22.5785636902
12.0595579147 58.2134819031 22.3856334686
12.0568685532 58.2030334473 22.1947326660
12.0573091507 58.2064056396 22.0070171356
12.0606212616 58.2224578857 21.8222503662
12.0654706955 58.2453002930 21.6390800476
12.0702705383 58.2679214478 21.4558811188
12.0738401413 58.2851066589 21.2714328766
12.0755453110 58.2940673828 21.0850658417
12.0751171112 58.2936019897 20.8964824677
12.0725393295 58.2836456299 20.7056522369
12.0681343079 58.2656211853 20.5128917694
12.0626220703 58.2427024841 20.3189430237
12.0569429398 58.2190551758 20.1247863770
12.0519256592 58.1983261108 19.9312915802
12.0479841232 58.1823463440 19.7389030457
12.0450096130 58.1706390381 19.5475139618
12.0425310135 58.1611213684 19.3566322327
12.0401010513 58.1518173218 19.1657848358
12.0375452042 58.1419639587 18.9747867584
12.0347566605 58.1310729980 18.7835216522
12.0313577652 58.1174964905 18.5915832520
12.0268077850 58.0988311768 18.3983840942
12.0208015442 58.0737380981 18.2035865784
12.0134830475 58.0428543091 18.0073318481
12.0053701401 58.0084571838 17.8101730347
11.9973001480 57.9742507935 17.6130123138
11.9903650284 57.9450569153 17.4170417786
11.9855985641 57.9254417419 17.2233982086
11.9835109711 57.9176521301 17.0326595306
11.9839010239 57.9207992554 16.8446254730
11.9860591888 57.9317626953 16.6585350037
11.9891300201 57.9467468262 16.4734611511
11.9922695160 57.9620361328 16.2884750366
11.9946022034 57.9737663269 16.1026077271
11.9952611923 57.9781036377 15.9148912430
11.9937448502 57.9728355408 15.7247495651
11.9902915955 57.9590187073 15.5324325562
11.9857997894 57.9406127930 15.3389320374
11.9813146591 57.9222450256 15.1454105377
11.9776124954 57.9073219299 14.9527406693
11.9751625061 57.8979377747 14.7614593506
11.9742870331 57.8955001831 14.5719423294
11.9751863480 57.9009017944 14.3844270706
11.9777746201 57.9137573242 14.1988315582
11.9815654755 57.9319229126 14.0146169662
11.9858694077 57.9523544312 13.8310041428
11.9901304245 57.9725990295 13.6473636627
11.9939756393 57.9910011292 13.4632644653
11.9969320297 58.0054855347 13.2781610489
11.9983282089 58.0130767822 13.0912723541
11.9976329803 58.0114364624 12.9019727707
11.9948768616 58.0006980896 12.7102794647
11.9907197952 57.9837684631 12.5169410706
11.9861888885 57.9651947021 12.3231420517
11.9823560715 57.9497070313 12.1301298141
11.9800939560 57.9411506653 11.9389276505
11.9799385071 57.9418907166 11.7501773834
11.9820384979 57.9525909424 11.5640697479
11.9861555099 57.9721984863 11.3803453445
11.9917192459 57.9981880188 11.1983451843
11.9979133606 58.0269622803 11.0171175003
12.0037689209 58.0542449951 10.8355197906
12.0082683563 58.0755386353 10.6523389816
12.0105533600 58.0870552063 10.4665422440
12.0102434158 58.0871124268 10.2776584625
12.0076408386 58.0770530701 10.0860280991
12.0036315918 58.0607833862 9.8926935196
11.9993276596 58.0432128906 9.6989793777
11.9957361221 58.0287857056 9.5060958862
11.9935626984 58.0206222534 9.3149013519
11.9930896759 58.0199661255 9.1257476807
11.9940118790 58.0254631042 8.9382781982
11.9953918457 58.0329856873 8.7513675690
11.9959697723 58.0369644165 8.5634841919
11.9947433472 58.0329818726 8.3733978271
11.9914436340 58.0198440552 8.1807651520
11.9865942001 57.9998664856 7.9862117767
11.9812345505 57.9776344299 7.7910008430
11.9765214920 57.9582633972 7.5965542793
11.9734115601 57.9459609985 7.4040551186
11.9724636078 57.9432067871 7.2142105103
11.9737319946 57.9502372742 7.0271043777
11.9766759872 57.9646644592 6.8420834541
11.9802350998 57.9818077087 6.6578407288
11.9831914902 57.9962882996 6.4728612900
11.9846658707 58.0042228699 6.2860403061
11.9843997955 58.0044784546 6.0970439911
11.9827127457 57.9984626770 5.9062581062
11.9802684784 57.9891014099 5.7145056725
11.9778251648 57.9797515869 5.5227389336
11.9760179520 57.9732017517 5.3317580223
11.9751739502 57.9709091187 5.1419844627
11.9752712250 57.9727668762 4.9533963203
11.9760646820 57.9776992798 4.7656931877
11.9772806168 57.9844970703 4.5785274506
11.9786863327 57.9921340942 4.3916087151
11.9800920486 57.9997673035 4.2046928406
11.9813880920 58.0069198608 4.0176410675
11.9826631546 58.0139808655 3.8305661678
11.9842643738 58.0224800110 3.6439149380
11.9866809845 58.0345726013 3.4583203793
11.9902830124 58.0519027710 3.2742710114
11.9951677322 58.0748939514 3.0919005871
12.0012741089 58.1032752991 2.9111404419
12.0085840225 58.1369743347 2.7319788933
12.0170593262 58.1758155823 2.5543735027
12.0264005661 58.2184715271 2.3779425621
12.0360975266 58.2626991272 2.2020254135
12.0458402634 58.3071327209 2.0262186527
12.0558099747 58.3525657654 1.8507595062
12.0664939880 58.4011535645 1.6762927771
12.0782794952 58.4546012878 1.5033377409
12.0912981033 58.5134887695 1.3320746422
12.1055784225 58.5779457092 1.1625533104
12.1211805344 58.6482353210 0.9948640466
12.1380882263 58.7242889404 0.8289961815
12.1561183929 58.8052940369 0.6647148728
12.1750583649 58.8903160095 0.5017464757
12.1948251724 58.9789848328 0.3399862647
12.2153320313 59.0709190369 0.1793233752
12.2361478806 59.1642189026 0.0191854294
37.7552604675 2.4604017735 80.7371826172
37.7575836182 2.4605641365 80.5392990112
37.7577171326 2.4606432915 80.3413085938
37.7549133301 2.4606108665 80.1431732178
37.7494812012 2.4604787827 79.9448928833
37.7428054810 2.4602992535 79.7465362549
37.7366752625 2.4601407051 79.5481948853
37.7323150635 2.4600493908 79.3499374390
37.7293930054 2.4600124359 79.1517410278
37.7257728577 2.4599490166 78.9534988403
37.7189712524 2.4597649574 78.7550735474
37.7089195251 2.4594576359 78.5564651489
37.6995964050 2.4591777325 78.3578720093
37.6973075867 2.4591648579 78.1596603394
37.7069473267 2.4596049786 77.9620971680
37.7298393250 2.4605481625 77.7652969360
37.7647018433 2.4619455338 77.5692062378
37.8094558716 2.4637184143 77.3737258911
37.8612480164 2.4657583237 77.1787109375
37.9152107239 2.4678809643 76.9838790894
37.9646835327 2.4698328972 76.7888412476
38.0035705566 2.4713830948 76.5932235718
38.0288772583 2.4724178314 76.3968200684
38.0412330627 2.4729607105 76.1996459961
38.0436363220 2.4731259346 76.0018615723
38.0398826599 2.4730575085 75.8036880493
38.0334091187 2.4728858471 75.6053314209
38.0270118713 2.4727170467 75.4069671631
38.0232734680 2.4726490974 75.2087554932
38.0249862671 2.4727883339 75.0109024048
38.0346527100 2.4732291698 74.8135604858
38.0531845093 2.4740066528 74.6168212891
38.0791206360 2.4750652313 74.4206008911
38.1089630127 2.4762718678 74.2246704102
38.1381301880 2.4774529934 74.0287246704
38.1617736816 2.4784245491 73.8324279785
38.1755561829 2.4790215492 73.6354675293
38.1768569946 2.4791450500 73.4376373291
38.1660919189 2.4788105488 73.2389526367
38.1470108032 2.4781603813 73.0396499634
38.1254005432 2.4774141312 72.8401412964
38.1067886353 2.4767818451 72.6408157349
38.0945549011 2.4763915539 72.4419326782
38.0894241333 2.4762709141 72.2435531616
38.0903015137 2.4763782024 72.0456085205
38.0953903198 2.4766454697 71.8479766846
38.1025085449 2.4769897461 71.6505050659
38.1085357666 2.4772925377 71.4529571533
38.1091194153 2.4773886204 71.2549819946
38.1001129150 2.4771208763 71.0562591553
38.0804824829 2.4764502048 70.8566894531
38.0542449951 2.4755284786 70.6565628052
38.0292396545 2.4746534824 70.4564971924
38.0137443542 2.4741394520 70.2571563721
38.0135383606 2.4742057323 70.0590362549
38.0304756165 2.4749226570 69.8623046875
38.0619621277 2.4761917591 69.6667861938
38.1015014648 2.4777665138 69.4719696045
38.1409111023 2.4793360233 69.2771911621
38.1731681824 2.4806342125 69.0818557739
38.1939964294 2.4814987183 68.8855819702
38.2020225525 2.4818773270 68.6882324219
38.1987991333 2.4818291664 68.4899291992
38.1885910034 2.4815158844 68.2910079956
38.1767463684 2.4811403751 68.0919189453
38.1670913696 2.4808480740 67.8930130005
38.1604270935 2.4806694984 67.6943511963
38.1550827026 2.4805407524 67.4957885742
38.1486473083 2.4803705215 67.2971191406
38.1396369934 2.4801027775 67.0982055664
38.1281356812 2.4797403812 66.8990478516
38.1150398254 2.4793176651 66.6997222900
38.1008033752 2.4788515568 66.5002746582
38.0852928162 2.4783370495 66.3006820679
38.0691490173 2.4777984619 66.1010055542
38.0551605225 2.4773418903 65.9015045166
38.0480003357 2.4771444798 65.7026367188
38.0524978638 2.4773890972 65.5048599243
38.0715866089 2.4781875610 65.3084793091
38.1048927307 2.4795255661 65.1135025024
38.1483383179 2.4812481403 64.9195404053
38.1950912476 2.4830963612 64.7259597778
38.2376060486 2.4847836494 64.5320053101
38.2695884705 2.4860713482 64.3370590210
38.2869300842 2.4868032932 64.1406860352
38.2876472473 2.4869046211 63.9426651001
38.2713851929 2.4863617420 63.7429199219
38.2391395569 2.4852123260 63.5415229797
38.1935920715 2.4835584164 63.3387222290
38.1398200989 2.4815921783 63.1350135803
38.0854530334 2.4796035290 62.9311676025
38.0397415161 2.4779431820 62.7281532288
38.0115242004 2.4769468307 62.5269088745
38.0064811707 2.4768297672 62.3280639648
38.0248947144 2.4776024818 62.1316986084
38.0617637634 2.4790756702 61.9373168945
38.1095771790 2.4809639454 61.7441520691
38.1616744995 2.4830145836 61.5515060425
38.2137641907 2.4850649834 61.3589172363
38.2631072998 2.4870111942 61.1660881042
38.3069686890 2.4887495041 60.9727172852
38.3424415588 2.4901695251 60.7784652710
38.3677825928 2.4912049770 60.5831298828
38.3836212158 2.4918801785 60.3867607117
38.3929557800 2.4923083782 60.1896705627
38.4001884460 2.4926569462 59.9923553467
38.4096603394 2.4930903912 59.7952957153
38.4240531921 2.4937102795 59.5988044739
38.4432487488 2.4945127964 59.4028778076
38.4642066956 2.4953820705 59.2071723938
38.4819412231 2.4961287975 59.0111160278
38.4915771484 2.4965686798 58.8141326904
38.4908332825 2.4966144562 58.6159362793
38.4816017151 2.4963383675 58.4167327881
38.4697723389 2.4959638119 58.2172050476
38.4631652832 2.4957871437 58.0182762146
38.4686355591 2.4960687160 57.8207855225
38.4896621704 2.4969406128 57.6251678467
38.5250129700 2.4983558655 57.4313087463
38.5686264038 2.5000844002 57.2384910583
38.6111259460 2.5017707348 57.0455894470
38.6431655884 2.5030603409 56.8514480591
38.6591949463 2.5037424564 56.6553649902
38.6594390869 2.5038256645 56.4573326111
38.6491775513 2.5035104752 56.2579841614
38.6363792419 2.5030992031 56.0583000183
38.6291732788 2.5028998852 55.8593025208
38.6338806152 2.5031526089 55.6617965698
38.6538314819 2.5039834976 55.4662361145
38.6888122559 2.5053844452 55.2726173401
38.7352943420 2.5072219372 55.0805168152
38.7874069214 2.5092728138 54.8891944885
38.8384399414 2.5112826824 54.6977958679
38.8821563721 2.5130150318 54.5055007935
38.9137573242 2.5142877102 54.3116645813
38.9312629700 2.5150256157 54.1160087585
38.9373207092 2.5153295994 53.9188499451
38.9392738342 2.5154776573 53.7211532593
38.9458389282 2.5158007145 53.5240669250
38.9625854492 2.5165100098 53.3283500671
38.9901123047 2.5176281929 53.1341018677
39.0257492065 2.5190539360 52.9409866333
39.0662765503 2.5206651688 52.7485733032
39.1095123291 2.5223791599 52.5565757751
39.1544990540 2.5241596699 52.3648681641
39.2008628845 2.5259921551 52.1734046936
39.2480621338 2.5278563499 51.9821052551
39.2953529358 2.5297238827 51.7908744812
39.3426361084 2.5315914154 51.5996971130
39.3907775879 2.5334911346 51.4086952209
39.4400978088 2.5354359150 51.2179145813
39.4884719849 2.5373446941 51.0270576477
39.5317649841 2.5390605927 50.8355331421
39.5667572021 2.5404617786 50.6428680420
39.5937194824 2.5415580273 50.4490890503
39.6163787842 2.5424914360 50.2547149658
39.6397781372 2.5434529781 50.0604743958
39.6676559448 2.5445840359 49.8669090271
39.7008476257 2.5459167957 49.6741523743
39.7374572754 2.5473792553 49.4819297791
39.7747573853 2.5488679409 49.2898521423
39.8115425110 2.5503368378 49.0977401733
39.8488960266 2.5518274307 48.9057540894
39.8888244629 2.5534155369 48.7141952515
39.9325981140 2.5551495552 48.5232543945
39.9807434082 2.5570492744 48.3330230713
40.0344314575 2.5591592789 48.1436843872
40.0958786011 2.5615634918 47.9555892944
40.1668090820 2.5643272400 47.7690086365
40.2463264465 2.5674166679 47.5838279724
40.3300323486 2.5706648827 47.3993835449
40.4108695984 2.5738043785 47.2145996094
40.4812850952 2.5765485764 47.0282936096
40.5360717773 2.5786998272 46.8396377563
40.5746192932 2.5802354813 46.6485137939
40.6010360718 2.5813109875 46.4555282593
40.6224288940 2.5821959972 46.2617797852
40.6472778320 2.5832118988 46.0685958862
40.6842765808 2.5846889019 45.8773727417
40.7399673462 2.5868744850 45.6891670227
40.8154792786 2.5898115635 45.5041961670
40.9055671692 2.5933015347 45.3216552734
41.0012359619 2.5970032215 45.1401252747
41.0934028625 2.6005718708 44.9581413269
41.1749877930 2.6037390232 44.7745475769
41.2413825989 2.6063303947 44.5885734558
41.2909088135 2.6082820892 44.3999176025
41.3260498047 2.6096882820 44.2089500427
41.3541183472 2.6108262539 44.0168571472
41.3855018616 2.6120896339 43.8253440857
41.4298744202 2.6138458252 43.6360244751
41.4925155640 2.6162946224 43.4498023987
41.5718231201 2.6193754673 43.2664489746
41.6588783264 2.6227500439 43.0844917297
41.7399444580 2.6258974075 42.9016265869
41.8019256592 2.6283211708 42.7156257629
41.8384857178 2.6297807693 42.5253753662
41.8533401489 2.6304175854 42.3314628601
41.8586616516 2.6306927204 42.1359291077
41.8691978455 2.6311657429 41.9412918091
41.8952369690 2.6322264671 41.7493400574
41.9386634827 2.6339466572 41.5604248047
41.9942626953 2.6361281872 41.3736763000
42.0542640686 2.6384766102 41.1877593994
42.1120872498 2.6407425404 41.0015335083
42.1636848450 2.6427721977 40.8142814636
42.2074737549 2.6445059776 40.6257095337
42.2438850403 2.6459598541 40.4358825684
42.2744750977 2.6471931934 40.2450637817
42.3012542725 2.6482818127 40.0535964966
42.3269844055 2.6493308544 39.8619728088
42.3560523987 2.6505062580 39.6709747314
42.3945198059 2.6520380974 39.4817008972
42.4489784241 2.6541762352 39.2953605652
42.5249099731 2.6571283340 39.1129760742
42.6251411438 2.6610019207 38.9351081848
42.7484741211 2.6657509804 38.7615737915
42.8886260986 2.6711378098 38.5912742615
43.0346374512 2.6767466068 38.4222221375
43.1734809875 2.6820838451 38.2520256042
43.2939834595 2.6867253780 38.0786018372
43.3900184631 2.6904394627 37.9007835388
43.4615325928 2.6932239532 37.7185058594
43.5135307312 2.6952683926 37.5326690674
43.5538177490 2.6968688965 37.3446922302
43.5899620056 2.6983122826 37.1559791565
43.6263351440 2.6997642517 36.9673538208
43.6628799438 2.7012226582 36.7787971497
43.6969413757 2.7025871277 36.5898132324
43.7267608643 2.7037909031 36.4000549316
43.7534255981 2.7048747540 36.2097244263
43.7799415588 2.7059528828 36.0193977356
43.8090133667 2.7071282864 35.8295898438
43.8415527344 2.7084348202 35.6404800415
43.8765182495 2.7098333836 35.4518814087
43.9119262695 2.7112486362 35.2634048462
43.9464302063 2.7126297951 35.0747909546
43.9806823730 2.7140011787 34.8861694336
44.0176391602 2.7154753208 34.6981163025
44.0617637634 2.7172210217 34.5115127563
44.1180000305 2.7194256783 34.3273582458
44.1909561157 2.7222642899 34.1465835571
44.2836685181 2.7258517742 33.9698257446
44.3957710266 2.7301740646 33.7970504761
44.5227775574 2.7350614071 33.6273956299
44.6576347351 2.7402462959 33.4594688416
44.7927742004 2.7454416752 33.2917671204
44.9204940796 2.7503559589 33.1227264404
45.0326461792 2.7546799183 32.9506874084
45.1219329834 2.7581372261 32.7741355896
45.1847724915 2.7605919838 32.5922966003
45.2233734131 2.7621278763 32.4055709839
45.2454757690 2.7630383968 32.2155036926
45.2622184753 2.7637457848 32.0243530273
45.2851905823 2.7646892071 31.8345069885
45.3236007690 2.7662179470 31.6478824615
45.3822135925 2.7685124874 31.4654998779
45.4605293274 2.7715537548 31.2872886658
45.5534019470 2.7751464844 31.1122150421
45.6525840759 2.7789783478 30.9385738373
45.7481269836 2.7826726437 30.7642898560
45.8293724060 2.7858245373 30.5871047974
45.8869857788 2.7880809307 30.4050178528
45.9169960022 2.7892911434 30.2171421051
45.9242553711 2.7896387577 30.0244579315
45.9213256836 2.7896003723 29.8296012878
45.9228973389 2.7897326946 29.6357021332
45.9401512146 2.7904591560 29.4451656342
45.9785804749 2.7919883728 29.2592048645
46.0386314392 2.7943370342 29.0779552460
46.1169281006 2.7973771095 28.9007282257
46.2073020935 2.8008749485 28.7262191772
46.3020744324 2.8045392036 28.5527744293
46.3935813904 2.8080799580 28.3787326813
46.4754562378 2.8112554550 28.2026882172
46.5434722900 2.8139057159 28.0236988068
46.5962448120 2.8159782887 27.8414306641
46.6356163025 2.8175427914 27.6562633514
46.6662445068 2.8187761307 27.4692020416
46.6941490173 2.8199062347 27.2815685272
46.7248840332 2.8211433887 27.0945968628
46.7620086670 2.8226230145 26.9090862274
46.8066215515 2.8243861198 26.7252960205
46.8582153320 2.8264138699 26.5431251526
46.9161949158 2.8286836147 26.3624534607
46.9804496765 2.8311910629 26.1832695007
47.0504188538 2.8339149952 26.0054531097
47.1235771179 2.8367600441 25.8284473419
47.1951789856 2.8395457268 25.6511726379
47.2600059509 2.8420748711 25.4724369049
47.3151664734 2.8442375660 25.2915592194
47.3616523743 2.8460714817 25.1087551117
47.4035797119 2.8477327824 24.9249534607
47.4461593628 2.8494186401 24.7413501740
47.4940490723 2.8513054848 24.5590248108
47.5505104065 2.8535175323 24.3787479401
47.6167984009 2.8561017513 24.2008247375
47.6917610168 2.8590147495 24.0250053406
47.7725105286 2.8621468544 23.8506317139
47.8557167053 2.8653721809 23.6769294739
47.9380302429 2.8685634136 23.5031185150
48.0158386230 2.8715841770 23.3283424377
48.0857315063 2.8743047714 23.1517868042
48.1455535889 2.8766436577 22.9729213715
48.1945457458 2.8785724640 22.7915515900
48.2330894470 2.8801050186 22.6077442169
48.2633590698 2.8813242912 22.4220008850
48.2903137207 2.8824176788 22.2354946136
48.3207054138 2.8836414814 22.0498466492
48.3603019714 2.8852140903 21.8664493561
48.4117355347 2.8872351646 21.6859569550
48.4748458862 2.8896985054 21.5083580017
48.5481491089 2.8925480843 21.3333072662
48.6290473938 2.8956854343 21.1601963043
48.7126693726 2.8989260197 20.9878463745
48.7917442322 2.9019942284 20.8144836426
48.8592681885 2.9046247005 20.6383800507
48.9120826721 2.9066979885 20.4587345123
48.9520111084 2.9082827568 20.2759704590
48.9840660095 2.9095692635 20.0913047791
49.0139961243 2.9107754230 19.9061470032
49.0468521118 2.9120922089 19.7217483521
49.0862541199 2.9136571884 19.5390186310
49.1335601807 2.9155213833 19.3583087921
49.1871490479 2.9176237583 19.1792278290
49.2431526184 2.9198176861 19.0008182526
49.2977027893 2.9219563007 18.8221054077
49.3489151001 2.9239685535 18.6426143646
49.3969535828 2.9258606434 18.4623794556
49.4423370361 2.9276518822 18.2815265656
49.4845657349 2.9293236732 18.0999221802
49.5223922729 2.9308285713 17.9172458649
49.5551223755 2.9321408272 17.7333087921
49.5835266113 2.9332888126 17.5482978821
49.6099548340 2.9343619347 17.3628101349
49.6381149292 2.9355006218 17.1777992249
49.6723937988 2.9368710518 16.9943962097
49.7164535522 2.9386122227 16.8135623932
49.7716217041 2.9407739639 16.6356601715
49.8362007141 2.9432926178 16.4602718353
49.9061393738 2.9460139275 16.2863540649
49.9760551453 2.9487342834 16.1125144958
50.0399131775 2.9512255192 15.9371728897
50.0920524597 2.9532723427 15.7588281631
50.1293373108 2.9547567368 15.5766353607
50.1531639099 2.9557311535 15.3909339905
50.1691703796 2.9564092159 15.2031888962
50.1846313477 2.9570667744 15.0153160095
50.2058753967 2.9579434395 14.8289937973
50.2372932434 2.9592053890 14.6454019547
50.2815704346 2.9609544277 14.4652786255
50.3396072388 2.9632246494 14.2888870239
50.4095802307 2.9659471512 14.1157655716
50.4865264893 2.9689335823 13.9446029663
50.5636596680 2.9719271660 13.7735824585
50.6348571777 2.9746959209 13.6010503769
50.6965408325 2.9771041870 13.4260272980
50.7480773926 2.9791281223 13.2483243942
50.7908973694 2.9808218479 13.0683088303
50.8272781372 2.9822714329 12.8865871429
50.8598022461 2.9835751057 12.7038526535
50.8917274475 2.9848561287 12.5209903717
50.9271316528 2.9862687588 12.3391170502
50.9694404602 2.9879431725 12.1591854095
51.0193557739 2.9899053574 11.9813985825
51.0746383667 2.9920709133 11.8051528931
51.1323356628 2.9943280220 11.6296424866
51.1909065247 2.9966180325 11.4544410706
51.2500228882 2.9989290237 11.2794618607
51.3090858459 3.0012376308 11.1045351028
51.3662948608 3.0034761429 10.9291610718
51.4190406799 3.0055456161 10.7526035309
51.4648094177 3.0073506832 10.5741472244
51.5019340515 3.0088281631 10.3933115005
51.5300559998 3.0099649429 10.2099771500
51.5502662659 3.0108020306 10.0244359970
51.5649948120 3.0114312172 9.8373622894
51.5777664185 3.0119867325 9.6497478485
51.5929603577 3.0126335621 9.4628324509
51.6154479980 3.0135569572 9.2780122757
51.6500091553 3.0149374008 9.0966663361
51.7003669739 3.0169160366 8.9198865891
51.7680053711 3.0195493698 8.7481260300
51.8508872986 3.0227599144 8.5808343887
51.9428062439 3.0263125896 8.4162483215
52.0343666077 3.0298516750 8.2516689301
52.1155700684 3.0329985619 8.0842008591
52.1786956787 3.0354607105 7.9115815163
52.2199859619 3.0370960236 7.7326836586
52.2398262024 3.0379185677 7.5475778580
52.2417411804 3.0380625725 7.3572564125
52.2310256958 3.0377283096 7.1632318497
52.2135543823 3.0371379852 6.9672069550
52.1949844360 3.0365061760 6.7708315849
52.1799125671 3.0360066891 6.5754585266
52.1711616516 3.0357468128 6.3819284439
52.1697540283 3.0357649326 6.1905565262
52.1756782532 3.0360605717 6.0013513565
52.1885604858 3.0366199017 5.8142175674
52.2074737549 3.0374076366 5.6288914680
52.2299118042 3.0383286476 5.4446368217
52.2512550354 3.0392084122 5.2600779533
52.2660217285 3.0398390293 5.0735697746
52.2705459595 3.0400817394 4.8839983940
52.2648391724 3.0399370193 4.6913466454
52.2522048950 3.0395300388 4.4965934753
52.2379112244 3.0390601158 4.3013167381
52.2288131714 3.0387871265 4.1075921059
52.2333984375 3.0390322208 3.9180040359
52.2602157593 3.0401191711 3.7351808548
52.3147010803 3.0422537327 3.5608191490
52.3963928223 3.0454187393 3.3948338032
52.4983634949 3.0493512154 3.2351527214
52.6094055176 3.0536274910 3.0783789158
52.7185363770 3.0578312874 2.9211521149
52.8188400269 3.0617005825 2.7613391876
52.9077835083 3.0651397705 2.5981435776
52.9850273132 3.0681359768 2.4314353466
53.0511703491 3.0707116127 2.2613799572
53.1081924438 3.0729422569 2.0885720253
53.1592102051 3.0749452114 1.9139617682
53.2068977356 3.0768220425 1.7383730412
53.2526283264 3.0786249638 1.5622284412
53.2971649170 3.0803825855 1.3857622147
53.3413543701 3.0821268559 1.2092378139
53.3857688904 3.0838797092 1.0328364372
53.4302787781 3.0856361389 0.8565155864
53.4744453430 3.0873796940 0.6801378131
53.5182266235 3.0891087055 0.5036885142
53.5620422363 3.0908386707 0.3273003399
53.6061668396 3.0925805569 0.1510604918
20.2772846222 40.6613883972 79.2306289673
20.3053550720 40.7154617310 79.0379409790
20.3556957245 40.8118782043 78.8473739624
20.4174766541 40.9300460815 78.6579895020
20.4802093506 41.0500183105 78.4688491821
20.5354480743 41.1557464600 78.2791442871
20.5774269104 41.2362594604 78.0882949829
20.6035022736 41.2865371704 77.8959960938
20.6140804291 41.3073501587 77.7022171021
20.6118412018 41.3037948608 77.5071640015
20.6007595062 41.2834205627 77.3112106323
20.5853042603 41.2547378540 77.1147613525
20.5699710846 41.2262878418 76.9182891846
20.5588607788 41.2058601379 76.7222137451
20.5551929474 41.1995887756 76.5269088745
20.5608711243 41.2110862732 76.3325958252
20.5762310028 41.2409858704 76.1393585205
20.6001319885 41.2871284485 75.9470977783
20.6305007935 41.3455657959 75.7556228638
20.6650295258 41.4119148254 75.5646896362
20.7012825012 41.4815406799 75.3740463257
20.7362270355 41.5486793518 75.1833343506
20.7662639618 41.6064834595 74.9921264648
20.7883682251 41.6492080688 74.8000564575
20.8011856079 41.6742782593 74.6069259644
20.8047351837 41.6817283630 74.4126968384
20.7994918823 41.6724548340 74.2173995972
20.7867527008 41.6489334106 74.0211563110
20.7700271606 41.6178321838 73.8243789673
20.7548961639 41.5897674561 73.6277465820
20.7463092804 41.5741424561 73.4319152832
20.7456035614 41.5734977722 73.2370681763
20.7501220703 41.5827865601 73.0428924561
20.7552776337 41.5932922363 72.8488159180
20.7568130493 41.5969085693 72.6542587280
20.7517700195 41.5880203247 72.4588241577
20.7386131287 41.5637054443 72.2622680664
20.7174129486 41.5241012573 72.0645828247
20.6901779175 41.4730224609 71.8660049438
20.6606521606 41.4175872803 71.6670303345
20.6331501007 41.3660011292 71.4682617188
20.6110534668 41.3246917725 71.2701797485
20.5960311890 41.2968330383 71.0730514526
20.5882072449 41.2826614380 70.8769226074
20.5866794586 41.2804565430 70.6816787720
20.5899295807 41.2873344421 70.4871292114
20.5960483551 41.2996673584 70.2930145264
20.6028308868 41.3132629395 70.0989990234
20.6077117920 41.3232421875 69.9047164917
20.6077270508 41.3239707947 69.7097015381
20.6001205444 41.3102111816 69.5135116577
20.5836162567 41.2795333862 69.3159255981
20.5592765808 41.2339630127 69.1170730591
20.5299739838 41.1789550781 68.9173736572
20.4991397858 41.1210365295 68.7173461914
20.4702491760 41.0668144226 68.5175476074
20.4470329285 41.0233802795 68.3185806274
20.4328422546 40.9971046448 68.1210174561
20.4285354614 40.9896163940 67.9250335693
20.4307098389 40.9944496155 67.7300949097
20.4325351715 40.9986228943 67.5351028442
20.4271240234 40.9890403748 67.3388977051
20.4111213684 40.9593162537 67.1408920288
20.3863582611 40.9129447937 66.9413452148
20.3586502075 40.8609733582 66.7412261963
20.3347206116 40.8161811829 66.5416870117
20.3198223114 40.7885589600 66.3436508179
20.3172817230 40.7844314575 66.1477355957
20.3284263611 40.8063201904 65.9542236328
20.3515281677 40.8509407043 65.7628555298
20.3811912537 40.9080352783 65.5727157593
20.4102478027 40.9639701843 65.3825454712
20.4331836700 41.0082740784 65.1913299561
20.4478664398 41.0368881226 64.9986648560
20.4545574188 41.0503120422 64.8045501709
20.4541244507 41.0501861572 64.6091384888
20.4471931458 41.0377120972 64.4125061035
20.4344043732 41.0141029358 64.2147445679
20.4171733856 40.9820480347 64.0161056519
20.3982944489 40.9468612671 63.8171081543
20.3815822601 40.9157943726 63.6184730530
20.3703289032 40.8951034546 63.4208412170
20.3657264709 40.8870544434 63.2244682312
20.3665390015 40.8893051147 63.0291404724
20.3698844910 40.8963623047 62.8343086243
20.3720035553 40.9010963440 62.6392364502
20.3688869476 40.8958740234 62.4431228638
20.3573112488 40.8745689392 62.2452964783
20.3360614777 40.8348770142 62.0454788208
20.3063907623 40.7791786194 61.8438911438
20.2715702057 40.7136878967 61.6411705017
20.2360630035 40.6468925476 61.4382095337
20.2047119141 40.5880012512 61.2360153198
20.1818141937 40.5451774597 61.0354995728
20.1697540283 40.5229530334 60.8371963501
20.1674957275 40.5193634033 60.6409225464
20.1704292297 40.5256423950 60.4457435608
20.1724185944 40.5301284790 60.2503623962
20.1686840057 40.5237350464 60.0537567139
20.1574516296 40.5030860901 59.8555107117
20.1398296356 40.4702911377 59.6558418274
20.1186790466 40.4307899475 59.4553527832
20.0972328186 40.3907279968 59.2547378540
20.0781173706 40.3550949097 59.0545806885
20.0629940033 40.3270492554 58.8552551270
20.0526733398 40.3081398010 58.6569633484
20.0472660065 40.2985649109 58.4597511292
20.0460624695 40.2969779968 58.2634658813
20.0473327637 40.3000984192 58.0677413940
20.0485382080 40.3030891418 57.8719978333
20.0470790863 40.3010253906 57.6756401062
20.0411128998 40.2903862000 57.4782295227
20.0299568176 40.2698822021 57.2795906067
20.0143222809 40.2408714294 57.0798683167
19.9964485168 40.2075958252 56.8795738220
19.9797096252 40.1764869690 56.6794967651
19.9675693512 40.1541137695 56.4804687500
