45.0254440308 21.0225982666 68.8744659424
45.0949134827 21.0545215607 68.6914443970
45.2016639709 21.1036109924 68.5127029419
45.3057518005 21.1514759064 68.3337936401
45.3809051514 21.1860160828 68.1517181396
45.4230918884 21.2053775787 67.9659729004
45.4421806335 21.2140998840 67.7776031494
45.4497222900 21.2175045013 67.5879135132
45.4532051086 21.2190437317 67.3977508545
45.4571914673 21.2208118439 67.2076416016
45.4672966003 21.2253990173 67.0182495117
45.4946174622 21.2379131317 66.8308944702
45.5568809509 21.2665176392 66.6477432251
45.6703796387 21.3187160492 66.4708099365
45.8333778381 21.3937072754 66.3000030518
46.0168342590 21.4781208038 66.1318893433
46.1784324646 21.5524692535 65.9613571167
46.2899780273 21.6037673950 65.7848815918
46.3505821228 21.6316089630 65.6022644043
46.3766365051 21.6435394287 65.4154281616
46.3843841553 21.6470413208 65.2263259888
46.3800315857 21.6449699402 65.0357055664
46.3574295044 21.6344947815 64.8427658081
46.3004341125 21.6081848145 64.6454162598
46.1929512024 21.5586223602 64.4415283203
46.0365447998 21.4865322113 64.2312011719
45.8611946106 21.4057197571 64.0182037354
45.7137680054 21.3377647400 63.8085708618
45.6333808899 21.3006801605 63.6074676514
45.6381149292 21.3027935028 63.4174003601
45.7266273499 21.3434867859 63.2383728027
45.8776931763 21.4129829407 63.0677413940
46.0460815430 21.4904575348 62.8996162415
46.1705207825 21.5476951599 62.7258300781
46.1955032349 21.5591316223 62.5388183594
46.0941200256 21.5123806000 62.3347358704
45.8858642578 21.4164142609 62.1159706116
45.6438941956 21.3049201965 61.8922958374
45.4729461670 21.2261333466 61.6780281067
45.4531784058 21.2169647217 61.4843826294
45.5840377808 21.2771568298 61.3115997314
45.7777290344 21.3662834167 61.1477470398
45.9173431396 21.4305095673 60.9765701294
45.9357986450 21.4389400482 60.7885169983
45.8481483459 21.3985118866 60.5854568481
45.7153320313 21.3372840881 60.3758430481
45.5858192444 21.2775764465 60.1665039063
45.4743080139 21.2261600494 59.9595603943
45.3841323853 21.1845684052 59.7555274963
45.3303680420 21.1597423553 59.5566368103
45.3310317993 21.1599807739 59.3655891418
45.3829994202 21.1838474274 59.1820411682
45.4594192505 21.2189712524 59.0021514893
45.5318832397 21.2522735596 58.8217697144
45.5870399475 21.2776069641 58.6389083862
45.6225280762 21.2938823700 58.4531745911
45.6377296448 21.3008155823 58.2644424438
45.6341400146 21.2990951538 58.0728874207
45.6191711426 21.2921352386 57.8795967102
45.6031036377 21.2846698761 57.6861076355
45.5924797058 21.2797107697 57.4934158325
45.5881118774 21.2776317596 57.3016548157
45.5879058838 21.2774715424 57.1105155945
45.5898170471 21.2782840729 56.9196929932
45.5927085876 21.2795486450 56.7290153503
45.5960502625 21.2810211182 56.5383987427
45.5995330811 21.2825565338 56.3477973938
45.6028137207 21.2840023041 56.1571578979
45.6055679321 21.2852020264 55.9664268494
45.6075897217 21.2860679626 55.7755737305
45.6089706421 21.2866363525 55.5846061707
45.6100921631 21.2870864868 55.3935890198
45.6114730835 21.2876548767 55.2026023865
45.6135215759 21.2885322571 55.0117149353
45.6163101196 21.2897491455 54.8209381104
45.6195564270 21.2911777496 54.6302299500
45.6228179932 21.2926139832 54.4395141602
45.6257667542 21.2939033508 54.2487411499
45.6283569336 21.2950286865 54.0578994751
45.6308517456 21.2961101532 53.8670349121
45.6336822510 21.2973480225 53.6762199402
45.6372489929 21.2989234924 53.4855194092
45.6417007446 21.3009052277 53.2949600220
45.6468276978 21.3032016754 53.1045074463
45.6521301270 21.3055763245 52.9140815735
45.6570129395 21.3077583313 52.7235794067
45.6610527039 21.3095512390 52.5329284668
45.6641082764 21.3108901978 52.3421058655
45.6663398743 21.3118515015 52.1511306763
45.6680870056 21.3125896454 51.9600639343
45.6696968079 21.3132648468 51.7689628601
45.6714248657 21.3139934540 51.5778732300
45.6734046936 21.3148365021 51.3868179321
45.6756439209 21.3158035278 51.1958007813
45.6780548096 21.3168449402 51.0048027039
45.6804733276 21.3178920746 50.8138008118
45.6827812195 21.3188877106 50.6227684021
45.6849594116 21.3198242188 50.4317054749
45.6870994568 21.3207435608 50.2406272888
45.6893692017 21.3217220306 50.0495605469
45.6919441223 21.3228397369 49.8585433960
45.6950035095 21.3241825104 49.6676063538
45.6988258362 21.3258762360 49.4767990112
45.7046051025 21.3284702301 49.2863426208
45.7168731689 21.3340530396 49.0970687866
45.7476615906 21.3481655121 48.9112129211
45.8188362122 21.3808746338 48.7328414917
45.9547691345 21.4434051514 48.5665588379
46.1634063721 21.5394172668 48.4139785767
46.4209556580 21.6579551697 48.2708091736
46.6802101135 21.7772789001 48.1283111572
46.8978080750 21.8774166107 47.9783210754
47.0534057617 21.9490051270 47.8169212341
47.1469802856 21.9920291901 47.6439666748
47.1846694946 22.0093193054 47.4605064392
47.1676292419 22.0014057159 47.2666358948
47.0901947021 21.9656810760 47.0611572266
46.9480323792 21.9001464844 46.8431129456
46.7494926453 21.8086490631 46.6139755249
46.5192604065 21.7025585175 46.3784141541
46.2905960083 21.5971870422 46.1428222656
46.0931549072 21.5061969757 45.9129943848
45.9443702698 21.4376125336 45.6924018860
45.8471298218 21.3927669525 45.4817199707
45.7929115295 21.3677291870 45.2793731689
45.7679100037 21.3561496735 45.0827217102
45.7592010498 21.3520717621 44.8892555237
45.7580223083 21.3514633179 44.6972694397
45.7597465515 21.3521900177 44.5058479309
45.7623100281 21.3533020020 44.3145866394
45.7648200989 21.3543930054 44.1233062744
45.7671051025 21.3553771973 43.9319725037
45.7697334290 21.3565216064 43.7406997681
45.7752189636 21.3589782715 43.5499992371
45.7912406921 21.3662910461 43.3614463806
45.8359794617 21.3868274689 43.1787872314
45.9394531250 21.4344120026 43.0082511902
46.1297111511 21.5219593048 42.8557472229
46.4043121338 21.6483516693 42.7209510803
46.7141799927 21.7909851074 42.5938529968
46.9872474670 21.9166717529 42.4595069885
47.1749267578 22.0030326843 42.3076782227
47.2741851807 22.0486774445 42.1375541687
47.3089447021 22.0646171570 41.9539871216
47.2978935242 22.0594615936 41.7607803345
47.2372741699 22.0314788818 41.5570487976
47.1065483093 21.9712104797 41.3383216858
46.8924598694 21.8725509644 41.1016197205
46.6153450012 21.7448673248 40.8511276245
46.3314247131 21.6140518188 40.5987739563
46.1016502380 21.5081672668 40.3576698303
45.9552307129 21.4406719208 40.1342430115
45.8822212219 21.4069824219 39.9265060425
45.8543739319 21.3940906525 39.7284774780
45.8473052979 21.3907680511 39.5349311829
45.8478240967 21.3909397125 39.3430213928
45.8507995605 21.3922443390 39.1516418457
45.8545989990 21.3939247131 38.9604339600
45.8586769104 21.3957366943 38.7692832947
45.8628120422 21.3975734711 38.5781364441
45.8668899536 21.3993854523 38.3869743347
45.8708190918 21.4011268616 38.1957702637
45.8746223450 21.4028110504 38.0045318604
45.8791809082 21.4048442841 37.8134574890
45.8877220154 21.4087085724 37.6232719421
45.9078292847 21.4179019928 37.4357032776
45.9511260986 21.4377746582 37.2533988953
46.0274276733 21.4728469849 37.0786437988
46.1364479065 21.5229873657 36.9114418030
46.2659683228 21.5825653076 36.7490653992
46.3973579407 21.6430072784 36.5872879028
46.5090522766 21.6943778992 36.4211502075
46.5777816772 21.7259635925 36.2452468872
46.5861892700 21.7297687531 36.0554695129
46.5321006775 21.7047920227 35.8511810303
46.4281806946 21.6568660736 35.6352081299
46.2958984375 21.5958805084 35.4124565125
46.1616744995 21.5340003967 35.1890487671
46.0509071350 21.4829216003 34.9709548950
45.9775505066 21.4490718842 34.7615051270
45.9393005371 21.4313888550 34.5602416992
45.9243011475 21.4244136810 34.3644180298
45.9209327698 21.4227962494 34.1713294983
45.9222221375 21.4233207703 33.9793357849
45.9249458313 21.4245090485 33.7876739502
45.9278450012 21.4257774353 33.5960426331
45.9311714172 21.4272422791 33.4045104980
45.9376983643 21.4301795959 33.2137413025
45.9541664124 21.4376983643 33.0253753662
45.9900741577 21.4541664124 32.8417358398
46.0497398376 21.4815769196 32.6639175415
46.1204185486 21.5140590668 32.4888534546
46.1714019775 21.5374736786 32.3090629578
46.1747322083 21.5389385223 32.1176338196
46.1302909851 21.5184040070 31.9144401550
46.0658798218 21.4886741638 31.7062435150
46.0123176575 21.4639396667 31.5006313324
45.9836578369 21.4506740570 31.3011131287
45.9801292419 21.4489803314 31.1077957153
46.0030899048 21.4594879150 30.9210777283
46.0635795593 21.4872779846 30.7437705994
46.1752433777 21.5386371613 30.5793838501
46.3361320496 21.6126632690 30.4275321960
46.5177536011 21.6962394714 30.2811279297
46.6781997681 21.7700634003 30.1296062469
46.7892646790 21.8211441040 29.9657630920
46.8498497009 21.8489799500 29.7892169952
46.8763465881 21.8611145020 29.6040420532
46.8860511780 21.8655166626 29.4145946503
46.8885421753 21.8665962219 29.2232990265
46.8848419189 21.8648262024 29.0304031372
46.8685836792 21.8572711945 28.8342475891
46.8290138245 21.8389797211 28.6320266724
46.7596778870 21.8069820404 28.4220180511
46.6688613892 21.7650909424 28.2063102722
46.5780639648 21.7232074738 27.9904689789
46.5048866272 21.6894416809 27.7790966034
46.4506683350 21.6644039154 27.5725822449
46.4089088440 21.6451034546 27.3692531586
46.3802909851 21.6318569183 27.1693210602
46.3738937378 21.6288433075 26.9752101898
46.3968849182 21.6393661499 26.7888679504
46.4461441040 21.6619853973 26.6095256805
46.5079612732 21.6903858185 26.4335861206
46.5653266907 21.7167377472 26.2565326691
46.6073265076 21.7360134125 26.0754318237
46.6329841614 21.7477607727 25.8899898529
46.6473922729 21.7543315887 25.7015438080
46.6559753418 21.7582149506 25.5115318298
46.6618347168 21.7608470917 25.3207855225
46.6663665771 21.7628669739 25.1296730042
46.6708297729 21.7648544312 24.9385356903
46.6774978638 21.7678585052 24.7479953766
46.6891174316 21.7731437683 24.5588073730
46.7059402466 21.7808246613 24.3710498810
46.7227134705 21.7884807587 24.1832904816
46.7308044434 21.7921409607 23.9931507111
46.7257537842 21.7897472382 23.7993774414
46.7118644714 21.7832832336 23.6031398773
46.6978454590 21.7767581940 23.4068336487
46.6892509460 21.7727336884 23.2120056152
46.6861000061 21.7712154388 23.0186729431
46.6851348877 21.7707042694 22.8259353638
46.6813812256 21.7689075470 22.6324024200
46.6668586731 21.7621517181 22.4358253479
46.6297111511 21.7449779510 22.2328357697
46.5590515137 21.7123680115 22.0203151703
46.4556884766 21.6646976471 21.7984161377
46.3384895325 21.6106548309 21.5724296570
46.2354545593 21.5631351471 21.3502998352
46.1655616760 21.5308799744 21.1374740601
46.1296272278 21.5142631531 20.9342517853
46.1165542603 21.5081748962 20.7375259399
46.1144828796 21.5071525574 20.5439319611
46.1163673401 21.5079536438 20.3514633179
46.1201324463 21.5096206665 20.1595268250
46.1279792786 21.5131664276 19.9687690735
46.1473274231 21.5220088959 19.7813472748
46.1913337708 21.5422077179 19.6011180878
46.2744255066 21.5804080963 19.4323406219
46.4014434814 21.6388378143 19.2765140533
46.5584526062 21.7110824585 19.1296463013
46.7157630920 21.7834644318 18.9830760956
46.8418579102 21.8414688110 18.8275203705
46.9164657593 21.8757610321 18.6569290161
46.9356727600 21.8845405579 18.4700336456
46.9108924866 21.8730602264 18.2701053619
46.8637313843 21.8512744904 18.0634746552
46.8166847229 21.8295383453 17.8568000793
46.7835464478 21.8142108917 17.6542015076
46.7664184570 21.8062553406 17.4563407898
46.7603912354 21.8034095764 17.2617740631
46.7598114014 21.8030776978 17.0688285828
46.7612991333 21.8036937714 16.8764915466
46.7635154724 21.8046474457 16.6843643188
46.7661590576 21.8057975769 16.4923591614
46.7692260742 21.8071422577 16.3004741669
46.7726898193 21.8086719513 16.1087036133
46.7763977051 21.8103103638 15.9169998169
46.7799491882 21.8118801117 15.7252416611
46.7822723389 21.8128833771 15.5330991745
46.7803497314 21.8119297028 15.3396444321
46.7672386169 21.8058242798 15.1427288055
46.7321281433 21.7895851135 14.9389934540
46.6671905518 21.7596111298 14.7259712219
46.5815963745 21.7201213837 14.5064401627
46.5105018616 21.6873130798 14.2912836075
46.5037727356 21.6841468811 14.0960597992
46.5972747803 21.7271404266 13.9321022034
46.7892074585 21.8154697418 13.7990589142
47.0390701294 21.9304771423 13.6844377518
47.2876510620 22.0448951721 13.5697546005
47.4852180481 22.1358184814 13.4393424988
47.6117973328 22.1940479279 13.2867879868
47.6773414612 22.2241668701 13.1150894165
47.7052917480 22.2369728088 12.9315509796
47.7160148621 22.2418441772 12.7425651550
47.7208709717 22.2440128326 12.5517139435
47.7244033813 22.2455730438 12.3604364395
47.7280769348 22.2471961975 12.1691961288
47.7323036194 22.2490768433 11.9781265259
47.7371406555 22.2512378693 11.7872476578
47.7423171997 22.2535533905 11.5964717865
47.7473716736 22.2558135986 11.4056520462
47.7518463135 22.2578086853 11.2146415710
47.7554969788 22.2594223022 11.0233573914
47.7583885193 22.2606868744 10.8318185806
47.7608642578 22.2617607117 10.6401386261
47.7633972168 22.2628593445 10.4484682083
47.7663497925 22.2641506195 10.2569265366
47.7698287964 22.2656860352 10.0655498505
47.7736358643 22.2673721313 9.8742723465
47.7770767212 22.2688903809 9.6828699112
47.7784461975 22.2694549561 9.4907770157
47.7740707397 22.2673702240 9.2967739105
47.7580947876 22.2599449158 9.0989122391
47.7251243591 22.2446937561 8.8953752518
47.6756095886 22.2218208313 8.6862764359
47.6189460754 22.1956577301 8.4747142792
47.5691032410 22.1726341248 8.2653379440
47.5359458923 22.1572952271 8.0614633560
47.5214500427 22.1505527496 7.8637905121
47.5238494873 22.1515903473 7.6717638969
47.5433082581 22.1604843140 7.4854750633
47.5822868347 22.1783695221 7.3057913780
47.6404800415 22.2051029205 7.1326479912
47.7107696533 22.2374095917 6.9636774063
47.7804832458 22.2694492340 6.7945961952
47.8339614868 22.2940120697 6.6200771332
47.8539047241 22.3031291962 6.4341831207
47.8280982971 22.2911777496 6.2326698303
47.7623214722 22.2608146667 6.0174174309
47.6824264526 22.2239513397 5.7972159386
47.6169815063 22.1937408447 5.5818586349
47.5790061951 22.1761856079 5.3758635521
47.5659866333 22.1701202393 5.1784191132
47.5726928711 22.1731414795 4.9877705574
47.6008682251 22.1860523224 4.8045644760
47.6582832336 22.2124271393 4.6315441132
47.7492713928 22.2542667389 4.4702806473
47.8651542664 22.3075695038 4.3178176880
47.9850273132 22.3627128601 4.1669025421
48.0880355835 22.4100856781 4.0102372169
48.1638107300 22.4449195862 3.8441481590
48.2112426758 22.4666976929 3.6681873798
48.2323684692 22.4763603210 3.4830110073
48.2318305969 22.4760456085 3.2902040482
48.2189254761 22.4700355530 3.0930082798
48.2044448853 22.4632968903 2.8952229023
48.1948585510 22.4588146210 2.6991448402
48.1909255981 22.4569358826 2.5050530434
48.1906814575 22.4567565918 2.3122594357
48.1923027039 22.4574356079 2.1201205254
48.1948585510 22.4585456848 1.9283066988
48.1979446411 22.4598999023 1.7366741896
48.2013282776 22.4613895416 1.5451399088
48.2047958374 22.4629211426 1.3536304235
48.2081909180 22.4644165039 1.1620867252
48.2113838196 22.4658203125 0.9704630971
48.2142982483 22.4670963287 0.7787318826
48.2169342041 22.4682407379 0.5868900418
48.2193412781 22.4692821503 0.3949581981
48.2215957642 22.4702548981 0.2029620260
48.2236900330 22.4711513519 0.0108977482
4.8620390892 47.4560165405 93.1238479614
4.8652520180 47.5157966614 92.9330291748
4.8726258278 47.6219978333 92.7430343628
4.8820080757 47.7505912781 92.5535278320
4.8913364410 47.8785667419 92.3641586304
4.8989925385 47.9878654480 92.1745834351
4.9040012360 48.0676193237 91.9845733643
4.9062070847 48.1161041260 91.7940292358
4.9062089920 48.1399993896 91.6030426025
4.9050016403 48.1504096985 91.4117889404
4.9036607742 48.1593246460 91.2204971313
4.9032258987 48.1783447266 91.0294342041
4.9045624733 48.2171173096 90.8388137817
4.9080696106 48.2800903320 90.6487884521
4.9135475159 48.3650169373 90.4593505859
4.9205083847 48.4664688110 90.2703933716
4.9285631180 48.5801010132 90.0818557739
4.9373598099 48.7019882202 89.8936386108
4.9462094307 48.8244476318 89.7055816650
4.9539461136 48.9344863892 89.5173187256
4.9590225220 49.0148658752 89.3283691406
4.9598045349 49.0473823547 89.1381683350
4.9554762840 49.0229682922 88.9463729858
4.9473285675 48.9560012817 88.7532958984
4.9385995865 48.8825683594 88.5599365234
4.9322080612 48.8351860046 88.3672637939
4.9289784431 48.8230323792 88.1756057739
4.9283194542 48.8395118713 87.9848251343
4.9294953346 48.8764228821 87.7947006226
4.9316463470 48.9241981506 87.6049575806
4.9335560799 48.9692726135 87.4151763916
4.9342150688 49.0004196167 87.2249603271
4.9334559441 49.0157737732 87.0342254639
4.9319477081 49.0227851868 86.8432083130
4.9307894707 49.0336952209 86.6523208618
4.9308204651 49.0578460693 86.4619064331
4.9316267967 49.0906219482 86.2718353271
4.9313678741 49.1115379333 86.0813369751
4.9284114838 49.1024322510 85.8897171021
4.9232401848 49.0686912537 85.6971130371
4.9180750847 49.0350189209 85.5044631958
4.9148073196 49.0224609375 85.3125991821
4.9139804840 49.0370712280 85.1218032837
4.9153838158 49.0764808655 84.9320297241
4.9186682701 49.1368141174 84.7431640625
4.9234614372 49.2139205933 84.5550613403
4.9295711517 49.3056640625 84.3676681519
4.9370822906 49.4129753113 84.1810455322
4.9455881119 49.5313339233 83.9950256348
4.9532713890 49.6405296326 83.8087234497
4.9574351311 49.7105827332 83.6207733154
4.9563307762 49.7220535278 83.4302062988
4.9501981735 49.6776313782 83.2370452881
4.9404487610 49.5930099487 83.0419235229
4.9282555580 49.4812393188 82.8453903198
4.9142370224 49.3492012024 82.6477355957
4.8996095657 49.2104148865 82.4495849609
4.8876833916 49.1016731262 82.2527313232
4.8833951950 49.0778198242 82.0599822998
4.8896074295 49.1706428528 81.8731079102
4.9032626152 49.3461456299 81.6905593872
4.9164171219 49.5160598755 81.5079193115
4.9219212532 49.6009674072 81.3210144043
4.9180140495 49.5813255310 81.1286468506
4.9080648422 49.4945793152 80.9326477051
4.8970260620 49.3957443237 80.7358779907
4.8881878853 49.3213691711 80.5403137207
4.8822722435 49.2794609070 80.3464431763
4.8784532547 49.2608375549 80.1538238525
4.8757367134 49.2544593811 79.9618530273
4.8737053871 49.2556915283 79.7703018188
4.8726601601 49.2678680420 79.5793685913
4.8733630180 49.2994537354 79.3895721436
4.8762025833 49.3547515869 79.2012023926
4.8800373077 49.4210853577 79.0135345459
4.8820714951 49.4674339294 78.8247375488
4.8797397614 49.4653244019 78.6330337524
4.8730430603 49.4147834778 78.4383392334
4.8646392822 49.3453140259 78.2423934937
4.8576588631 49.2916450500 78.0473327637
4.8538365364 49.2730216980 77.8544235229
4.8533368111 49.2912597656 77.6638259888
4.8553166389 49.3369979858 77.4750061035
4.8583617210 49.3945465088 77.2870025635
4.8610534668 49.4481697083 77.0987930298
4.8627057076 49.4902610779 76.9098739624
4.8635396957 49.5232734680 76.7203826904
4.8638854027 49.5508689880 76.5305557251
4.8631224632 49.5661659241 76.3399047852
4.8596668243 49.5516166687 76.1472167969
4.8525028229 49.4959602356 75.9516448975
4.8428282738 49.4124870300 75.7540435791
4.8338751793 49.3370246887 75.5569000244
4.8289647102 49.3063735962 75.3628387451
4.8295259476 49.3363723755 75.1730728149
4.8340916634 49.4107398987 74.9865341187
4.8383874893 49.4821128845 74.7998580933
4.8370399475 49.4909439087 74.6086502075
4.8270626068 49.4041709900 74.4103622437
4.8110752106 49.2508316040 74.2069854736
4.7966704369 49.1150474548 74.0047302246
4.7909350395 49.0753173828 73.8095855713
4.7948522568 49.1424942017 73.6225585938
4.8035140038 49.2622070313 73.4396514893
4.8114128113 49.3734512329 73.2562179565
4.8165326118 49.4539146423 73.0704879761
4.8199343681 49.5153465271 72.8833465576
4.8230257034 49.5733337402 72.6959915161
4.8257584572 49.6273422241 72.5083694458
4.8266801834 49.6612968445 72.3191833496
4.8240070343 49.6554565430 72.1267852783
4.8168225288 49.5996856689 71.9302825928
4.8060250282 49.5039443970 71.7304000854
4.7944922447 49.4000778198 71.5297088623
4.7857375145 49.3269691467 71.3314514160
4.7816677094 49.3057136536 71.1374740601
4.7815165520 49.3278160095 70.9471359253
4.7830076218 49.3680877686 70.7583618164
4.7844161987 49.4074363708 70.5695495605
4.7855482101 49.4437255859 70.3805007935
4.7871503830 49.4852104187 70.1919326782
4.7896289825 49.5363883972 70.0042572021
4.7922539711 49.5891723633 69.8167724609
4.7933897972 49.6254882813 69.6278762817
4.7914881706 49.6282081604 69.4359817505
4.7861652374 49.5931091309 69.2406692505
4.7788310051 49.5357742310 69.0432739258
4.7722787857 49.4870986938 68.8465957642
4.7690353394 49.4750099182 68.6532058716
4.7695617676 49.5045890808 68.4636611938
4.7719554901 49.5548019409 68.2760620117
4.7732377052 49.5927276611 68.0873565674
4.7708573341 49.5901756287 67.8948593140
4.7635903358 49.5336265564 67.6971969604
4.7520899773 49.4303169250 67.4949798584
4.7390060425 49.3095245361 67.2909393311
4.7280650139 49.2124290466 67.0890350342
4.7223815918 49.1734237671 66.8926696777
4.7231435776 49.2056236267 66.7032394409
4.7292304039 49.2966346741 66.5196456909
4.7377271652 49.4142494202 66.3387908936
4.7453303337 49.5219764709 66.1570739746
4.7500085831 49.5973930359 65.9722213745
4.7516551018 49.6393241882 65.7840576172
4.7513537407 49.6597442627 65.5937423706
4.7502107620 49.6708755493 65.4024887085
4.7485136986 49.6758804321 65.2106018066
4.7453393936 49.6645889282 65.0170135498
4.7391490936 49.6200103760 64.8199310303
4.7297811508 49.5403671265 64.6191101074
4.7200770378 49.4570236206 64.4177856445
4.7142524719 49.4165153503 64.2208862305
4.7139725685 49.4371871948 64.0304565430
4.7168016434 49.4921646118 63.8437118530
4.7185974121 49.5357322693 63.6557884216
4.7162866592 49.5339965820 63.4629936218
4.7084274292 49.4710540771 63.2635078430
4.6949062347 49.3456726074 63.0570793152
4.6773152351 49.1754264832 62.8455429077
4.6590871811 48.9981765747 62.6330070496
4.6441931725 48.8577308655 62.4243469238
4.6354560852 48.7851943970 62.2231178284
4.6340985298 48.7940292358 62.0309562683
4.6401038170 48.8840484619 61.8479919434
4.6519575119 49.0385322571 61.6724662781
4.6662230492 49.2195816040 61.5001525879
4.6786551476 49.3803901672 61.3257179260
4.6864037514 49.4895629883 61.1454887390
4.6889305115 49.5411643982 60.9586753845
4.6867628098 49.5410308838 60.7658653259
4.6799483299 49.4896888733 60.5670242310
4.6682710648 49.3847808838 60.3617744446
4.6532287598 49.2428092957 60.1519851685
4.6393332481 49.1134986877 59.9435195923
4.6322355270 49.0590934753 59.7438735962
4.6345701218 49.1085968018 59.5566711426
4.6437368393 49.2333488464 59.3786354065
4.6541547775 49.3718605042 59.2024154663
4.6614813805 49.4763107300 59.0221748352
4.6646986008 49.5354995728 58.8364868164
4.6652135849 49.5649223328 58.6471748352
4.6651535034 49.5880088806 58.4570960999
4.6664452553 49.6259765625 58.2688903809
4.6703038216 49.6922035217 58.0842628479
4.6765398979 49.7845878601 57.9029960632
4.6833209991 49.8829650879 57.7225875854
4.6881976128 49.9603576660 57.5396118164
4.6895279884 49.9987220764 57.3517303467
4.6869382858 49.9939422607 57.1583404541
4.6810932159 49.9533386230 56.9603042603
4.6736559868 49.8952293396 56.7599411011
4.6669120789 49.8447570801 56.5604820251
4.6625432968 49.8204231262 56.3643760681
4.6607961655 49.8249320984 56.1720123291
4.6610298157 49.8512306213 55.9825210571
4.6626014709 49.8922424316 55.7950019836
4.6647539139 49.9396400452 55.6083679199
4.6660070419 49.9771423340 55.4204521179
4.6643829346 49.9829978943 55.2283134460
4.6585931778 49.9430580139 55.0299797058
4.6490101814 49.8614120483 54.8259277344
4.6375050545 49.7586517334 54.6188812256
4.6264672279 49.6610450745 54.4123992920
4.6178431511 49.5899848938 54.2094421387
4.6128039360 49.5583419800 54.0118255615
4.6119871140 49.5731124878 53.8205986023
4.6156120300 49.6366958618 53.6361770630
4.6229500771 49.7410774231 53.4575309753
4.6318564415 49.8626785278 53.2814178467
4.6395072937 49.9704666138 53.1034889221
4.6439647675 50.0431556702 52.9206962585
4.6449341774 50.0775184631 52.7325248718
4.6430921555 50.0809898376 52.5399665833
4.6390142441 50.0599060059 52.3438682556
4.6327991486 50.0153579712 52.1443481445
4.6243758202 49.9465599060 51.9412498474
4.6137380600 49.8534545898 51.7345199585
4.6006426811 49.7333831787 51.5237236023
4.5844502449 49.5793228149 51.3077850342
4.5651593208 49.3912658691 51.0866394043
4.5453953743 49.1980514526 50.8644866943
4.5310792923 49.0646705627 50.6509742737
4.5285496712 49.0606842041 50.4565696716
4.5393834114 49.2033767700 50.2840995789
4.5579495430 49.4309196472 50.1245422363
4.5750370026 49.6422004700 49.9627952576
4.5843639374 49.7682876587 49.7883834839
4.5857377052 49.8070945740 49.6008338928
4.5830106735 49.8008956909 49.4064483643
4.5802736282 49.7946014404 49.2120208740
4.5797195435 49.8122482300 49.0212631226
4.5814800262 49.8552894592 48.8344345093
4.5843434334 49.9104156494 48.6495208740
4.5867319107 49.9603347778 48.4638519287
4.5876288414 49.9938850403 48.2756652832
4.5868372917 50.0089149475 48.0846023560
4.5844378471 50.0063209534 47.8907661438
4.5799574852 49.9809036255 47.6933021545
4.5720500946 49.9179267883 47.4898300171
4.5592856407 49.8017082214 47.2777824402
4.5418224335 49.6340026855 47.0573387146
4.5223789215 49.4446144104 46.8331947327
4.5049629211 49.2774848938 46.6124000549
4.4922761917 49.1622085571 46.3997764587
4.4844446182 49.1001586914 46.1956443787
4.4800238609 49.0754928589 45.9975166321
4.4777436256 49.0742912292 45.8031883240
4.4774346352 49.0946846008 45.6123886108
4.4798936844 49.1454010010 45.4266014099
4.4861001968 49.2371711731 45.2476577759
4.4961972237 49.3715400696 45.0758819580
4.5087771416 49.5330886841 44.9087905884
4.5211167336 49.6919822693 44.7414360046
4.5303959846 49.8173370361 44.5686302185
4.5349278450 49.8906860352 44.3872032166
4.5341858864 49.9062805176 44.1960792542
4.5278677940 49.8608207703 43.9945983887
4.5156359673 49.7506294250 43.7820205688
4.4982972145 49.5845413208 43.5597381592
4.4788393974 49.3952903748 43.3332672119
4.4614300728 49.2284851074 43.1104164124
4.4490828514 49.1171150208 42.8969268799
4.4426136017 49.0700874329 42.6944465637
4.4416141510 49.0829353333 42.5023117065
4.4455032349 49.1492691040 42.3195152283
4.4531106949 49.2562828064 42.1439170837
4.4617047310 49.3740692139 41.9703292847
4.4672555923 49.4585571289 41.7909965515
4.4662799835 49.4716300964 41.5991058350
4.4579253197 49.4039916992 41.3928833008
4.4446587563 49.2826461792 41.1769866943
4.4306921959 49.1536560059 40.9595603943
4.4191980362 49.0517311096 40.7468223572
4.4106955528 48.9825363159 40.5398406982
4.4038095474 48.9310264587 40.3359603882
4.3972964287 48.8836059570 40.1327400208
4.3914265633 48.8432197571 39.9307289124
4.3875665665 48.8248176575 39.7326698303
4.3864774704 48.8367156982 39.5401191711
4.3872823715 48.8693084717 39.3513755798
4.3882846832 48.9040565491 39.1630516052
4.3884859085 48.9300422668 38.9731407166
4.3881325722 48.9499702454 38.7821197510
4.3882646561 48.9752006531 38.5920982361
4.3900532722 49.0185279846 38.4054718018
4.3943295479 49.0890312195 38.2239799500
4.4013924599 49.1899642944 38.0482788086
4.4109892845 49.3185691833 37.8779106140
4.4221696854 49.4644508362 37.7109527588
4.4331159592 49.6077575684 37.5436706543
4.4416952133 49.7251853943 37.3716201782
4.4465565681 49.8020057678 37.1919403076
4.4475145340 49.8361892700 37.0041694641
4.4446558952 49.8286933899 36.8084106445
4.4373464584 49.7726135254 36.6032562256
4.4246087074 49.6572761536 36.3865509033
4.4068245888 49.4868698120 36.1590042114
4.3868703842 49.2928009033 35.9266242981
4.3689045906 49.1204681396 35.6982421875
4.3557362556 49.0005226135 35.4799003601
4.3474922180 48.9343338013 35.2719650269
4.3425617218 48.9043197632 35.0710678101
4.3392391205 48.8918533325 34.8735923767
4.3365406990 48.8862037659 34.6774368286
4.3341937065 48.8843879700 34.4820251465
4.3324255943 48.8888854980 34.2878608704
4.3317933083 48.9057807922 34.0961685181
4.3328771591 48.9413909912 33.9082412720
4.3358221054 48.9972915649 33.7244300842
4.3401918411 49.0687332153 33.5438117981
4.3455376625 49.1508026123 33.3654251099
4.3520398140 49.2454719543 33.1896858215
4.3601479530 49.3576431274 33.0176162720
4.3694314957 49.4826087952 32.8482856750
4.3781795502 49.6017227173 32.6778945923
4.3844575882 49.6938972473 32.5020942688
4.3874354362 49.7500877380 32.3189659119
4.3876204491 49.7758255005 32.1295890808
4.3860979080 49.7829589844 31.9363689423
4.3837852478 49.7814750671 31.7413501740
4.3811912537 49.7769317627 31.5456771851
4.3785338402 49.7716979980 31.3498401642
4.3758883476 49.7665977478 31.1540107727
4.3732647896 49.7617378235 30.9582118988
4.3705558777 49.7559509277 30.7621974945
4.3673520088 49.7447776794 30.5650215149
4.3626389503 49.7171630859 30.3643245697
4.3547186852 49.6546287537 30.1561393738
4.3419923782 49.5397644043 29.9366817474
4.3246407509 49.3745536804 29.7062816620
4.3057737350 49.1928596497 29.4721221924
4.2904596329 49.0498886108 29.2460727692
4.2831735611 48.9943389893 29.0387268066
4.2856698036 49.0452919006 28.8543853760
4.2962555885 49.1843032837 28.6892299652
4.3104510307 49.3625831604 28.5327911377
4.3231253624 49.5242805481 28.3729324341
4.3311181068 49.6350059509 28.2020854950
4.3342390060 49.6927032471 28.0197029114
4.3340663910 49.7145500183 27.8294773102
4.3321313858 49.7172203064 27.6350250244
4.3289580345 49.7064208984 27.4375743866
4.3240494728 49.6767463684 27.2359046936
4.3165187836 49.6185493469 27.0278263092
4.3062047958 49.5300903320 26.8129005432
4.2946467400 49.4281196594 26.5948257446
4.2847151756 49.3438491821 26.3805885315
4.2787199020 49.3024063110 26.1758823395
4.2767286301 49.3045082092 25.9809513092
4.2768592834 49.3296813965 25.7912349701
4.2770423889 49.3554267883 25.6016654968
4.2762923241 49.3710250854 25.4098014832
4.2746400833 49.3768081665 25.2157039642
4.2724657059 49.3769264221 25.0202999115
4.2700743675 49.3746833801 24.8243408203
4.2676534653 49.3721199036 24.6282920837
4.2654085159 49.3714752197 24.4326667786
4.2637257576 49.3769378662 24.2384414673
4.2632665634 49.3956947327 24.0472946167
4.2648415565 49.4365539551 23.8612995148
4.2690796852 49.5063476563 23.6820907593
4.2761707306 49.6071166992 23.5101966858
4.2857866287 49.7353096008 23.3448467255
4.2969098091 49.8798484802 23.1834812164
4.3076009750 50.0196800232 23.0211696625
4.3154377937 50.1284942627 22.8516845703
4.3185925484 50.1864433289 22.6702671051
4.3166570663 50.1891174316 22.4757747650
4.3109159470 50.1504631042 22.2714271545
4.3042297363 50.1015663147 22.0645694733
4.2999215126 50.0784835815 21.8638210297
4.2995963097 50.0986518860 21.6734123230
4.3020086288 50.1485290527 21.4901638031
4.3045082092 50.1993522644 21.3071899414
4.3052721024 50.2313308716 21.1197071075
4.3038082123 50.2391242981 20.9263839722
4.2998900414 50.2202911377 20.7265834808
4.2928209305 50.1672706604 20.5184154510
4.2822899818 50.0766983032 20.3009910583
4.2701878548 49.9690971375 20.0792713165
4.2609004974 49.8920516968 19.8649101257
4.2584314346 49.8889732361 19.6686477661
4.2627878189 49.9599342346 19.4906387329
4.2699799538 50.0616416931 19.3203125000
4.2756381035 50.1467056274 19.1459674835
4.2779593468 50.1955680847 18.9627132416
4.2775459290 50.2147674561 18.7721118927
4.2757024765 50.2184677124 18.5776462555
4.2733378410 50.2165107727 18.3817558289
4.2708215714 50.2129173279 18.1854362488
4.2681450844 50.2075881958 17.9886627197
4.2649197578 50.1963119507 17.7903671265
4.2601823807 50.1686515808 17.5879001617
4.2524518967 50.1085586548 17.3771629333
4.2407445908 50.0053749084 17.1553840637
4.2264094353 49.8737335205 16.9262142181
4.2138586044 49.7614517212 16.7018146515
4.2081942558 49.7237968445 16.4963665009
4.2111530304 49.7795715332 16.3148345947
4.2195615768 49.8943786621 16.1485424042
4.2279171944 50.0085983276 15.9822273254
4.2319674492 50.0761604309 15.8039789200
4.2299056053 50.0775299072 15.6086483002
4.2215485573 50.0107192993 15.3956012726
4.2077612877 49.8851165771 15.1671524048
4.1907072067 49.7241554260 14.9293098450
4.1737112999 49.5638542175 14.6914272308
4.1602659225 49.4420204163 14.4634180069
4.1529498100 49.3865547180 14.2526855469
4.1527886391 49.4085578918 14.0622749329
4.1589436531 49.4989242554 13.8899250031
4.1689376831 49.6308250427 13.7286643982
4.1797509193 49.7715797424 13.5698995590
4.1891121864 49.8965988159 13.4071111679
4.1959152222 49.9939231873 13.2370824814
4.1998505592 50.0602035522 13.0588693619
4.2010660172 50.0970458984 12.8728427887
4.2000055313 50.1092643738 12.6802406311
4.1972413063 50.1030502319 12.4826822281
4.1934418678 50.0856437683 12.2820854187
4.1895217896 50.0669326782 12.0811004639
4.1864881516 50.0578193665 11.8826780319
4.1848149300 50.0634193420 11.6882219315
4.1840457916 50.0787925720 11.4964189529
4.1831755638 50.0930786133 11.3043231964
4.1812782288 50.0962524414 11.1091966629
4.1777105331 50.0813751221 10.9091138840
4.1721200943 50.0446281433 10.7029972076
4.1647148132 49.9882736206 10.4914283752
4.1565060616 49.9232444763 10.2773838043
4.1489124298 49.8648719788 10.0650844574
4.1429376602 49.8240089417 9.8575477600
4.1388058662 49.8030738831 9.6554775238
4.1363625526 49.8003845215 9.4584436417
4.1356301308 49.8161811829 9.2665462494
4.1368007660 49.8525390625 9.0803995132
4.1396675110 49.9072151184 8.8994131088
4.1431884766 49.9689559937 8.7204608917
4.1458005905 50.0208702087 8.5388088226
4.1461901665 50.0487709045 8.3504381180
4.1437268257 50.0458602905 8.1533842087
4.1384282112 50.0123367310 7.9476442337
4.1309428215 49.9552001953 7.7351498604
4.1225652695 49.8884429932 7.5198364258
4.1148157120 49.8284797668 7.3063611984
4.1086711884 49.7858505249 7.0977487564
4.1042022705 49.7613220215 6.8942499161
4.1009011269 49.7493972778 6.6943225861
4.0982069969 49.7440338135 6.4962511063
4.0957655907 49.7414016724 6.2989459038
4.0934090614 49.7396850586 6.1018881798
4.0910663605 49.7381210327 5.9048581123
4.0887117386 49.7364273071 5.7077746391
4.0863494873 49.7346534729 5.5106520653
4.0840592384 49.7336578369 5.3137392998
4.0821251869 49.7365112305 5.1179342270
4.0812511444 49.7508010864 4.9254612923
4.0826339722 49.7894325256 4.7401247025
4.0874977112 49.8655967712 4.5658416748
4.0960779190 49.9818382263 4.4034309387
4.1069583893 50.1228637695 4.2484560013
4.1175928116 50.2612266541 4.0928535461
4.1255273819 50.3704528809 3.9287827015
4.1292252541 50.4339904785 3.7512772083
4.1284146309 50.4489135742 3.5593829155
4.1242051125 50.4271965027 3.3565762043
4.1185860634 50.3902931213 3.1491956711
4.1133050919 50.3570365906 2.9428455830
4.1090893745 50.3352737427 2.7398865223
4.1058120728 50.3236236572 2.5399243832
4.1031079292 50.3181533813 2.3417942524
4.1008133888 50.3171005249 2.1449756622
4.0991225243 50.3225517273 1.9501068592
4.0985145569 50.3396759033 1.7587664127
4.0993614197 50.3724632263 1.5721873045
4.1012248993 50.4162025452 1.3889645338
4.1024508476 50.4530715942 1.2036882639
4.1007728577 50.4586563110 1.0088921785
4.0947175026 50.4171028137 0.7996656299
4.0846219063 50.3320541382 0.5770378709
4.0724310875 50.2244529724 0.3473644555
4.0605897903 50.1206321716 0.1187067628
46.6587066650 14.7490978241 93.7515792847
46.7113265991 14.7653465271 93.5629196167
46.8017158508 14.7933053970 93.3751144409
46.9172325134 14.8290529251 93.1879577637
47.0531234741 14.8711175919 93.0013885498
47.2047004700 14.9180440903 92.8153533936
47.3498153687 14.9629688263 92.6293487549
47.4450111389 14.9924163818 92.4423141479
47.4479331970 14.9932594299 92.2530899048
47.3490066528 14.9625282288 92.0612487793
47.1805496216 14.9102430344 91.8674468994
46.9927558899 14.8519620895 91.6728897095
46.8235626221 14.7994480133 91.4785919189
46.6941337585 14.7592601776 91.2851791382
46.6222381592 14.7369089127 91.0932540894
46.6220436096 14.7367849350 90.9033279419
46.6900329590 14.7577991486 90.7154541016
46.8051261902 14.7934169769 90.5290985107
46.9456672668 14.8369226456 90.3436889648
47.0962295532 14.8835353851 90.1587753296
47.2374954224 14.9272661209 89.9737396240
47.3413696289 14.9594058990 89.7876281738
47.3818435669 14.9718904495 89.5994796753
47.3492927551 14.9617366791 89.4088363647
47.2570800781 14.9330863953 89.2160263062
47.1381263733 14.8961458206 89.0221252441
47.0308341980 14.8628215790 88.8284759521
46.9618148804 14.8413610458 88.6361160278
46.9405136108 14.8346939087 88.4454574585
46.9677658081 14.8430795670 88.2566375732
47.0424919128 14.8661832809 88.0697097778
47.1560096741 14.9013118744 87.8844223022
47.2850570679 14.9412555695 87.6998977661
47.3992424011 14.9765911102 87.5149230957
47.4786491394 15.0011453629 87.3286209106
47.5225486755 15.0146923065 87.1408996582
47.5424766541 15.0208072662 86.9521942139
47.5506210327 15.0232686996 86.7629776001
47.5543441772 15.0243606567 86.5735702515
47.5568580627 15.0250768661 86.3840942383
47.5595588684 15.0258502960 86.1946258545
47.5642051697 15.0272274017 86.0052337646
47.5755615234 15.0306854248 85.8161621094
47.6048202515 15.0396938324 85.6279373169
47.6704406738 15.0599737167 85.4415130615
47.7894248962 15.0967979431 85.2577743530
47.9589004517 15.1492757797 85.0766983032
48.1439781189 15.2065896988 84.8966217041
48.2890968323 15.2515163422 84.7147293091
48.3461303711 15.2691345215 84.5284652710
48.2967948914 15.2537765503 84.3366851807
48.1597061157 15.2112140656 84.1401748657
47.9831390381 15.1564121246 83.9413528442
47.8227539063 15.1066265106 83.7431640625
47.7145996094 15.0730333328 83.5476303101
47.6666145325 15.0580949783 83.3552932739
47.6755180359 15.0607919693 83.1660842896
47.7480659485 15.0832204819 82.9805068970
47.9004631042 15.1304025650 82.7996139526
48.1308708191 15.2017707825 82.6234512329
48.3888816833 15.2816963196 82.4492111206
48.5799140930 15.3408575058 82.2713088989
48.6165237427 15.3521451950 82.0843353271
48.4799079895 15.3097276688 81.8868408203
48.2359123230 15.2340211868 81.6825485229
47.9881324768 15.1571416855 81.4776916504
47.8117713928 15.1024026871 81.2769851685
47.7282791138 15.0764551163 81.0819396973
47.7315101624 15.0773935318 80.8923416138
47.8227920532 15.1056299210 80.7084426880
48.0130996704 15.1645660400 80.5311431885
48.2928962708 15.2512474060 80.3599929810
48.6098823547 15.3494567871 80.1916961670
48.8897972107 15.4361734390 80.0212936401
49.0830917358 15.4960365295 79.8453445435
49.1879539490 15.5284833908 79.6635589600
49.2324867249 15.5422277451 79.4777069092
49.2442436218 15.5458097458 79.2896041870
49.2340850830 15.5425968170 79.0999603271
49.1970825195 15.5310630798 78.9083709717
49.1237373352 15.5082607269 78.7140960693
49.0152435303 15.4745626450 78.5171661377
48.8917427063 15.4362115860 78.3189773560
48.7829589844 15.4024229050 78.1217041016
48.7087440491 15.3793506622 77.9268646240
48.6685028076 15.3668127060 77.7344665527
48.6459236145 15.3597497940 77.5433502197
48.6176300049 15.3509149551 77.3517532349
48.5586509705 15.3325662613 77.1577377319
48.4516754150 15.2993383408 76.9598922729
48.3045234680 15.2536544800 76.7587356567
48.1596221924 15.2086677551 76.5575485229
48.0744171143 15.1821889877 76.3609313965
48.0827560425 15.1847124100 76.1717376709
48.1767845154 15.2138004303 75.9894943237
48.3273620605 15.2604198456 75.8120040894
48.5117759705 15.3175296783 75.6374893188
48.7122688293 15.3796253204 75.4645462036
48.8949890137 15.4362115860 75.2903671265
49.0083122253 15.4712820053 75.1105422974
49.0120086670 15.4723653793 74.9215164185
48.9087371826 15.4402856827 74.7233047485
48.7466201782 15.3899602890 74.5198516846
48.5892143250 15.3410978317 74.3165817261
48.4786605835 15.3067598343 74.1172180176
48.4224472046 15.2892694473 73.9224929810
48.4088516235 15.2849903107 73.7314910889
48.4300384521 15.2914962769 73.5435791016
48.4916725159 15.3105411530 73.3593444824
48.6017646790 15.3446092606 73.1795883179
48.7466468811 15.3894643784 73.0031661987
48.8779563904 15.4301118851 72.8256607056
48.9344482422 15.4475641251 72.6413574219
48.8875846863 15.4329710007 72.4474258423
48.7655601501 15.3950777054 72.2463226318
48.6293296814 15.3527774811 72.0437011719
48.5268592834 15.3209457397 71.8441238403
48.4704589844 15.3033962250 71.6488342285
48.4474945068 15.2962131500 71.4567031860
48.4411468506 15.2941827774 71.2661514282
48.4411163330 15.2941102982 71.0762100220
48.4444274902 15.2950735092 70.8865814209
48.4544372559 15.2981138229 70.6976089478
48.4820899963 15.3066234589 70.5104141235
48.5459175110 15.3263492584 70.3268966675
48.6632766724 15.3626718521 70.1488876343
48.8325309753 15.4150838852 69.9763336182
49.0221748352 15.4738168716 69.8060913086
49.1832656860 15.5236968994 69.6331253052
49.2749214172 15.5520505905 69.4531250000
49.2775688171 15.5528078079 69.2638854980
49.1910629272 15.5259256363 69.0652313232
49.0347595215 15.4774026871 68.8590393066
48.8494453430 15.4198856354 68.6495208740
48.6840667725 15.3685493469 68.4418945313
48.5701179504 15.3331584930 68.2396087646
48.5092544556 15.3142242432 68.0429306030
48.4842491150 15.3064088821 67.8500976563
48.4768333435 15.3040466309 67.6591567993
48.4761314392 15.3037662506 67.4689331055
48.4776840210 15.3041839600 67.2789535522
48.4800224304 15.3048458099 67.0890502930
48.4826583862 15.3056001663 66.8991699219
48.4853744507 15.3063793182 66.7092971802
48.4881439209 15.3071746826 66.5194168091
48.4910430908 15.3080101013 66.3295440674
48.4942092896 15.3089284897 66.1396942139
48.4976997375 15.3099479675 65.9498825073
48.5013656616 15.3110218048 65.7600708008
48.5048637390 15.3120431900 65.5702438354
48.5077819824 15.3128843307 65.3803329468
48.5097694397 15.3134365082 65.1903076172
48.5105552673 15.3136177063 65.0001296997
48.5095252991 15.3132343292 64.8097229004
48.5042572021 15.3115377426 64.6187896729
48.4881820679 15.3064908981 64.4265289307
48.4500885010 15.2946166992 64.2315444946
48.3802452087 15.2728996277 64.0326080322
48.2831993103 15.2427473068 63.8302078247
48.1854362488 15.2123746872 63.6275787354
48.1246795654 15.1934738159 63.4294242859
48.1259918213 15.1938171387 63.2389564514
48.1866188049 15.2125501633 63.0559539795
48.2814254761 15.2418813705 62.8773498535
48.3798179626 15.2723245621 62.6993141174
48.4598655701 15.2970790863 62.5190505981
48.5136108398 15.3136787415 62.3354988098
48.5443038940 15.3231315613 62.1490211487
48.5597991943 15.3278732300 61.9605979919
48.5673332214 15.3301448822 61.7711448669
48.5726013184 15.3317155838 61.5813941956
48.5823516846 15.3346748352 61.3922271729
48.6077423096 15.3424835205 61.2051353455
48.6633720398 15.3596687317 61.0220947266
48.7556343079 15.3882112503 60.8440246582
48.8645362854 15.4219121933 60.6683044434
48.9424324036 15.4460000992 60.4885177612
48.9461059570 15.4470758438 60.2987403870
48.8761405945 15.4253196716 60.0988960266
48.7783927917 15.3949499130 59.8951377869
48.7076416016 15.3729515076 59.6949615479
48.6963310242 15.3693809509 59.5029144287
48.7502136230 15.3860235214 59.3199157715
48.8546562195 15.4183425903 59.1440467834
48.9795379639 15.4569988251 58.9711761475
49.0903701782 15.4912977219 58.7964782715
49.1656684875 15.5145807266 58.6168708801
49.2064285278 15.5271558762 58.4324340820
49.2320594788 15.5350389481 58.2458686829
49.2697105408 15.5466489792 58.0610580444
49.3418273926 15.5689468384 57.8812637329
49.4544296265 15.6037950516 57.7074279785
49.5918540955 15.6463403702 57.5373535156
49.7211112976 15.6863527298 57.3662490845
49.8045997620 15.7121763229 57.1885681152
49.8200340271 15.7168979645 57.0009307861
49.7766990662 15.7033996582 56.8045768738
49.7093086243 15.6824407578 56.6045646667
49.6518898010 15.6645755768 56.4059486389
49.6184463501 15.6541433334 56.2108497620
49.6051559448 15.6499586105 56.0187416077
49.6029205322 15.6492033005 55.8282814026
49.6052780151 15.6498708725 55.6385078430
49.6093254089 15.6510629654 55.4489822388
49.6140823364 15.6524744034 55.2595596313
49.6191101074 15.6539697647 55.0701751709
49.6239891052 15.6554193497 54.8807601929
49.6283073425 15.6566944122 54.6912536621
49.6317901611 15.6577119827 54.5016098022
49.6343078613 15.6584291458 54.3118095398
49.6355705261 15.6587572098 54.1217994690
49.6337509155 15.6581306458 53.9312973022
49.6220932007 15.6544523239 53.7392120361
49.5845870972 15.6427602768 53.5429687500
49.4979972839 15.6158504486 53.3387985229
49.3515548706 15.5703802109 53.1248626709
49.1778106689 15.5164480209 52.9063072205
49.0559120178 15.4785900116 52.6959266663
49.0582695007 15.4792566299 52.5056266785
49.1848335266 15.5184354782 52.3356475830
49.3630714417 15.5736351013 52.1743164063
49.5135726929 15.6202354431 52.0086326599
49.6024932861 15.6477422714 51.8329353333
49.6361351013 15.6581106186 51.6481513977
49.6267051697 15.6551237106 51.4562072754
49.5717773438 15.6380300522 51.2566108704
49.4606781006 15.6035184860 51.0474777222
49.2963485718 15.5525045395 50.8291893005
49.1090431213 15.4943647385 50.6067771912
48.9433784485 15.4429368973 50.3877906799
48.8296051025 15.4075975418 50.1774406433
48.7690963745 15.3887720108 49.9760742188
48.7445106506 15.3810863495 49.7807998657
48.7374687195 15.3788385391 49.5885162354
48.7369651794 15.3786201477 49.3973464966
48.7384262085 15.3790092468 49.2065086365
48.7403259277 15.3795347214 49.0157356262
48.7421989441 15.3800516129 48.8249473572
48.7439727783 15.3805379868 48.6341362000
48.7459259033 15.3810796738 48.4433441162
48.7487220764 15.3818836212 48.2526931763
48.7540740967 15.3834791183 48.0624885559
48.7670249939 15.3874320984 47.8736419678
48.7993431091 15.3973894119 47.6882781982
48.8690757751 15.4189462662 47.5096855164
48.9870834351 15.4554729462 47.3399085999
49.1324310303 15.5004749298 47.1752357483
49.2448921204 15.5352821350 47.0047569275
49.2621917725 15.5405826569 46.8170089722
49.1752738953 15.5135688782 46.6101455688
49.0375289917 15.4707965851 46.3937950134
48.9159011841 15.4330205917 46.1802253723
48.8427505493 15.4102754593 45.9754791260
48.8142242432 15.4013671875 45.7789306641
48.8187179565 15.4026966095 45.5885047913
48.8608436584 15.4156951904 45.4051284790
48.9658660889 15.4481945038 45.2336349487
49.1619911194 15.5089426041 45.0794677734
49.4479103088 15.5975322723 44.9425697327
49.7737312317 15.6984939575 44.8136253357
50.0612182617 15.7875699997 44.6777877808
50.2431335449 15.8439121246 44.5221023560
50.2801628113 15.8553304672 44.3388061523
50.1576309204 15.8172740936 44.1247787476
49.8959465027 15.7360725403 43.8836555481
49.5671463013 15.6340589523 43.6291389465
49.2746238708 15.5432949066 43.3812446594
49.0984382629 15.4886026382 43.1556892395
49.0586738586 15.4762086868 42.9566459656
49.1228523254 15.4960441589 42.7779960632
49.2350997925 15.5307855606 42.6089134216
49.3432731628 15.5642623901 42.4391593933
49.4155044556 15.5865964890 42.2623901367
49.4410781860 15.5944623947 42.0764007568
49.4193611145 15.5876646042 41.8809700012
49.3529739380 15.5670166016 41.6765251160
49.2547225952 15.5364885330 41.4655647278
49.1560173035 15.5058202744 41.2543716431
49.0993270874 15.4881782532 41.0515518188
49.1169281006 15.4935722351 40.8637619019
49.2151145935 15.5239524841 40.6924324036
49.3718719482 15.5724945068 40.5332145691
49.5420532227 15.6252002716 40.3769493103
49.6712303162 15.6651897430 40.2124481201
49.7227630615 15.6811046600 40.0320549011
49.7007904053 15.6742286682 39.8364677429
49.6425170898 15.6560964584 39.6332855225
49.5854797363 15.6383466721 39.4302749634
49.5434341431 15.6252470016 39.2303161621
49.5085258484 15.6143589020 39.0317840576
49.4684448242 15.6018667221 38.8321075439
49.4218139648 15.5873451233 38.6309814453
49.3834075928 15.5753726959 38.4315261841
49.3770713806 15.5733442307 38.2388305664
49.4227752686 15.5874519348 38.0572204590
49.5292396545 15.6204004288 37.8886680603
49.6934814453 15.6712636948 37.7326507568
49.8983154297 15.7347126007 37.5855865479
50.1095199585 15.8001384735 37.4401588440
50.2860679626 15.8548183441 37.2874870300
50.4006423950 15.8902807236 37.1215629578
50.4482078552 15.9049654007 36.9411735535
50.4353027344 15.9009008408 36.7476043701
50.3685913086 15.8801527023 36.5422019958
50.2570800781 15.8455123901 36.3268394470
50.1175956726 15.8021984100 36.1051406860
49.9682884216 15.7558383942 35.8810729980
49.8175201416 15.7090253830 35.6564712524
49.6666679382 15.6621866226 35.4316368103
49.5229530334 15.6175603867 35.2081832886
