-21.923550 43.194733 63.398087 0.000000 0.000000 0.000000 
-21.920732 43.183502 63.205093 0.000000 0.000000 0.000000 
-21.912746 43.161709 63.010670 0.000000 0.000000 0.000000 
-21.898226 43.126560 62.814423 0.000000 0.000000 0.000000 
-21.876572 43.076839 62.616154 0.000000 0.000000 0.000000 
-21.847870 43.012718 62.415863 0.000000 0.000000 0.000000 
-21.813629 42.937275 62.213932 0.000000 0.000000 0.000000 
-21.777582 42.858139 62.011383 0.000000 0.000000 0.000000 
-21.744793 42.785652 61.809628 0.000000 0.000000 0.000000 
-21.719496 42.728477 61.609875 0.000000 0.000000 0.000000 
-21.703943 42.691208 61.412796 0.000000 0.000000 0.000000 
-21.699196 42.676014 61.218735 0.000000 0.000000 0.000000 
-21.706276 42.684990 61.028030 0.000000 0.000000 0.000000 
-21.725943 42.719685 60.840950 0.000000 0.000000 0.000000 
-21.757532 42.778748 60.657360 0.000000 0.000000 0.000000 
-21.798189 42.856346 60.476482 0.000000 0.000000 0.000000 
-21.842934 42.942295 60.296894 0.000000 0.000000 0.000000 
-21.885693 43.024193 60.116837 0.000000 0.000000 0.000000 
-21.921572 43.092030 59.934860 0.000000 0.000000 0.000000 
-21.949047 43.142696 59.750473 0.000000 0.000000 0.000000 
-21.969767 43.179558 59.564140 0.000000 0.000000 0.000000 
-21.985851 43.206947 59.376465 0.000000 0.000000 0.000000 
-21.997761 43.225803 59.187561 0.000000 0.000000 0.000000 
-22.004961 43.235039 58.997253 0.000000 0.000000 0.000000 
-22.007971 43.235703 58.805679 0.000000 0.000000 0.000000 
-22.008802 43.231918 58.613430 0.000000 0.000000 0.000000 
-22.009430 43.227715 58.421104 0.000000 0.000000 0.000000 
-22.010408 43.224228 58.228874 0.000000 0.000000 0.000000 
-22.010824 43.219593 58.036457 0.000000 0.000000 0.000000 
-22.008869 43.210110 57.843288 0.000000 0.000000 0.000000 
-22.002228 43.191048 57.648632 0.000000 0.000000 0.000000 
-21.988756 43.158020 57.451797 0.000000 0.000000 0.000000 
-21.967815 43.109722 57.252556 0.000000 0.000000 0.000000 
-21.941280 43.049988 57.051468 0.000000 0.000000 0.000000 
-21.912960 42.986595 56.849720 0.000000 0.000000 0.000000 
-21.887032 42.928097 56.648636 0.000000 0.000000 0.000000 
-21.867172 42.882000 56.449409 0.000000 0.000000 0.000000 
-21.856424 42.854530 56.253044 0.000000 0.000000 0.000000 
-21.856817 42.849838 56.060242 0.000000 0.000000 0.000000 
-21.868715 42.868668 55.871162 0.000000 0.000000 0.000000 
-21.890562 42.907837 55.685349 0.000000 0.000000 0.000000 
-21.919203 42.960899 55.501812 0.000000 0.000000 0.000000 
-21.950687 43.019779 55.319275 0.000000 0.000000 0.000000 
-21.981358 43.076996 55.136547 0.000000 0.000000 0.000000 
-22.008625 43.127254 54.952755 0.000000 0.000000 0.000000 
-22.030781 43.167065 54.767323 0.000000 0.000000 0.000000 
-22.046478 43.193668 54.579773 0.000000 0.000000 0.000000 
-22.055183 43.205978 54.389896 0.000000 0.000000 0.000000 
-22.058256 43.206764 54.198124 0.000000 0.000000 0.000000 
-22.058622 43.202019 54.005428 0.000000 0.000000 0.000000 
-22.058754 43.196796 53.812634 0.000000 0.000000 0.000000 
-22.059019 43.191841 53.619869 0.000000 0.000000 0.000000 
-22.057804 43.183861 53.426582 0.000000 0.000000 0.000000 
-22.052866 43.168266 53.231987 0.000000 0.000000 0.000000 
-22.042665 43.141907 53.035538 0.000000 0.000000 0.000000 
-22.026878 43.104122 52.837101 0.000000 0.000000 0.000000 
-22.006006 43.055939 52.636822 0.000000 0.000000 0.000000 
-21.980816 42.998917 52.434948 0.000000 0.000000 0.000000 
-21.952518 42.935535 52.231892 0.000000 0.000000 0.000000 
-21.923237 42.870140 52.028389 0.000000 0.000000 0.000000 
-21.895710 42.808331 51.825409 0.000000 0.000000 0.000000 
-21.872375 42.755096 51.623829 0.000000 0.000000 0.000000 
-21.855042 42.714130 51.424316 0.000000 0.000000 0.000000 
-21.845451 42.689003 51.227520 0.000000 0.000000 0.000000 
-21.845652 42.683907 51.034218 0.000000 0.000000 0.000000 
-21.857355 42.702339 50.845070 0.000000 0.000000 0.000000 
-21.880770 42.744724 50.660202 0.000000 0.000000 0.000000 
-21.914019 42.807228 50.478977 0.000000 0.000000 0.000000 
-21.953751 42.883007 50.300217 0.000000 0.000000 0.000000 
-21.996258 42.964458 50.122570 0.000000 0.000000 0.000000 
-22.037533 43.043392 49.944576 0.000000 0.000000 0.000000 
-22.072582 43.109589 49.764374 0.000000 0.000000 0.000000 
-22.096222 43.152454 49.580006 0.000000 0.000000 0.000000 
-22.105673 43.166286 49.390381 0.000000 0.000000 0.000000 
-22.102026 43.153320 49.195847 0.000000 0.000000 0.000000 
-22.088810 43.120777 48.997677 0.000000 0.000000 0.000000 
-22.069569 43.075901 48.797173 0.000000 0.000000 0.000000 
-22.046898 43.024006 48.595295 0.000000 0.000000 0.000000 
-22.022747 42.969082 48.392769 0.000000 0.000000 0.000000 
-21.998405 42.913765 48.190083 0.000000 0.000000 0.000000 
-21.973957 42.858227 47.987270 0.000000 0.000000 0.000000 
-21.948685 42.800999 47.784054 0.000000 0.000000 0.000000 
-21.923056 42.743038 47.580608 0.000000 0.000000 0.000000 
-21.900631 42.691639 47.378319 0.000000 0.000000 0.000000 
-21.887396 42.659039 47.179535 0.000000 0.000000 0.000000 
-21.888741 42.656269 46.986397 0.000000 0.000000 0.000000 
-21.906832 42.687775 46.799831 0.000000 0.000000 0.000000 
-21.940058 42.750252 46.619267 0.000000 0.000000 0.000000 
-21.984005 42.834679 46.443024 0.000000 0.000000 0.000000 
-22.033152 42.929745 46.268959 0.000000 0.000000 0.000000 
-22.082758 43.025757 46.095203 0.000000 0.000000 0.000000 
-22.129864 43.116653 45.920574 0.000000 0.000000 0.000000 
-22.172552 43.198513 45.744289 0.000000 0.000000 0.000000 
-22.208878 43.267353 45.565548 0.000000 0.000000 0.000000 
-22.237322 43.320065 45.383705 0.000000 0.000000 0.000000 
-22.258112 43.357109 45.198822 0.000000 0.000000 0.000000 
-22.273361 43.382816 45.011726 0.000000 0.000000 0.000000 
-22.285683 43.402531 44.823463 0.000000 0.000000 0.000000 
-22.296452 43.419064 44.634583 0.000000 0.000000 0.000000 
-22.304667 43.430378 44.444664 0.000000 0.000000 0.000000 
-22.307142 43.429935 44.252380 0.000000 0.000000 0.000000 
-22.300411 43.410648 44.056271 0.000000 0.000000 0.000000 
-22.283157 43.369816 43.855747 0.000000 0.000000 0.000000 
-22.256891 43.310535 43.651398 0.000000 0.000000 0.000000 
-22.224392 43.238491 43.444340 0.000000 0.000000 0.000000 
-22.188036 43.158546 43.235554 0.000000 0.000000 0.000000 
-22.149792 43.074734 43.025852 0.000000 0.000000 0.000000 
-22.112247 42.992352 42.816315 0.000000 0.000000 0.000000 
-22.078901 42.918560 42.608437 0.000000 0.000000 0.000000 
-22.053301 42.860622 42.403748 0.000000 0.000000 0.000000 
-22.038269 42.824326 42.203484 0.000000 0.000000 0.000000 
-22.035913 42.813976 42.008602 0.000000 0.000000 0.000000 
-22.047544 42.832268 41.819717 0.000000 0.000000 0.000000 
-22.072950 42.878765 41.636799 0.000000 0.000000 0.000000 
-22.109861 42.948818 41.458920 0.000000 0.000000 0.000000 
-22.154335 43.034363 41.284424 0.000000 0.000000 0.000000 
-22.201815 43.126064 41.111351 0.000000 0.000000 0.000000 
-22.248283 43.215702 40.937958 0.000000 0.000000 0.000000 
-22.290926 43.297508 40.763000 0.000000 0.000000 0.000000 
-22.327919 43.367748 40.585663 0.000000 0.000000 0.000000 
-22.357944 43.423717 40.405331 0.000000 0.000000 0.000000 
-22.380243 43.463867 40.221645 0.000000 0.000000 0.000000 
-22.395075 43.488728 40.034687 0.000000 0.000000 0.000000 
-22.403643 43.500759 39.844959 0.000000 0.000000 0.000000 
-22.407196 43.502522 39.652992 0.000000 0.000000 0.000000 
-22.406029 43.494617 39.458897 0.000000 0.000000 0.000000 
-22.399240 43.475197 39.262249 0.000000 0.000000 0.000000 
-22.385393 43.441319 39.062370 0.000000 0.000000 0.000000 
-22.363552 43.391068 38.858814 0.000000 0.000000 0.000000 
-22.333977 43.324970 38.651653 0.000000 0.000000 0.000000 
-22.298412 43.246601 38.441658 0.000000 0.000000 0.000000 
-22.260313 43.163040 38.230381 0.000000 0.000000 0.000000 
-22.224550 43.084259 38.020050 0.000000 0.000000 0.000000 
-22.196020 43.020290 37.812935 0.000000 0.000000 0.000000 
-22.178160 42.978176 37.610649 0.000000 0.000000 0.000000 
-22.173132 42.962349 37.414253 0.000000 0.000000 0.000000 
-22.182930 42.976887 37.224720 0.000000 0.000000 0.000000 
-22.208921 43.024605 37.042755 0.000000 0.000000 0.000000 
-22.249748 43.102715 36.867798 0.000000 0.000000 0.000000 
-22.300337 43.200821 36.697525 0.000000 0.000000 0.000000 
-22.353682 43.304585 36.528679 0.000000 0.000000 0.000000 
-22.403761 43.401657 36.358433 0.000000 0.000000 0.000000 
-22.446938 43.484592 36.185040 0.000000 0.000000 0.000000 
-22.481678 43.550251 36.007748 0.000000 0.000000 0.000000 
-22.508015 43.598686 35.826530 0.000000 0.000000 0.000000 
-22.527464 43.633015 35.642078 0.000000 0.000000 0.000000 
-22.542658 43.658630 35.455624 0.000000 0.000000 0.000000 
-22.556101 43.680653 35.268356 0.000000 0.000000 0.000000 
-22.568548 43.700638 35.080631 0.000000 0.000000 0.000000 
-22.578281 43.715061 34.891609 0.000000 0.000000 0.000000 
-22.581976 43.717113 34.699669 0.000000 0.000000 0.000000 
-22.576601 43.700581 34.503304 0.000000 0.000000 0.000000 
-22.560667 43.662403 34.301750 0.000000 0.000000 0.000000 
-22.534216 43.602680 34.094982 0.000000 0.000000 0.000000 
-22.498617 43.524204 33.883621 0.000000 0.000000 0.000000 
-22.457022 43.433434 33.669186 0.000000 0.000000 0.000000 
-22.414560 43.340889 33.454189 0.000000 0.000000 0.000000 
-22.377134 43.258656 33.241547 0.000000 0.000000 0.000000 
-22.349518 43.196526 33.033653 0.000000 0.000000 0.000000 
-22.334423 43.160057 32.831909 0.000000 0.000000 0.000000 
-22.332659 43.150906 32.636772 0.000000 0.000000 0.000000 
-22.343874 43.168358 32.448124 0.000000 0.000000 0.000000 
-22.367531 43.211308 32.265747 0.000000 0.000000 0.000000 
-22.403074 43.278625 32.089420 0.000000 0.000000 0.000000 
-22.448719 43.366650 31.918293 0.000000 0.000000 0.000000 
-22.500450 43.467152 31.750368 0.000000 0.000000 0.000000 
-22.553062 43.569466 31.583025 0.000000 0.000000 0.000000 
-22.602243 43.664749 31.414068 0.000000 0.000000 0.000000 
-22.645353 43.747589 31.242132 0.000000 0.000000 0.000000 
-22.680756 43.814632 31.066347 0.000000 0.000000 0.000000 
-22.707455 43.863838 30.886169 0.000000 0.000000 0.000000 
-22.725533 43.895374 30.701605 0.000000 0.000000 0.000000 
-22.736250 43.911819 30.513266 0.000000 0.000000 0.000000 
-22.741209 43.916466 30.321953 0.000000 0.000000 0.000000 
-22.741447 43.911427 30.128181 0.000000 0.000000 0.000000 
-22.737425 43.897655 29.932169 0.000000 0.000000 0.000000 
-22.729885 43.876671 29.734287 0.000000 0.000000 0.000000 
-22.720556 43.852016 29.535429 0.000000 0.000000 0.000000 
-22.711763 43.828465 29.336809 0.000000 0.000000 0.000000 
-22.705244 43.809570 29.139347 0.000000 0.000000 0.000000 
-22.701429 43.796219 28.943281 0.000000 0.000000 0.000000 
-22.699732 43.787205 28.748308 0.000000 0.000000 0.000000 
-22.699415 43.781029 28.554052 0.000000 0.000000 0.000000 
-22.700613 43.777954 28.360584 0.000000 0.000000 0.000000 
-22.705133 43.781693 28.168882 0.000000 0.000000 0.000000 
-22.716299 43.799057 27.980742 0.000000 0.000000 0.000000 
-22.737457 43.836914 27.797991 0.000000 0.000000 0.000000 
-22.770241 43.898609 27.621557 0.000000 0.000000 0.000000 
-22.813766 43.982338 27.451012 0.000000 0.000000 0.000000 
-22.864626 44.081108 27.284555 0.000000 0.000000 0.000000 
-22.917250 44.183502 27.119188 0.000000 0.000000 0.000000 
-22.965109 44.276127 26.951361 0.000000 0.000000 0.000000 
-23.002703 44.347702 26.778044 0.000000 0.000000 0.000000 
-23.027206 44.392429 26.597645 0.000000 0.000000 0.000000 
-23.039063 44.411228 26.410351 0.000000 0.000000 0.000000 
-23.041725 44.411163 26.218006 0.000000 0.000000 0.000000 
-23.040417 44.402958 26.023460 0.000000 0.000000 0.000000 
-23.039534 44.395622 25.829128 0.000000 0.000000 0.000000 
-23.039682 44.390404 25.635351 0.000000 0.000000 0.000000 
-23.036959 44.379295 25.439959 0.000000 0.000000 0.000000 
-23.025860 44.351006 25.239864 0.000000 0.000000 0.000000 
-23.003439 44.299488 25.033384 0.000000 0.000000 0.000000 
-22.970972 44.227364 24.821182 0.000000 0.000000 0.000000 
-22.932392 44.142693 24.605429 0.000000 0.000000 0.000000 
-22.892052 44.054413 24.388554 0.000000 0.000000 0.000000 
-22.853703 43.970207 24.172670 0.000000 0.000000 0.000000 
-22.820326 43.896202 23.959478 0.000000 0.000000 0.000000 
-22.794249 43.837170 23.750322 0.000000 0.000000 0.000000 
-22.777578 43.797432 23.546436 0.000000 0.000000 0.000000 
-22.772671 43.781822 23.349207 0.000000 0.000000 0.000000 
-22.781569 43.794540 23.159857 0.000000 0.000000 0.000000 
-22.804224 43.835480 22.978416 0.000000 0.000000 0.000000 
-22.837217 43.897633 22.802980 0.000000 0.000000 0.000000 
-22.874887 43.969379 22.630323 0.000000 0.000000 0.000000 
-22.912086 44.040165 22.457487 0.000000 0.000000 0.000000 
-22.945984 44.104179 22.282827 0.000000 0.000000 0.000000 
-22.975613 44.159439 22.105768 0.000000 0.000000 0.000000 
-23.000290 44.204536 21.925890 0.000000 0.000000 0.000000 
-23.018896 44.237179 21.742517 0.000000 0.000000 0.000000 
-23.030411 44.255276 21.555027 0.000000 0.000000 0.000000 
-23.034445 44.258018 21.363157 0.000000 0.000000 0.000000 
-23.031179 44.245785 21.166986 0.000000 0.000000 0.000000 
-23.021410 44.220200 20.966946 0.000000 0.000000 0.000000 
-23.006693 44.184460 20.763931 0.000000 0.000000 0.000000 
-22.989037 44.142689 20.559114 0.000000 0.000000 0.000000 
-22.970228 44.098553 20.353544 0.000000 0.000000 0.000000 
-22.951649 44.054882 20.148039 0.000000 0.000000 0.000000 
-22.934631 44.014420 19.943396 0.000000 0.000000 0.000000 
-22.920984 43.980865 19.740704 0.000000 0.000000 0.000000 
-22.913206 43.959358 19.541483 0.000000 0.000000 0.000000 
-22.913692 43.954815 19.347198 0.000000 0.000000 0.000000 
-22.923122 43.968624 19.158298 0.000000 0.000000 0.000000 
-22.939922 43.997562 18.973867 0.000000 0.000000 0.000000 
-22.961943 44.037216 18.792637 0.000000 0.000000 0.000000 
-22.988380 44.085938 18.614138 0.000000 0.000000 0.000000 
-23.019226 44.143707 18.438389 0.000000 0.000000 0.000000 
-23.052851 44.207184 18.264408 0.000000 0.000000 0.000000 
-23.085127 44.267899 18.089685 0.000000 0.000000 0.000000 
-23.111551 44.316605 17.911448 0.000000 0.000000 0.000000 
-23.129856 44.348640 17.728273 0.000000 0.000000 0.000000 
-23.140280 44.364498 17.540277 0.000000 0.000000 0.000000 
-23.143856 44.366299 17.348059 0.000000 0.000000 0.000000 
-23.141134 44.355171 17.151932 0.000000 0.000000 0.000000 
-23.132471 44.331848 16.952091 0.000000 0.000000 0.000000 
-23.118832 44.298302 16.749109 0.000000 0.000000 0.000000 
-23.101742 44.257675 16.543917 0.000000 0.000000 0.000000 
-23.082588 44.212803 16.337366 0.000000 0.000000 0.000000 
-23.062128 44.165249 16.129923 0.000000 0.000000 0.000000 
-23.040449 44.115192 15.921638 0.000000 0.000000 0.000000 
-23.017342 44.062199 15.712373 0.000000 0.000000 0.000000 
-22.993198 44.007080 15.502370 0.000000 0.000000 0.000000 
-22.969933 43.953754 15.292834 0.000000 0.000000 0.000000 
-22.950842 43.909004 15.085863 0.000000 0.000000 0.000000 
-22.939428 43.880016 14.883699 0.000000 0.000000 0.000000 
-22.938253 43.872047 14.688011 0.000000 0.000000 0.000000 
-22.948652 43.887844 14.499695 0.000000 0.000000 0.000000 
-22.970772 43.927715 14.318898 0.000000 0.000000 0.000000 
-23.003117 43.988583 14.144709 0.000000 0.000000 0.000000 
-23.041685 44.062233 13.974601 0.000000 0.000000 0.000000 
-23.079836 44.135025 13.804320 0.000000 0.000000 0.000000 
-23.110138 44.191711 13.629065 0.000000 0.000000 0.000000 
-23.128048 44.222939 13.445856 0.000000 0.000000 0.000000 
-23.134493 44.230629 13.255242 0.000000 0.000000 0.000000 
-23.134563 44.225220 13.060483 0.000000 0.000000 0.000000 
-23.133421 44.217323 12.864917 0.000000 0.000000 0.000000 
-23.133394 44.211716 12.670061 0.000000 0.000000 0.000000 
-23.133993 44.207394 12.475596 0.000000 0.000000 0.000000 
-23.133438 44.200703 12.280360 0.000000 0.000000 0.000000 
-23.130201 44.188499 12.083342 0.000000 0.000000 0.000000 
-23.124208 44.170635 11.884480 0.000000 0.000000 0.000000 
-23.117384 44.151066 11.685034 0.000000 0.000000 0.000000 
-23.112936 44.136372 11.487124 0.000000 0.000000 0.000000 
-23.113735 44.132462 11.292669 0.000000 0.000000 0.000000 
-23.120998 44.141823 11.102498 0.000000 0.000000 0.000000 
-23.133801 44.162563 10.916023 0.000000 0.000000 0.000000 
-23.149513 44.189285 10.731515 0.000000 0.000000 0.000000 
-23.165281 44.216122 10.547072 0.000000 0.000000 0.000000 
-23.179884 44.240570 10.361878 0.000000 0.000000 0.000000 
-23.194502 44.265045 10.176721 0.000000 0.000000 0.000000 
-23.211567 44.294552 9.993237 0.000000 0.000000 0.000000 
-23.232738 44.332493 9.812561 0.000000 0.000000 0.000000 
-23.257759 44.378342 9.634536 0.000000 0.000000 0.000000 
-23.284880 44.428513 9.457994 0.000000 0.000000 0.000000 
-23.311811 44.478294 9.281384 0.000000 0.000000 0.000000 
-23.336174 44.522797 9.103086 0.000000 0.000000 0.000000 
-23.355949 44.557877 8.921713 0.000000 0.000000 0.000000 
-23.370350 44.581913 8.736701 0.000000 0.000000 0.000000 
-23.380177 44.596554 8.548580 0.000000 0.000000 0.000000 
-23.387024 44.605072 8.358423 0.000000 0.000000 0.000000 
-24.267406 46.325832 5.864213 0.000000 0.000000 0.000000 
-24.265329 46.316036 5.668892 0.000000 0.000000 0.000000 
-24.257587 46.294601 5.469506 0.000000 0.000000 0.000000 
-24.246853 46.267010 5.267939 0.000000 0.000000 0.000000 
-24.235649 46.238449 5.065989 0.000000 0.000000 0.000000 
-24.224304 46.209602 4.863887 0.000000 0.000000 0.000000 
-24.210678 46.176064 4.660094 0.000000 0.000000 0.000000 
-24.192656 46.133484 4.453074 0.000000 0.000000 0.000000 
-24.171110 46.083664 4.243440 0.000000 0.000000 0.000000 
-24.150181 46.035099 4.034170 0.000000 0.000000 0.000000 
-24.134493 45.997314 3.828626 0.000000 0.000000 0.000000 
-24.126314 45.974968 3.628476 0.000000 0.000000 0.000000 
-24.125273 45.967289 3.433484 0.000000 0.000000 0.000000 
-24.784399 47.239822 1.012631 0.000000 0.000000 0.000000 
-24.791784 47.249496 0.824655 0.000000 0.000000 0.000000 
-24.799894 47.260662 0.637229 0.000000 0.000000 0.000000 
-24.806435 47.268597 0.448626 0.000000 0.000000 0.000000 
-24.810266 47.270966 0.257976 0.000000 0.000000 0.000000 
-24.812399 47.269840 0.066035 0.000000 0.000000 0.000000 
-7.045599 46.897236 88.570847 0.000000 0.000000 0.000000 
-7.048154 46.898151 88.379944 0.000000 0.000000 0.000000 
-7.050487 46.897511 88.188965 0.000000 0.000000 0.000000 
-7.052884 46.897324 87.998001 0.000000 0.000000 0.000000 
-7.054968 46.894951 87.806946 0.000000 0.000000 0.000000 
-7.056185 46.886505 87.615631 0.000000 0.000000 0.000000 
-7.056523 46.871914 87.424057 0.000000 0.000000 0.000000 
-7.056493 46.854748 87.232353 0.000000 0.000000 0.000000 
-7.056436 46.837391 87.040604 0.000000 0.000000 0.000000 
-7.056006 46.817421 86.848717 0.000000 0.000000 0.000000 
-7.054296 46.788498 86.656418 0.000000 0.000000 0.000000 
-7.050379 46.744122 86.463409 0.000000 0.000000 0.000000 
-7.043785 46.681023 86.269516 0.000000 0.000000 0.000000 
-7.034691 46.600430 86.074760 0.000000 0.000000 0.000000 
-7.023823 46.507412 85.879341 0.000000 0.000000 0.000000 
-7.012237 46.409355 85.683556 0.000000 0.000000 0.000000 
-7.001132 46.314651 85.487801 0.000000 0.000000 0.000000 
-6.991746 46.231972 85.292480 0.000000 0.000000 0.000000 
-6.985158 46.168861 85.097961 0.000000 0.000000 0.000000 
-6.981907 46.129089 84.904488 0.000000 0.000000 0.000000 
-6.981782 46.111191 84.712006 0.000000 0.000000 0.000000 
-6.984050 46.110043 84.520325 0.000000 0.000000 0.000000 
-6.987720 46.118702 84.329117 0.000000 0.000000 0.000000 
-6.991648 46.129169 84.138000 0.000000 0.000000 0.000000 
-7.098074 46.823154 83.599411 0.000000 0.000000 0.000000 
-7.105394 46.857414 83.409996 0.000000 0.000000 0.000000 
-7.114874 46.906792 83.221420 0.000000 0.000000 0.000000 
-7.123775 46.952122 83.032677 0.000000 0.000000 0.000000 
-7.130038 46.978981 82.842972 0.000000 0.000000 0.000000 
-7.133290 46.984768 82.652115 0.000000 0.000000 0.000000 
-7.134446 46.975864 82.460434 0.000000 0.000000 0.000000 
-7.134365 46.958298 82.268242 0.000000 0.000000 0.000000 
-7.132896 46.931011 82.075455 0.000000 0.000000 0.000000 
-7.129017 46.886837 81.881638 0.000000 0.000000 0.000000 
-7.121717 46.818695 81.686356 0.000000 0.000000 0.000000 
-7.110816 46.725315 81.489479 0.000000 0.000000 0.000000 
-7.097135 46.612450 81.291306 0.000000 0.000000 0.000000 
-7.082206 46.490826 81.092445 0.000000 0.000000 0.000000 
-7.067910 46.373623 80.893692 0.000000 0.000000 0.000000 
-7.056042 46.273422 80.695839 0.000000 0.000000 0.000000 
-7.047779 46.198467 80.499428 0.000000 0.000000 0.000000 
-7.043555 46.151806 80.304695 0.000000 0.000000 0.000000 
-7.043680 46.135620 80.111839 0.000000 0.000000 0.000000 
-7.048939 46.155411 79.921272 0.000000 0.000000 0.000000 
-7.060048 46.216202 79.733383 0.000000 0.000000 0.000000 
-7.076235 46.312595 79.547905 0.000000 0.000000 0.000000 
-7.094702 46.424980 79.363594 0.000000 0.000000 0.000000 
-7.111998 46.529163 79.178871 0.000000 0.000000 0.000000 
-7.126002 46.610287 78.992706 0.000000 0.000000 0.000000 
-7.136501 46.666840 78.804962 0.000000 0.000000 0.000000 
-7.144256 46.704166 78.615952 0.000000 0.000000 0.000000 
-7.150039 46.727661 78.426025 0.000000 0.000000 0.000000 
-7.154354 46.740864 78.235397 0.000000 0.000000 0.000000 
-7.157450 46.745525 78.044167 0.000000 0.000000 0.000000 
-7.159295 46.741409 77.852310 0.000000 0.000000 0.000000 
-7.159675 46.727024 77.659698 0.000000 0.000000 0.000000 
-7.158512 46.701813 77.466270 0.000000 0.000000 0.000000 
-7.156055 46.667519 77.272133 0.000000 0.000000 0.000000 
-7.152644 46.626526 77.077454 0.000000 0.000000 0.000000 
-7.148333 46.579220 76.882240 0.000000 0.000000 0.000000 
-7.142946 46.524361 76.686394 0.000000 0.000000 0.000000 
-7.136558 46.462463 76.489929 0.000000 0.000000 0.000000 
-7.129711 46.397343 76.293129 0.000000 0.000000 0.000000 
-7.123105 46.333904 76.096367 0.000000 0.000000 0.000000 
-7.117249 46.275726 75.899933 0.000000 0.000000 0.000000 
-7.112494 46.225254 75.704010 0.000000 0.000000 0.000000 
-7.109154 46.184715 75.508797 0.000000 0.000000 0.000000 
-7.107538 46.156265 75.314491 0.000000 0.000000 0.000000 
-7.107968 46.142174 75.121284 0.000000 0.000000 0.000000 
-7.110793 46.144890 74.929413 0.000000 0.000000 0.000000 
-7.116204 46.165756 74.739021 0.000000 0.000000 0.000000 
-7.124003 46.203384 74.550011 0.000000 0.000000 0.000000 
-7.133619 46.253773 74.362099 0.000000 0.000000 0.000000 
-7.144361 46.312061 74.174904 0.000000 0.000000 0.000000 
-7.155674 46.374374 73.988106 0.000000 0.000000 0.000000 
-7.167141 46.437775 73.801468 0.000000 0.000000 0.000000 
-7.178157 46.498016 73.614639 0.000000 0.000000 0.000000 
-7.187781 46.548485 73.427032 0.000000 0.000000 0.000000 
-7.195211 46.583553 73.238144 0.000000 0.000000 0.000000 
-7.200473 46.603397 73.047966 0.000000 0.000000 0.000000 
-7.204385 46.613762 72.856972 0.000000 0.000000 0.000000 
-7.207732 46.620163 72.665627 0.000000 0.000000 0.000000 
-7.210684 46.623787 72.474037 0.000000 0.000000 0.000000 
-7.213060 46.623360 72.282082 0.000000 0.000000 0.000000 
-7.214818 46.618599 72.089722 0.000000 0.000000 0.000000 
-7.216012 46.609867 71.896980 0.000000 0.000000 0.000000 
-7.216438 46.595741 71.703728 0.000000 0.000000 0.000000 
-7.215652 46.573101 71.509659 0.000000 0.000000 0.000000 
-7.213410 46.540230 71.314606 0.000000 0.000000 0.000000 
-7.210037 46.499397 71.118752 0.000000 0.000000 0.000000 
-7.206397 46.456684 70.922668 0.000000 0.000000 0.000000 
-7.203660 46.420315 70.727112 0.000000 0.000000 0.000000 
-7.203107 46.399292 70.532974 0.000000 0.000000 0.000000 
-7.205856 46.401466 70.341019 0.000000 0.000000 0.000000 
-7.212416 46.430428 70.151649 0.000000 0.000000 0.000000 
-7.222431 46.483677 69.964676 0.000000 0.000000 0.000000 
-7.234932 46.554413 69.779465 0.000000 0.000000 0.000000 
-7.248869 46.635242 69.595337 0.000000 0.000000 0.000000 
-7.263390 46.720184 69.411705 0.000000 0.000000 0.000000 
-7.277696 46.803631 69.228020 0.000000 0.000000 0.000000 
-7.290696 46.877903 69.043510 0.000000 0.000000 0.000000 
-7.300920 46.932655 68.857109 0.000000 0.000000 0.000000 
-7.306961 46.958008 68.667786 0.000000 0.000000 0.000000 
-7.308246 46.949917 68.475052 0.000000 0.000000 0.000000 
-7.305462 46.913204 68.279350 0.000000 0.000000 0.000000 
-7.300301 46.859772 68.081863 0.000000 0.000000 0.000000 
-7.294780 46.803799 67.884033 0.000000 0.000000 0.000000 
-7.290570 46.757046 67.687088 0.000000 0.000000 0.000000 
-7.288439 46.724903 67.491615 0.000000 0.000000 0.000000 
-7.287922 46.704109 67.297295 0.000000 0.000000 0.000000 
-7.287596 46.684666 67.103088 0.000000 0.000000 0.000000 
-7.285946 46.655891 66.907845 0.000000 0.000000 0.000000 
-7.282102 46.611679 66.710884 0.000000 0.000000 0.000000 
-7.275991 46.551517 66.512123 0.000000 0.000000 0.000000 
-7.268254 46.479904 66.312027 0.000000 0.000000 0.000000 
-7.260314 46.406857 66.111671 0.000000 0.000000 0.000000 
-7.254226 46.346825 65.912651 0.000000 0.000000 0.000000 
-7.251971 46.313763 65.716545 0.000000 0.000000 0.000000 
-7.254723 46.315937 65.524330 0.000000 0.000000 0.000000 
-7.262704 46.354919 65.336250 0.000000 0.000000 0.000000 
-7.275424 46.427254 65.151985 0.000000 0.000000 0.000000 
-7.291775 46.525162 64.970718 0.000000 0.000000 0.000000 
-7.310094 46.636940 64.791145 0.000000 0.000000 0.000000 
-7.328625 46.750210 64.611877 0.000000 0.000000 0.000000 
-7.346171 46.856564 64.431946 0.000000 0.000000 0.000000 
-7.362283 46.952835 64.250969 0.000000 0.000000 0.000000 
-7.376810 47.037949 64.068794 0.000000 0.000000 0.000000 
-7.389402 47.109447 63.885117 0.000000 0.000000 0.000000 
-7.399487 47.163300 63.699436 0.000000 0.000000 0.000000 
-7.406556 47.195919 63.511288 0.000000 0.000000 0.000000 
-7.410360 47.205544 63.320427 0.000000 0.000000 0.000000 
-7.410897 47.192158 63.126801 0.000000 0.000000 0.000000 
-7.408406 47.157444 62.930573 0.000000 0.000000 0.000000 
-7.403408 47.105064 62.732147 0.000000 0.000000 0.000000 
-7.396622 47.040081 62.532104 0.000000 0.000000 0.000000 
-7.388725 46.967266 62.331013 0.000000 0.000000 0.000000 
-7.380152 46.889675 62.129227 0.000000 0.000000 0.000000 
-7.371116 46.808815 61.926929 0.000000 0.000000 0.000000 
-7.361831 46.726185 61.724300 0.000000 0.000000 0.000000 
-7.352748 46.644978 61.521732 0.000000 0.000000 0.000000 
-7.344679 46.570900 61.319950 0.000000 0.000000 0.000000 
-7.338713 46.511631 61.119934 0.000000 0.000000 0.000000 
-7.335966 46.475044 60.922718 0.000000 0.000000 0.000000 
-7.337281 46.467079 60.729107 0.000000 0.000000 0.000000 
-7.342988 46.490070 60.539444 0.000000 0.000000 0.000000 
-7.352754 46.541679 60.353497 0.000000 0.000000 0.000000 
-7.365562 46.614738 60.170387 0.000000 0.000000 0.000000 
-7.379933 46.698818 59.988796 0.000000 0.000000 0.000000 
-7.394342 46.783176 59.807339 0.000000 0.000000 0.000000 
-7.407577 46.859264 59.624889 0.000000 0.000000 0.000000 
-7.418883 46.921764 59.440731 0.000000 0.000000 0.000000 
-7.427999 46.968815 59.254589 0.000000 0.000000 0.000000 
-7.435114 47.001778 59.066620 0.000000 0.000000 0.000000 
-7.440691 47.023880 58.877224 0.000000 0.000000 0.000000 
-7.445142 47.038059 58.686779 0.000000 0.000000 0.000000 
-7.448597 47.045204 58.495392 0.000000 0.000000 0.000000 
-7.450858 47.043926 58.302856 0.000000 0.000000 0.000000 
-7.451587 47.031849 58.108833 0.000000 0.000000 0.000000 
-7.450607 47.007710 57.913132 0.000000 0.000000 0.000000 
-7.448034 46.972324 57.715839 0.000000 0.000000 0.000000 
-7.444052 46.926998 57.517109 0.000000 0.000000 0.000000 
-7.438599 46.871288 57.316872 0.000000 0.000000 0.000000 
-7.431496 46.803925 57.114922 0.000000 0.000000 0.000000 
-7.422978 46.726578 56.911476 0.000000 0.000000 0.000000 
-7.414023 46.646126 56.707481 0.000000 0.000000 0.000000 
-7.406127 46.573143 56.504436 0.000000 0.000000 0.000000 
-7.400882 46.518856 56.303947 0.000000 0.000000 0.000000 
-7.399669 46.493027 56.107452 0.000000 0.000000 0.000000 
-7.403444 46.502392 55.915970 0.000000 0.000000 0.000000 
-7.412501 46.549049 55.729866 0.000000 0.000000 0.000000 
-7.426265 46.628929 55.548630 0.000000 0.000000 0.000000 
-7.443185 46.731098 55.370731 0.000000 0.000000 0.000000 
-7.460949 46.839241 55.193825 0.000000 0.000000 0.000000 
-7.477225 46.936886 55.015503 0.000000 0.000000 0.000000 
-7.490606 47.014103 54.834286 0.000000 0.000000 0.000000 
-7.500992 47.070175 54.650024 0.000000 0.000000 0.000000 
-7.509068 47.109940 54.463402 0.000000 0.000000 0.000000 
-7.515518 47.138237 54.275105 0.000000 0.000000 0.000000 
-7.520681 47.157440 54.085468 0.000000 0.000000 0.000000 
-7.524607 47.167912 53.894531 0.000000 0.000000 0.000000 
-7.527142 47.168552 53.702114 0.000000 0.000000 0.000000 
-7.527969 47.157135 53.507854 0.000000 0.000000 0.000000 
-7.526779 47.131462 53.311394 0.000000 0.000000 0.000000 
-7.523436 47.090576 53.112564 0.000000 0.000000 0.000000 
-7.518010 47.034977 52.911407 0.000000 0.000000 0.000000 
-7.510784 46.966644 52.708202 0.000000 0.000000 0.000000 
-7.502402 46.890144 52.503635 0.000000 0.000000 0.000000 
-7.493885 46.812672 52.298809 0.000000 0.000000 0.000000 
-7.486271 46.741577 52.094872 0.000000 0.000000 0.000000 
-7.480255 46.681763 51.892605 0.000000 0.000000 0.000000 
-7.476190 46.635731 51.692429 0.000000 0.000000 0.000000 
-7.474255 46.604740 51.494560 0.000000 0.000000 0.000000 
-7.474470 46.588951 51.299061 0.000000 0.000000 0.000000 
-7.476716 46.587509 51.105820 0.000000 0.000000 0.000000 
-7.480859 46.599480 50.914715 0.000000 0.000000 0.000000 
-7.486780 46.624012 50.725636 0.000000 0.000000 0.000000 
-7.494150 46.658791 50.538235 0.000000 0.000000 0.000000 
-7.502285 46.698978 50.351742 0.000000 0.000000 0.000000 
-7.510454 46.739418 50.165333 0.000000 0.000000 0.000000 
-7.518406 46.778328 49.978718 0.000000 0.000000 0.000000 
-7.526433 46.817772 49.792229 0.000000 0.000000 0.000000 
-7.534795 46.859577 49.606167 0.000000 0.000000 0.000000 
-7.543125 46.901169 49.420116 0.000000 0.000000 0.000000 
-7.550472 46.935810 49.232956 0.000000 0.000000 0.000000 
-7.555820 46.956318 49.043472 0.000000 0.000000 0.000000 
-7.558493 46.957909 48.850845 0.000000 0.000000 0.000000 
-7.558261 46.938946 48.654758 0.000000 0.000000 0.000000 
-7.555437 46.901642 48.455551 0.000000 0.000000 0.000000 
-7.551015 46.853039 48.254372 0.000000 0.000000 0.000000 
-7.546439 46.803329 48.052937 0.000000 0.000000 0.000000 
-7.542869 46.760735 47.852638 0.000000 0.000000 0.000000 
-7.540535 46.726883 47.653770 0.000000 0.000000 0.000000 
-7.538755 46.696945 47.455524 0.000000 0.000000 0.000000 
-7.536540 46.663918 47.256699 0.000000 0.000000 0.000000 
-7.533340 46.623920 47.056614 0.000000 0.000000 0.000000 
-7.529552 46.579754 46.855743 0.000000 0.000000 0.000000 
-7.526579 46.541355 46.655811 0.000000 0.000000 0.000000 
-7.526382 46.522598 46.459259 0.000000 0.000000 0.000000 
-7.530695 46.535755 46.268269 0.000000 0.000000 0.000000 
-7.540345 46.586700 46.083942 0.000000 0.000000 0.000000 
-7.555061 46.673508 45.906010 0.000000 0.000000 0.000000 
-7.573668 46.787872 45.733067 0.000000 0.000000 0.000000 
-7.594430 46.917507 45.562981 0.000000 0.000000 0.000000 
-7.615479 47.049187 45.393414 0.000000 0.000000 0.000000 
-7.635213 47.171570 45.222336 0.000000 0.000000 0.000000 
-7.652424 47.276100 45.048195 0.000000 0.000000 0.000000 
-7.666244 47.356625 44.869839 0.000000 0.000000 0.000000 
-7.676213 47.409897 44.686642 0.000000 0.000000 0.000000 
-7.682428 47.436577 44.498665 0.000000 0.000000 0.000000 
-7.685470 47.440784 44.306610 0.000000 0.000000 0.000000 
-7.686171 47.428410 44.111515 0.000000 0.000000 0.000000 
-7.685382 47.405487 43.914455 0.000000 0.000000 0.000000 
-7.683701 47.376232 43.716190 0.000000 0.000000 0.000000 
-7.681194 47.341122 43.516792 0.000000 0.000000 0.000000 
-7.677438 47.297165 43.315701 0.000000 0.000000 0.000000 
-7.672012 47.241364 43.112335 0.000000 0.000000 0.000000 
-7.665012 47.174400 42.906799 0.000000 0.000000 0.000000 
-7.657030 47.100475 42.699863 0.000000 0.000000 0.000000 
-7.648654 47.023754 42.492298 0.000000 0.000000 0.000000 
-7.640247 46.946789 42.284580 0.000000 0.000000 0.000000 
-7.632340 46.873367 42.077423 0.000000 0.000000 0.000000 
-7.626049 46.811386 41.872341 0.000000 0.000000 0.000000 
-7.622819 46.771103 41.671307 0.000000 0.000000 0.000000 
-7.623808 46.760712 41.475937 0.000000 0.000000 0.000000 
-7.629511 46.783733 41.286957 0.000000 0.000000 0.000000 
-7.639700 46.838566 41.104130 0.000000 0.000000 0.000000 
-7.653451 46.918652 40.926243 0.000000 0.000000 0.000000 
-7.669333 47.013863 40.751385 0.000000 0.000000 0.000000 
-7.685882 47.113800 40.577557 0.000000 0.000000 0.000000 
-7.701988 47.210621 40.403240 0.000000 0.000000 0.000000 
-7.716934 47.299217 40.227425 0.000000 0.000000 0.000000 
-7.730200 47.375912 40.049374 0.000000 0.000000 0.000000 
-7.741344 47.437565 39.868446 0.000000 0.000000 0.000000 
-7.749905 47.480900 39.683964 0.000000 0.000000 0.000000 
-7.755360 47.502220 39.495155 0.000000 0.000000 0.000000 
-7.757299 47.498592 39.301399 0.000000 0.000000 0.000000 
-7.755716 47.469975 39.102638 0.000000 0.000000 0.000000 
-7.751098 47.419827 38.899517 0.000000 0.000000 0.000000 
-7.744312 47.354294 38.693230 0.000000 0.000000 0.000000 
-7.736479 47.281326 38.485348 0.000000 0.000000 0.000000 
-7.728786 47.209335 38.277561 0.000000 0.000000 0.000000 
-7.722217 47.145309 38.071293 0.000000 0.000000 0.000000 
-7.717437 47.093979 37.867512 0.000000 0.000000 0.000000 
-7.714805 47.057884 37.666771 0.000000 0.000000 0.000000 
-7.714324 47.037048 37.469097 0.000000 0.000000 0.000000 
-7.715652 47.029045 37.274025 0.000000 0.000000 0.000000 
-7.718350 47.030766 37.080936 0.000000 0.000000 0.000000 
-7.722241 47.040951 36.889587 0.000000 0.000000 0.000000 
-7.727600 47.061565 36.700409 0.000000 0.000000 0.000000 
-7.735045 47.096985 36.514324 0.000000 0.000000 0.000000 
-7.745159 47.151360 36.332233 0.000000 0.000000 0.000000 
-7.758041 47.225388 36.154312 0.000000 0.000000 0.000000 
-7.773004 47.314198 35.979584 0.000000 0.000000 0.000000 
-7.788590 47.407452 35.805893 0.000000 0.000000 0.000000 
-7.802994 47.492310 35.630535 0.000000 0.000000 0.000000 
-7.814801 47.558743 35.451378 0.000000 0.000000 0.000000 
-7.823588 47.603729 35.267735 0.000000 0.000000 0.000000 
-7.829858 47.630844 35.080330 0.000000 0.000000 0.000000 
-7.834436 47.645943 34.890381 0.000000 0.000000 0.000000 
-7.837866 47.652889 34.698696 0.000000 0.000000 0.000000 
-7.840134 47.651581 34.505234 0.000000 0.000000 0.000000 
-7.840688 47.638100 34.309132 0.000000 0.000000 0.000000 
-7.838706 47.606594 34.109104 0.000000 0.000000 0.000000 
-7.833601 47.552898 33.904213 0.000000 0.000000 0.000000 
-7.825597 47.478596 33.694759 0.000000 0.000000 0.000000 
-7.816002 47.392975 33.482731 0.000000 0.000000 0.000000 
-7.806895 47.310814 33.271339 0.000000 0.000000 0.000000 
-7.800303 47.246510 33.063751 0.000000 0.000000 0.000000 
-7.797452 47.208794 32.861927 0.000000 0.000000 0.000000 
-7.798673 47.200012 32.666435 0.000000 0.000000 0.000000 
-7.803828 47.219189 32.477116 0.000000 0.000000 0.000000 
-7.812605 47.264111 32.293526 0.000000 0.000000 0.000000 
-7.824428 47.330688 32.114807 0.000000 0.000000 0.000000 
-7.838324 47.412014 31.939459 0.000000 0.000000 0.000000 
-7.853042 47.499187 31.765514 0.000000 0.000000 0.000000 
-7.867318 47.583233 31.590971 0.000000 0.000000 0.000000 
-7.880193 47.657322 31.414280 0.000000 0.000000 0.000000 
-7.891280 47.718704 31.234804 0.000000 0.000000 0.000000 
-7.900799 47.768948 31.052872 0.000000 0.000000 0.000000 
-7.909179 47.811092 30.869156 0.000000 0.000000 0.000000 
-7.916533 47.845943 30.683821 0.000000 0.000000 0.000000 
-7.922544 47.871250 30.496340 0.000000 0.000000 0.000000 
-7.926771 47.883865 30.305975 0.000000 0.000000 0.000000 
-7.928854 47.881233 30.112110 0.000000 0.000000 0.000000 
-7.928492 47.861206 29.914227 0.000000 0.000000 0.000000 
-7.925527 47.822659 29.712027 0.000000 0.000000 0.000000 
-7.920228 47.767502 29.505919 0.000000 0.000000 0.000000 
-7.913319 47.700886 29.297070 0.000000 0.000000 0.000000 
-7.905602 47.628506 29.086781 0.000000 0.000000 0.000000 
-7.897703 47.554829 28.876087 0.000000 0.000000 0.000000 
-7.890320 47.484806 28.666145 0.000000 0.000000 0.000000 
-7.884438 47.425461 28.458612 0.000000 0.000000 0.000000 
-7.881013 47.383595 28.255112 0.000000 0.000000 0.000000 
-7.880513 47.362537 28.056461 0.000000 0.000000 0.000000 
-7.882959 47.362450 27.862740 0.000000 0.000000 0.000000 
-7.888314 47.383060 27.673925 0.000000 0.000000 0.000000 
-7.896591 47.424477 27.490080 0.000000 0.000000 0.000000 
-7.907591 47.485287 27.310907 0.000000 0.000000 0.000000 
-7.920671 47.560905 27.135349 0.000000 0.000000 0.000000 
-7.934803 47.644020 26.961676 0.000000 0.000000 0.000000 
-7.948827 47.726376 26.787918 0.000000 0.000000 0.000000 
-7.961769 47.801037 26.612398 0.000000 0.000000 0.000000 
-7.973160 47.864662 26.434296 0.000000 0.000000 0.000000 
-7.983128 47.918156 26.253805 0.000000 0.000000 0.000000 
-7.992050 47.964211 26.071566 0.000000 0.000000 0.000000 
-8.000037 48.003605 25.887751 0.000000 0.000000 0.000000 
-8.006772 48.034092 25.701797 0.000000 0.000000 0.000000 
-8.011762 48.052147 25.512827 0.000000 0.000000 0.000000 
-8.014532 48.054390 25.319983 0.000000 0.000000 0.000000 
-8.014612 48.037476 25.122410 0.000000 0.000000 0.000000 
-8.011591 47.998459 24.919344 0.000000 0.000000 0.000000 
-8.005400 47.936855 24.710625 0.000000 0.000000 0.000000 
-7.996684 47.857250 24.497345 0.000000 0.000000 0.000000 
-7.986994 47.770699 24.282225 0.000000 0.000000 0.000000 
-7.978536 47.692917 24.069172 0.000000 0.000000 0.000000 
-7.973300 47.638084 23.861753 0.000000 0.000000 0.000000 
-7.972057 47.611698 23.661392 0.000000 0.000000 0.000000 
-7.974178 47.609283 23.467020 0.000000 0.000000 0.000000 
-7.978497 47.622532 23.276583 0.000000 0.000000 0.000000 
-7.984354 47.646751 23.088926 0.000000 0.000000 0.000000 
-7.991964 47.683464 22.904461 0.000000 0.000000 0.000000 
-8.001935 47.737011 22.724308 0.000000 0.000000 0.000000 
-8.014376 47.808174 22.548704 0.000000 0.000000 0.000000 
-8.028355 47.890308 22.375984 0.000000 0.000000 0.000000 
-8.042242 47.971794 22.203194 0.000000 0.000000 0.000000 
-8.054471 48.041470 22.027464 0.000000 0.000000 0.000000 
-8.063855 48.090866 21.846598 0.000000 0.000000 0.000000 
-8.069519 48.113731 21.658939 0.000000 0.000000 0.000000 
-8.070995 48.106739 21.463577 0.000000 0.000000 0.000000 
-8.068418 48.070831 21.260702 0.000000 0.000000 0.000000 
-8.062448 48.010723 21.051479 0.000000 0.000000 0.000000 
-8.054124 47.933819 20.837795 0.000000 0.000000 0.000000 
-8.044795 47.849735 20.622126 0.000000 0.000000 0.000000 
-8.035831 47.768246 20.407019 0.000000 0.000000 0.000000 
-8.028123 47.695698 20.194143 0.000000 0.000000 0.000000 
-8.021905 47.633774 19.983961 0.000000 0.000000 0.000000 
-8.017083 47.581810 19.776316 0.000000 0.000000 0.000000 
-8.013686 47.540001 19.571280 0.000000 0.000000 0.000000 
-8.012116 47.511227 19.369635 0.000000 0.000000 0.000000 
-8.013052 47.500324 19.172691 0.000000 0.000000 0.000000 
-8.017028 47.511116 18.981503 0.000000 0.000000 0.000000 
-8.024046 47.543629 18.796114 0.000000 0.000000 0.000000 
-8.033607 47.594284 18.615614 0.000000 0.000000 0.000000 
-8.045040 47.658314 18.438759 0.000000 0.000000 0.000000 
-8.057593 47.730343 18.264124 0.000000 0.000000 0.000000 
-8.070078 47.801888 18.089443 0.000000 0.000000 0.000000 
-8.080748 47.860489 17.911346 0.000000 0.000000 0.000000 
-8.088007 47.894745 17.726723 0.000000 0.000000 0.000000 
-8.091413 47.901497 17.534666 0.000000 0.000000 0.000000 
-8.091892 47.887341 17.336918 0.000000 0.000000 0.000000 
-8.090907 47.862724 17.136292 0.000000 0.000000 0.000000 
-8.089499 47.835091 16.934797 0.000000 0.000000 0.000000 
-8.088089 47.807434 16.733252 0.000000 0.000000 0.000000 
-8.086881 47.781223 16.532057 0.000000 0.000000 0.000000 
-8.086098 47.758038 16.331654 0.000000 0.000000 0.000000 
-8.085769 47.738094 16.132103 0.000000 0.000000 0.000000 
-8.085549 47.718933 15.932734 0.000000 0.000000 0.000000 
-8.084982 47.697277 15.732639 0.000000 0.000000 0.000000 
-8.084040 47.672943 15.531762 0.000000 0.000000 0.000000 
-8.083463 47.651218 15.331572 0.000000 0.000000 0.000000 
-8.084536 47.641270 15.134630 0.000000 0.000000 0.000000 
-8.088447 47.651604 14.943342 0.000000 0.000000 0.000000 
-8.095723 47.685986 14.758802 0.000000 0.000000 0.000000 
-8.106058 47.742229 14.580441 0.000000 0.000000 0.000000 
-8.118510 47.813606 14.406406 0.000000 0.000000 0.000000 
-8.131828 47.891178 14.234203 0.000000 0.000000 0.000000 
-8.144709 47.965637 14.061208 0.000000 0.000000 0.000000 
-8.156008 48.028797 13.885095 0.000000 0.000000 0.000000 
-8.165017 48.075596 13.704400 0.000000 0.000000 0.000000 
-8.171659 48.105476 13.518935 0.000000 0.000000 0.000000 
-8.176344 48.121365 13.329503 0.000000 0.000000 0.000000 
-8.179511 48.126404 13.136975 0.000000 0.000000 0.000000 
-8.181291 48.121525 12.941599 0.000000 0.000000 0.000000 
-8.181605 48.106171 12.743194 0.000000 0.000000 0.000000 
-8.180621 48.081520 12.542082 0.000000 0.000000 0.000000 
-8.179067 48.052788 12.339748 0.000000 0.000000 0.000000 
-8.178041 48.027832 12.138461 0.000000 0.000000 0.000000 
-8.178481 48.013359 11.940174 0.000000 0.000000 0.000000 
-8.180837 48.012589 11.745841 0.000000 0.000000 0.000000 
-8.185107 48.025513 11.555489 0.000000 0.000000 0.000000 
-8.190884 48.049206 11.368287 0.000000 0.000000 0.000000 
-8.197192 48.076706 11.182221 0.000000 0.000000 0.000000 
-8.202587 48.097672 10.994265 0.000000 0.000000 0.000000 
-8.313910 48.841343 10.631495 0.000000 0.000000 0.000000 
-8.320034 48.867569 10.445601 0.000000 0.000000 0.000000 
-8.327834 48.905804 10.263291 0.000000 0.000000 0.000000 
-8.335656 48.944187 10.081066 0.000000 0.000000 0.000000 
-8.342013 48.972099 9.895761 0.000000 0.000000 0.000000 
-8.346153 48.984135 9.705744 0.000000 0.000000 0.000000 
-8.348372 48.982426 9.511621 0.000000 0.000000 0.000000 
-8.349741 48.974632 9.315663 0.000000 0.000000 0.000000 
-8.351297 48.968182 9.120088 0.000000 0.000000 0.000000 
-8.353468 48.966125 8.925817 0.000000 0.000000 0.000000 
-8.356151 48.967728 8.732637 0.000000 0.000000 0.000000 
-8.359095 48.971210 8.540019 0.000000 0.000000 0.000000 
-8.362148 48.975464 8.347630 0.000000 0.000000 0.000000 
-8.365266 48.980183 8.155376 0.000000 0.000000 0.000000 
-8.368448 48.985371 7.963262 0.000000 0.000000 0.000000 
-8.371698 48.991035 7.771290 0.000000 0.000000 0.000000 
-8.638580 50.674637 5.779798 0.000000 0.000000 0.000000 
-8.640356 50.669830 5.585540 0.000000 0.000000 0.000000 
-8.640903 50.656212 5.388495 0.000000 0.000000 0.000000 
-8.640691 50.637154 5.189707 0.000000 0.000000 0.000000 
-8.640171 50.615883 4.990186 0.000000 0.000000 0.000000 
-8.639534 50.593765 4.790361 0.000000 0.000000 0.000000 
-8.638671 50.570026 4.589982 0.000000 0.000000 0.000000 
-8.637527 50.544273 4.388923 0.000000 0.000000 0.000000 
-8.636499 50.519344 4.188084 0.000000 0.000000 0.000000 
-8.636351 50.500721 3.989214 0.000000 0.000000 0.000000 
-8.637763 50.493279 3.793886 0.000000 0.000000 0.000000 
-8.787149 51.284168 0.966330 0.000000 0.000000 0.000000 
-8.792506 51.305069 0.780632 0.000000 0.000000 0.000000 
-8.798716 51.332092 0.596979 0.000000 0.000000 0.000000 
-8.804063 51.352932 0.411300 0.000000 0.000000 0.000000 
-8.807344 51.358944 0.220704 0.000000 0.000000 0.000000 
-8.808566 51.350163 0.025176 0.000000 0.000000 0.000000 
7.709111 46.320381 88.362991 0.000000 0.000000 0.000000 
7.707985 46.327934 88.172005 0.000000 0.000000 0.000000 
7.705807 46.329433 87.980789 0.000000 0.000000 0.000000 
7.700909 46.315289 87.788956 0.000000 0.000000 0.000000 
7.692349 46.280087 87.596268 0.000000 0.000000 0.000000 
7.680722 46.227238 87.402817 0.000000 0.000000 0.000000 
7.667722 46.166496 87.208969 0.000000 0.000000 0.000000 
7.654923 46.106922 87.015083 0.000000 0.000000 0.000000 
7.642950 46.052101 86.821312 0.000000 0.000000 0.000000 
7.631509 46.000351 86.627586 0.000000 0.000000 0.000000 
7.619925 45.947784 86.433754 0.000000 0.000000 0.000000 
7.607600 45.890957 86.239655 0.000000 0.000000 0.000000 
7.594229 45.828121 86.045204 0.000000 0.000000 0.000000 
7.579927 45.759941 85.850426 0.000000 0.000000 0.000000 
7.565220 45.689438 85.655441 0.000000 0.000000 0.000000 
7.550756 45.620335 85.460426 0.000000 0.000000 0.000000 
7.536941 45.554974 85.265488 0.000000 0.000000 0.000000 
7.523945 45.494335 85.070679 0.000000 0.000000 0.000000 
7.512187 45.440807 84.876122 0.000000 0.000000 0.000000 
7.502797 45.400913 84.682159 0.000000 0.000000 0.000000 
7.497484 45.384449 84.489288 0.000000 0.000000 0.000000 
7.497763 45.400127 84.298004 0.000000 0.000000 0.000000 
7.504186 45.451126 84.108513 0.000000 0.000000 0.000000 
7.516159 45.534012 83.920723 0.000000 0.000000 0.000000 
7.532247 45.640549 83.734261 0.000000 0.000000 0.000000 
7.550490 45.759460 83.548569 0.000000 0.000000 0.000000 
7.568492 45.876972 83.362938 0.000000 0.000000 0.000000 
7.583674 45.978271 83.176582 0.000000 0.000000 0.000000 
7.594109 46.052284 82.988846 0.000000 0.000000 0.000000 
7.599448 46.097008 82.799583 0.000000 0.000000 0.000000 
7.600796 46.118801 82.609085 0.000000 0.000000 0.000000 
7.599396 46.124802 82.417709 0.000000 0.000000 0.000000 
7.595572 46.116882 82.225533 0.000000 0.000000 0.000000 
7.589061 46.093525 82.032448 0.000000 0.000000 0.000000 
7.580011 46.055584 81.838470 0.000000 0.000000 0.000000 
7.569359 46.008442 81.643898 0.000000 0.000000 0.000000 
7.558289 45.958908 81.449104 0.000000 0.000000 0.000000 
7.547466 45.910801 81.254326 0.000000 0.000000 0.000000 
7.536779 45.863476 81.059525 0.000000 0.000000 0.000000 
7.525787 45.814407 80.864540 0.000000 0.000000 0.000000 
7.514359 45.762836 80.669334 0.000000 0.000000 0.000000 
7.502889 45.711033 80.474030 0.000000 0.000000 0.000000 
7.492059 45.662910 80.278893 0.000000 0.000000 0.000000 
7.482630 45.622833 80.084190 0.000000 0.000000 0.000000 
7.475408 45.595436 79.890251 0.000000 0.000000 0.000000 
7.471224 45.585484 79.697403 0.000000 0.000000 0.000000 
7.470696 45.596527 79.505920 0.000000 0.000000 0.000000 
7.473752 45.628139 79.315811 0.000000 0.000000 0.000000 
7.479252 45.673786 79.126678 0.000000 0.000000 0.000000 
7.485266 45.722382 78.937790 0.000000 0.000000 0.000000 
7.489990 45.763565 78.748451 0.000000 0.000000 0.000000 
7.492554 45.792351 78.558289 0.000000 0.000000 0.000000 
7.493032 45.809155 78.367317 0.000000 0.000000 0.000000 
7.526246 46.027901 77.998566 0.000000 0.000000 0.000000 
7.525252 46.036255 77.807144 0.000000 0.000000 0.000000 
7.523345 46.039360 77.615334 0.000000 0.000000 0.000000 
7.519260 46.029976 77.422607 0.000000 0.000000 0.000000 
7.512655 46.006126 77.228798 0.000000 0.000000 0.000000 
7.504141 45.971329 77.034134 0.000000 0.000000 0.000000 
7.494606 45.930676 76.838974 0.000000 0.000000 0.000000 
7.484500 45.886753 76.643501 0.000000 0.000000 0.000000 
7.473550 45.837994 76.447601 0.000000 0.000000 0.000000 
7.461091 45.780582 76.250961 0.000000 0.000000 0.000000 
7.446789 45.712605 76.053413 0.000000 0.000000 0.000000 
7.431105 45.636703 75.855156 0.000000 0.000000 0.000000 
7.415178 45.559422 75.656685 0.000000 0.000000 0.000000 
7.400445 45.488995 75.458641 0.000000 0.000000 0.000000 
7.388297 45.433399 75.261688 0.000000 0.000000 0.000000 
7.379765 45.398544 75.066330 0.000000 0.000000 0.000000 
7.375280 45.386909 74.872795 0.000000 0.000000 0.000000 
7.374675 45.397526 74.681061 0.000000 0.000000 0.000000 
7.377439 45.427464 74.490921 0.000000 0.000000 0.000000 
7.383019 45.473541 74.302155 0.000000 0.000000 0.000000 
7.390884 45.532719 74.114532 0.000000 0.000000 0.000000 
7.400287 45.600708 73.927719 0.000000 0.000000 0.000000 
7.410008 45.670525 73.741142 0.000000 0.000000 0.000000 
7.418543 45.733524 73.554054 0.000000 0.000000 0.000000 
7.424706 45.782925 73.365860 0.000000 0.000000 0.000000 
7.428160 45.816792 73.176369 0.000000 0.000000 0.000000 
7.429376 45.837826 72.985786 0.000000 0.000000 0.000000 
