6.0006437302 40.1319541931 16.7407989502
6.0009102821 40.1205291748 16.5380859375
6.0009799004 40.1079788208 16.3350410461
6.0022158623 40.1020812988 16.1337661743
6.0055480003 40.1081352234 15.9357118607
6.0110864639 40.1267738342 15.7410726547
6.0182299614 40.1545715332 15.5489406586
6.0262608528 40.1874313354 15.3582143784
6.0349721909 40.2241783142 15.1685800552
6.0447773933 40.2671623230 14.9806938171
6.0562343597 40.3195762634 14.7954425812
6.0695080757 40.3823585510 14.6131067276
6.0841617584 40.4530181885 14.4330148697
6.0991859436 40.5257987976 14.2535896301
6.1131825447 40.5927200317 14.0726184845
6.1248722076 40.6464805603 13.8880577087
6.1337428093 40.6841583252 13.6990661621
6.1402254105 40.7082061768 13.5062999725
6.1452450752 40.7239112854 13.3112125397
6.1496710777 40.7362289429 13.1151809692
6.1541109085 40.7486228943 12.9191732407
6.1589808464 40.7634735107 12.7238616943
6.1645555496 40.7823486328 12.5296936035
6.1708574295 40.8053741455 12.3367147446
6.1775760651 40.8307762146 12.1444282532
6.1842446327 40.8558998108 11.9520807266
6.1905670166 40.8790435791 11.7591886520
6.1965537071 40.9002761841 11.5657653809
6.2024102211 40.9207649231 11.3721437454
6.2084145546 40.9420967102 11.1787776947
6.2149453163 40.9664344788 10.9862918854
6.2224760056 40.9964866638 10.7954740524
6.2312936783 41.0338859558 10.6068086624
6.2411031723 41.0769538879 10.4198226929
6.2510395050 41.1207504272 10.2330904007
6.2602615356 41.1604690552 10.0452136993
6.2685794830 41.1950263977 9.8558683395
6.2764873505 41.2272415161 9.6658706665
6.2846107483 41.2606964111 9.4762630463
6.2931065559 41.2962722778 9.2873106003
6.3014998436 41.3312683105 9.0982198715
6.3090691566 41.3615570068 8.9077720642
6.3154134750 41.3848533630 8.7152805328
6.3207283020 41.4022674561 8.5210609436
6.3256616592 41.4175033569 8.3262052536
6.3309969902 41.4350318909 8.1320390701
6.3373217583 41.4582214355 7.9395709038
6.3447322845 41.4876098633 7.7489743233
6.3527154922 41.5202751160 7.5593852997
6.3604311943 41.5514144897 7.3693661690
6.3672256470 41.5772895813 7.1777901649
6.3729572296 41.5970954895 6.9844017029
6.3779563904 41.6127128601 6.7897605896
6.3828454018 41.6277008057 6.5949358940
6.3884139061 41.6465682983 6.4012961388
6.3954920769 41.6740722656 6.2102942467
6.4047231674 41.7138824463 6.0230693817
6.4162716866 41.7669448853 5.8399314880
6.4296193123 41.8302955627 5.6600012779
6.4435901642 41.8972129822 5.4812355042
6.4567060471 41.9592437744 5.3010401726
6.4677953720 42.0096969604 5.1173434258
6.4764671326 42.0463294983 4.9294304848
6.4830732346 42.0711517334 4.7378964424
6.4882760048 42.0879478455 4.5438919067
6.4926438332 42.0999755859 4.3484129906
6.4965176582 42.1091766357 4.1520566940
6.5000829697 42.1166114807 3.9551482201
6.5035104752 42.1232604980 3.7579889297
6.5070710182 42.1306686401 3.5610640049
6.5111732483 42.1411743164 3.3651082516
6.5162353516 42.1571693420 3.1708815098
6.5224032402 42.1794929504 2.9786562920
6.5293464661 42.2062530518 2.7878499031
6.5364165306 42.2337379456 2.5972948074
6.5430636406 42.2588043213 2.4059948921
6.5491442680 42.2806320190 2.2136840820
6.5549235344 42.3007354736 2.0208394527
6.5608992577 42.3219642639 1.8283669949
6.5675601959 42.3471145630 1.6371632814
6.5751399994 42.3775253296 1.4476654530
6.5835080147 42.4124488831 1.2596431971
6.5922980309 42.4497871399 1.0724309683
6.6011199951 42.4873123169 0.8853145242
6.6096887589 42.5233879089 0.6977650523
6.6179924011 42.5579528809 0.5097595453
6.6266384125 42.5944747925 0.3224222362
6.6371078491 42.6414413452 0.1385137588
15.6351499557 33.2036132813 80.7025222778
15.6289482117 33.1872825623 80.5037155151
15.6162490845 33.1587753296 80.3040313721
15.5992383957 33.1221771240 80.1037368774
15.5803184509 33.0820045471 79.9031219482
15.5618171692 33.0426101685 79.7024993896
15.5462856293 33.0087852478 79.5022048950
15.5364513397 32.9856376648 79.3026199341
15.5340757370 32.9764747620 79.1040115356
15.5385875702 32.9802246094 78.9063339233
15.5470104218 32.9913063049 78.7091827393
15.5555334091 33.0025749207 78.5120544434
15.5615034103 33.0090599060 78.3145675659
15.5643644333 33.0097122192 78.1166381836
15.5651950836 33.0065612793 77.9183959961
15.5656385422 33.0026779175 77.7200851440
15.5670728683 33.0006561279 77.5218963623
15.5703067780 33.0020065308 77.3239669800
15.5756263733 33.0072708130 77.1263351440
15.5830259323 33.0164337158 76.9290161133
15.5924634933 33.0294189453 76.7320098877
15.6040725708 33.0464744568 76.5353469849
15.6182346344 33.0683174133 76.3390884399
15.6353988647 33.0957946777 76.1433181763
15.6555871964 33.1289405823 75.9480514526
15.6778669357 33.1660118103 75.7531509399
15.7002820969 33.2033348083 75.5583190918
15.7204074860 33.2363662720 75.3631515503
15.7361669540 33.2612113953 75.1673126221
15.7463006973 33.2755050659 74.9705657959
15.7501955032 33.2780990601 74.7727966309
15.7474451065 33.2682266235 74.5739059448
15.7379751205 33.2457504272 74.3738555908
15.7230472565 33.2130393982 74.1728286743
15.7061777115 33.1766815186 73.9714202881
15.6923046112 33.1459426880 73.7704620361
15.6850137711 33.1275520325 73.5705871582
15.6842260361 33.1213531494 73.3718185425
15.6866874695 33.1212539673 73.1736068726
15.6885480881 33.1200256348 72.9752655029
15.6873703003 33.1130981445 72.7763748169
15.6825504303 33.0993347168 72.5767974854
15.6751327515 33.0806999207 72.3767242432
15.6675472260 33.0617485046 72.1765747070
15.6628532410 33.0482215881 71.9769210815
15.6635389328 33.0447883606 71.7782363892
15.6705799103 33.0532722473 71.5807266235
15.6830892563 33.0720214844 71.3842468262
15.6985569000 33.0963172913 71.1883468628
15.7138338089 33.1202545166 70.9924316406
15.7264814377 33.1392631531 70.7960281372
15.7355251312 33.1515083313 70.5989379883
15.7412233353 33.1574783325 70.4012069702
15.7444076538 33.1587257385 70.2029800415
15.7459545135 33.1569061279 70.0044097900
15.7465610504 33.1533203125 69.8056411743
15.7467002869 33.1488571167 69.6067657471
15.7467050552 33.1441421509 69.4078369141
15.7469577789 33.1398925781 69.2089462280
15.7481460571 33.1373977661 69.0102310181
15.7514009476 33.1387786865 68.8119201660
15.7579545975 33.1463508606 68.6142807007
15.7682733536 33.1609878540 68.4174270630
15.7813854218 33.1808662415 68.2211685181
15.7952938080 33.2022399902 68.0251007080
15.8082008362 33.2217369080 67.8288345337
15.8192996979 33.2378387451 67.6321945190
15.8286218643 33.2506065369 67.4351806641
15.8364915848 33.2606506348 67.2378692627
15.8431949615 33.2685050964 67.0402984619
15.8488330841 33.2743568420 66.8424911499
15.8532857895 33.2779884338 66.6444168091
15.8563814163 33.2790718079 66.4460372925
15.8582696915 33.2778854370 66.2473831177
15.8597116470 33.2758636475 66.0486068726
15.8620414734 33.2755088806 65.8500213623
15.8665704727 33.2792778015 65.6519241333
15.8735580444 33.2876663208 65.4543762207
15.8814249039 33.2977027893 65.2570343018
15.8871917725 33.3037986755 65.0592041016
15.8882160187 33.3009910583 64.8602752686
15.8839149475 33.2881851196 64.6600799561
15.8760528564 33.2686920166 64.4590148926
15.8674516678 33.2478141785 64.2577362061
15.8603601456 33.2297668457 64.0567703247
15.8557615280 33.2164001465 63.8563690186
15.8537044525 33.2078056335 63.6565475464
15.8538875580 33.2034149170 63.4572410583
15.8559789658 33.2026062012 63.2583847046
15.8596982956 33.2048530579 63.0599098206
15.8648300171 33.2097511292 62.8617744446
15.8712244034 33.2170219421 62.6639480591
15.8788204193 33.2265472412 62.4664192200
15.8876380920 33.2383651733 62.2691955566
15.8977088928 33.2525367737 62.0722923279
15.9089698792 33.2689476013 61.8756980896
15.9211339951 33.2870483398 61.6793403625
15.9333877563 33.3053207397 61.4830245972
15.9440116882 33.3205299377 61.2863044739
15.9505891800 33.3281440735 61.0885467529
15.9513616562 33.3248596191 60.8892822266
15.9467287064 33.3114204407 60.6885910034
15.9391679764 33.2924842834 60.4870986938
15.9315757751 33.2734870911 60.2855606079
15.9258470535 33.2579879761 60.0844764709
15.9227771759 33.2474861145 59.8840675354
15.9227561951 33.2427062988 59.6844444275
15.9262666702 33.2445526123 59.4857559204
15.9337301254 33.2538299561 59.2881202698
15.9448137283 33.2699012756 59.0914726257
15.9578990936 33.2897377014 58.8953819275
15.9705095291 33.3086776733 58.6991767883
15.9804334641 33.3225746155 58.5022468567
15.9864978790 33.3292236328 58.3042526245
15.9885177612 33.3282737732 58.1051330566
15.9868364334 33.3203735352 57.9049644470
15.9819879532 33.3065223694 57.7038841248
15.9747056961 33.2881011963 57.5020828247
15.9662380219 33.2674484253 57.2999038696
15.9584503174 33.2480773926 57.0978813171
15.9532451630 33.2335548401 56.8965568542
15.9517402649 33.2259788513 56.6962661743
15.9541883469 33.2258300781 56.4970893860
15.9607353210 33.2333793640 56.2990951538
15.9719953537 33.2497863770 56.1024742126
15.9887351990 33.2764854431 55.9074668884
16.0110893250 33.3137283325 55.7141418457
16.0381698608 33.3598594666 55.5222549438
16.0682392120 33.4115982056 55.3313102722
16.0989341736 33.4645233154 55.1406135559
16.1275463104 33.5135269165 54.9493560791
16.1516323090 33.5540351868 54.7567939758
16.1699676514 33.5837402344 54.5625381470
16.1830596924 33.6035919189 54.3667182922
16.1926631927 33.6168899536 54.1698493958
16.2006626129 33.6271743774 53.9724998474
16.2081489563 33.6364936829 53.7749900818
16.2151088715 33.6448249817 53.5773200989
16.2206306458 33.6504554749 53.3792037964
16.2236900330 33.6514549255 53.1803169250
16.2242774963 33.6478157043 52.9806442261
16.2238826752 33.6423263550 52.7806434631
16.2246131897 33.6389503479 52.5809783936
16.2277030945 33.6400070190 52.3820457458
16.2327861786 33.6448135376 52.1837387085
16.2384700775 33.6507453918 51.9856185913
16.2435874939 33.6556129456 51.7873115540
16.2479152679 33.6589965820 51.5887413025
16.2518081665 33.6615638733 51.3900299072
16.2555675507 33.6638793945 51.1912612915
16.2593135834 33.6661682129 50.9924812317
16.2633152008 33.6689376831 50.7937736511
16.2682361603 33.6734390259 50.5953636169
16.2749309540 33.6812667847 50.3975334167
16.2837371826 33.6930694580 50.2004013062
16.2939090729 33.7074317932 50.0037307739
16.3038635254 33.7213897705 49.8069992065
16.3121070862 33.7321357727 49.6096954346
16.3178672791 33.7382125854 49.4115600586
16.3210754395 33.7394905090 49.2125549316
16.3222122192 33.7368698120 49.0128326416
16.3224220276 33.7325134277 48.8127822876
16.3235855103 33.7299461365 48.6130371094
16.3276634216 33.7328605652 48.4142799377
16.3354949951 33.7428245544 48.2168121338
16.3461780548 33.7581558228 48.0203361511
16.3578319550 33.7753067017 47.8242073059
16.3688659668 33.7912940979 47.6278762817
16.3785877228 33.8048171997 47.4310951233
16.3870811462 33.8160285950 47.2338867188
16.3949203491 33.8260116577 47.0364494324
16.4029808044 33.8364105225 46.8390960693
16.4120941162 33.8487892151 46.6421165466
16.4224834442 33.8635673523 46.4456024170
16.4333934784 33.8793258667 46.2492828369
16.4435024261 33.8935737610 46.0526847839
16.4518547058 33.9045219421 45.8554611206
16.4583415985 33.9119606018 45.6575622559
16.4633483887 33.9166221619 45.4591217041
16.4672451019 33.9191894531 45.2602691650
16.4702987671 33.9201736450 45.0611000061
16.4729518890 33.9204101563 44.8617744446
16.4760684967 33.9215087891 44.6626052856
16.4808864594 33.9258117676 44.4640579224
16.4885444641 33.9354553223 44.2665596008
16.4992389679 33.9508056641 44.0702018738
16.5116825104 33.9694480896 43.8745117188
16.5235824585 33.9870681763 43.6786308289
16.5329055786 33.9998435974 43.4817848206
16.5388317108 34.0062255859 43.2836608887
16.5418643951 34.0071716309 43.0844306946
16.5433712006 34.0052452087 42.8846054077
16.5449943542 34.0035400391 42.6848106384
16.5480823517 34.0045852661 42.4855651855
16.5532989502 34.0096359253 42.2871284485
16.5605430603 34.0184974670 42.0894737244
16.5691604614 34.0299453735 41.8923568726
16.5783061981 34.0423851013 41.6954460144
16.5872745514 34.0544967651 41.4984741211
16.5957069397 34.0655937195 41.3012962341
16.6036396027 34.0757522583 41.1039237976
16.6115264893 34.0858268738 40.9065361023
16.6201934814 34.0973663330 40.7094612122
16.6305122375 34.1120147705 40.5130462646
16.6428241730 34.1304130554 40.3174400330
16.6566905975 34.1517333984 40.1224670410
16.6714954376 34.1748199463 39.9278945923
16.6872177124 34.1996383667 39.7337112427
16.7042484283 34.2269096375 39.5400810242
16.7224769592 34.2564430237 39.3469657898
16.7408027649 34.2861557007 39.1539192200
16.7572689056 34.3123703003 38.9601440430
16.7692737579 34.3301963806 38.7645606995
16.7740345001 34.3343887329 38.5660095215
16.7699470520 34.3219375610 38.3637962341
16.7583484650 34.2953491211 38.1584358215
16.7439537048 34.2635040283 37.9518623352
16.7330627441 34.2382469177 37.7466964722
16.7308235168 34.2292671204 37.5451011658
16.7397670746 34.2413291931 37.3481750488
16.7600555420 34.2747383118 37.1560363770
16.7902011871 34.3266944885 36.9681015015
16.8273487091 34.3918266296 36.7831993103
16.8673858643 34.4624061584 36.5996055603
16.9056873322 34.5297126770 36.4153633118
16.9387092590 34.5870895386 36.2289428711
16.9654006958 34.6325569153 36.0398750305
16.9869594574 34.6683654785 35.8486518860
17.0050735474 34.6976890564 35.6559753418
17.0203781128 34.7217292786 35.4621124268
17.0324382782 34.7396621704 35.2668571472
17.0407772064 34.7505950928 35.0699958801
17.0455303192 34.7547798157 34.8715667725
17.0471534729 34.7530708313 34.6717605591
17.0458793640 34.7459068298 34.4706611633
17.0417385101 34.7333564758 34.2682723999
17.0352458954 34.7163696289 34.0648117065
17.0279254913 34.6978263855 33.8609466553
17.0220050812 34.6819190979 33.6576652527
17.0194530487 34.6723480225 33.4558563232
17.0211791992 34.6708297729 33.2559394836
17.0269165039 34.6768646240 33.0578117371
17.0356578827 34.6885490417 32.8610382080
17.0462417603 34.7037048340 32.6651039124
17.0577259064 34.7205581665 32.4695854187
17.0695877075 34.7381172180 32.2742500305
17.0819911957 34.7566986084 32.0791778564
17.0957393646 34.7778091431 31.8847351074
17.1113872528 34.8025016785 31.6911830902
17.1283016205 34.8295745850 31.4982376099
17.1448287964 34.8559226990 31.3051414490
17.1594314575 34.8786430359 31.1111774445
17.1714763641 34.8965530396 30.9160461426
17.1811180115 34.9099388123 30.7198085785
17.1888217926 34.9196777344 30.5226707458
17.1950435638 34.9266242981 30.3248405457
17.2001113892 34.9313964844 30.1264629364
17.2041835785 34.9342918396 29.9276123047
17.2073249817 34.9354400635 29.7283134460
17.2096977234 34.9351387024 29.5286388397
17.2117595673 34.9342498779 29.3288040161
17.2144317627 34.9345130920 29.1292457581
17.2191925049 34.9387054443 28.9306755066
17.2280597687 34.9506340027 28.7340698242
17.2431850433 34.9743423462 28.5404815674
17.2658710480 35.0122909546 28.3505611420
17.2956180573 35.0635375977 28.1641025543
17.3302268982 35.1239433289 27.9800643921
17.3668594360 35.1881599426 27.7970848083
17.4026088715 35.2507133484 27.6137561798
17.4340953827 35.3052444458 27.4284210205
17.4576282501 35.3447952271 27.2392463684
17.4709186554 35.3650588989 27.0450782776
17.4747486115 35.3675003052 26.8462581635
17.4724998474 35.3585014343 26.6444225311
17.4682121277 35.3456573486 26.4415473938
17.4652347565 35.3352775574 26.2392940521
17.4660129547 35.3319778442 26.0388889313
17.4718132019 35.3381347656 25.8409767151
17.4822769165 35.3530693054 25.6454029083
17.4958438873 35.3738555908 25.4513969421
17.5108203888 35.3972969055 25.2581214905
17.5256977081 35.4205474854 25.0648174286
17.5388927460 35.4406318665 24.8706817627
17.5492858887 35.4554405212 24.6751365662
17.5571880341 35.4655570984 24.4783325195
17.5640411377 35.4736976624 24.2809944153
17.5709972382 35.4820327759 24.0837078094
17.5784244537 35.4912528992 23.8866615295
17.5868396759 35.5023345947 23.6901283264
17.5975589752 35.5177574158 23.4947872162
17.6118679047 35.5399398804 23.3013153076
17.6294536591 35.5682983398 23.1095676422
17.6477260590 35.5979537964 22.9182052612
17.6628456116 35.6216697693 22.7252273560
17.6718349457 35.6338348389 22.5290622711
17.6743373871 35.6337776184 22.3294963837
17.6730842590 35.6266441345 22.1279430389
17.6728286743 35.6213951111 21.9268932343
17.6781482697 35.6266441345 21.7287731171
17.6914882660 35.6470069885 21.5349006653
17.7128028870 35.6823959351 21.3452873230
17.7402877808 35.7294120789 21.1590003967
17.7708778381 35.7822799683 20.9744281769
17.8007164001 35.8337364197 20.7895202637
17.8264522552 35.8774642944 20.6024703979
17.8466758728 35.9108009338 20.4125022888
17.8622035980 35.9352912903 20.2200336456
17.8751773834 35.9549674988 20.0262069702
17.8878326416 35.9740486145 19.8322238922
17.9014110565 35.9948654175 19.6387577057
17.9157238007 36.0170707703 19.4457111359
17.9298343658 36.0388908386 19.2525730133
17.9433574677 36.0596084595 19.0591335297
17.9571056366 36.0807495117 18.8658351898
17.9724102020 36.1048240662 18.6734104156
17.9898452759 36.1329116821 18.4821872711
18.0085811615 36.1634559631 18.2917118073
18.0270214081 36.1934394836 18.1011028290
18.0440578461 36.2207794189 17.9097461700
18.0596179962 36.2453422546 17.7175941467
18.0740280151 36.2677307129 17.5248203278
18.0872459412 36.2878761292 17.3313999176
18.0990486145 36.3053512573 17.1371994019
18.1097984314 36.3208465576 16.9424209595
18.1206016541 36.3364410400 16.7476825714
18.1326656342 36.3544120789 16.5536670685
18.1467285156 36.3761520386 16.3608016968
18.1631660461 36.4023704529 16.1693038940
18.1823120117 36.4336929321 15.9793767929
18.2042217255 36.4702262878 15.7910614014
18.2278881073 36.5100708008 15.6037931442
18.2512607574 36.5493659973 15.4164018631
18.2727546692 36.5851173401 15.2279748917
18.2926082611 36.6177825928 15.0386409760
18.3122978210 36.6501350403 14.8492469788
18.3328247070 36.6840667725 14.6603727341
18.3537864685 36.7188186646 14.4717884064
18.3736343384 36.7514762878 14.2825946808
18.3906764984 36.7788391113 14.0917968750
18.4042243958 36.7996177673 13.8989830017
18.4151458740 36.8154411316 13.7046461105
18.4254150391 36.8300361633 13.5099363327
18.4372215271 36.8475303650 13.3161411285
18.4521522522 36.8709144592 13.1242055893
18.4705562592 36.9008522034 12.9343471527
18.4913635254 36.9353218079 12.7459459305
18.5128612518 36.9710922241 12.5579919815
18.5340232849 37.0062332153 12.3698797226
18.5551452637 37.0412979126 12.1817817688
18.5771179199 37.0779647827 11.9942312241
18.6001300812 37.1165962219 11.8073463440
18.6230545044 37.1550636292 11.6204519272
18.6439666748 37.1897392273 11.4323892593
18.6612834930 37.2176284790 11.2421903610
18.6745910645 37.2379646301 11.0495929718
18.6846618652 37.2521896362 10.8550462723
18.6928005219 37.2627754211 10.6593332291
18.7001838684 37.2719345093 10.4631624222
18.7075557709 37.2810745239 10.2669849396
18.7152881622 37.2908897400 10.0710296631
18.7235736847 37.3017501831 9.8754158020
18.7326507568 37.3141059875 9.6802930832
18.7429847717 37.3288307190 9.4859514236
18.7552700043 37.3472366333 9.2928237915
18.7700538635 37.3703575134 9.1012592316
18.7870559692 37.3976631165 8.9110937119
18.8049011230 37.4265594482 8.7214794159
18.8219470978 37.4539489746 8.5313968658
18.8377704620 37.4790306091 8.3405771255
18.8539333344 37.5047569275 8.1499958038
18.8732261658 37.5363845825 7.9614033699
18.8977928162 37.5779647827 7.7761635780
18.9275646210 37.6293640137 7.5942525864
18.9603061676 37.6863708496 7.4142818451
18.9932708740 37.7437973022 7.2345223427
19.0247440338 37.7984123230 7.0538878441
19.0542526245 37.8493232727 6.8720717430
19.0818824768 37.8966903687 6.6891207695
19.1075916290 37.9404335022 6.5049986839
19.1308670044 37.9795913696 6.3193712234
19.1509418488 38.0127067566 6.1317343712
19.1674118042 38.0390205383 5.9418163300
19.1806564331 38.0592498779 5.7498464584
19.1917057037 38.0753364563 5.5564770699
19.2019805908 38.0899620056 5.3626165390
19.2131938934 38.1063575745 5.1693735123
19.2271881104 38.1280059814 4.9779500961
19.2454719543 38.1577491760 4.7893395424
19.2688560486 38.1971130371 4.6040868759
19.2975254059 38.2464561462 4.4223365784
19.3311367035 38.3051223755 4.2438836098
19.3683948517 38.3706741333 4.0678992271
19.4066944122 38.4381942749 3.8926832676
19.4426670074 38.5013275146 3.7160196304
19.4733600616 38.5544967651 3.5359473228
19.4971656799 38.5946655273 3.3513793945
19.5140647888 38.6218032837 3.1622753143
19.5252380371 38.6381340027 2.9693906307
19.5323352814 38.6467742920 2.7738015652
19.5368881226 38.6506080627 2.5765135288
19.5401439667 38.6519966125 2.3783512115
19.5432682037 38.6531333923 2.1800901890
19.5476760864 38.6566963196 1.9826819897
19.5552349091 38.6662025452 1.7873862982
19.5679244995 38.6853981018 1.5955543518
19.5867996216 38.7162704468 1.4079201221
19.6108531952 38.7569160461 1.2238261700
19.6371345520 38.8017692566 1.0412907600
19.6626396179 38.8451576233 0.8582810760
19.6865310669 38.8855018616 0.6742227674
19.7106304169 38.9262390137 0.4903537929
19.7379112244 38.9729843140 0.3087085783
19.7707824707 39.0302848816 0.1309526861
25.1419887543 26.7550811768 80.5055847168
25.1402873993 26.7503681183 80.3075332642
25.1374206543 26.7445354462 80.1093673706
25.1346435547 26.7387847900 79.9111862183
25.1318626404 26.7330341339 79.7129821777
25.1283378601 26.7265644073 79.5146942139
25.1237392426 26.7190589905 79.3162841797
25.1187496185 26.7111797333 79.1178207397
25.1152477264 26.7047309875 78.9194641113
25.1153812408 26.7017841339 78.7214202881
25.1198921204 26.7030525208 78.5237579346
25.1278724670 26.7076625824 78.3264083862
25.1384162903 26.7147445679 78.1292953491
25.1519546509 26.7247066498 77.9324722290
25.1698131561 26.7388343811 77.7360687256
25.1929531097 26.7580490112 77.5401840210
25.2209205627 26.7819118500 77.3447875977
25.2513923645 26.8081912994 77.1496810913
25.2806549072 26.8333034515 76.9544830322
25.3049983978 26.8536796570 76.7588272095
25.3222026825 26.8671779633 76.5624847412
25.3320045471 26.8735446930 76.3654098511
25.3352203369 26.8735675812 76.1676559448
25.3323802948 26.8677520752 75.9692611694
25.3232116699 26.8558425903 75.7701950073
25.3075656891 26.8376922607 75.5704193115
25.2867774963 26.8145866394 75.3700485229
25.2639770508 26.7895431519 75.1694107056
25.2429447174 26.7661991119 74.9689102173
25.2265033722 26.7472801208 74.7688598633
25.2157573700 26.7338466644 74.5693817139
25.2106094360 26.7258071899 74.3704833984
25.2109127045 26.7230186462 74.1721649170
25.2170963287 26.7258949280 73.9744949341
25.2296142578 26.7348766327 73.7775268555
25.2476234436 26.7491493225 73.5811920166
25.2682914734 26.7659835815 73.3851699829
25.2877807617 26.7816829681 73.1890411377
25.3031044006 26.7933673859 72.9924392700
25.3130893707 26.7999076843 72.7952270508
25.3178119659 26.8013801575 72.5973892212
25.3175163269 26.7980117798 72.3989562988
25.3120670319 26.7896804810 72.1998825073
25.3013477325 26.7762699127 72.0001525879
25.2862701416 26.7586555481 71.7998504639
25.2693347931 26.7392539978 71.5992813110
25.2538223267 26.7212219238 71.3988494873
25.2420997620 26.7068405151 71.1988372803
25.2347621918 26.6966838837 70.9993362427
25.2311801910 26.6901473999 70.8002777100
25.2305126190 26.6864204407 70.6015701294
25.2322864532 26.6850452423 70.4031524658
25.2365875244 26.6861057281 70.2050476074
25.2442169189 26.6903743744 70.0073699951
25.2567901611 26.6994075775 69.8103256226
25.2762546539 26.7150821686 69.6141891479
25.3036594391 26.7384090424 69.4191207886
25.3378276825 26.7682590485 69.2249832153
25.3750495911 26.8010520935 69.0312957764
25.4100856781 26.8317375183 68.8373641968
25.4378700256 26.8554344177 68.6424942017
25.4549617767 26.8688240051 68.4461975098
25.4601039886 26.8706970215 68.2482757568
25.4541606903 26.8618831635 68.0488204956
25.4400653839 26.8452110291 67.8482055664
25.4224910736 26.8251838684 67.6470642090
25.4064159393 26.8066024780 67.4460830688
25.3951110840 26.7926177979 67.2457351685
25.3892288208 26.7838611603 67.0461196899
25.3875789642 26.7791824341 66.8470840454
25.3885116577 26.7769947052 66.6484069824
25.3908672333 26.7761764526 66.4499206543
25.3943443298 26.7764415741 66.2515792847
25.3994884491 26.7783126831 66.0534820557
25.4072837830 26.7827396393 65.8557586670
25.4181632996 26.7901420593 65.6585006714
25.4306678772 26.7991065979 65.4614791870
25.4410438538 26.8060226440 65.2641448975
25.4451408386 26.8068847656 65.0658645630
25.4416217804 26.8004016876 64.8664245605
25.4334869385 26.7894706726 64.6662521362
25.4263477325 26.7794971466 64.4661941528
25.4251747131 26.7752761841 64.2670364380
25.4321613312 26.7789230347 64.0691299438
25.4464893341 26.7896461487 63.8723678589
25.4654998779 26.8048877716 63.6763496399
25.4866275787 26.8221683502 63.4806823730
25.5087242126 26.8403854370 63.2851867676
25.5314807892 26.8592395782 63.0898246765
25.5537090302 26.8775825500 62.8943977356
25.5727310181 26.8928356171 62.6984748840
25.5855255127 26.9020843506 62.5015563965
25.5902004242 26.9035015106 62.3033218384
25.5866107941 26.8969497681 62.1037178040
25.5761070251 26.8837299347 61.9029502869
25.5609912872 26.8660621643 61.7013854980
25.5442237854 26.8467979431 61.4995002747
25.5291118622 26.8291339874 61.2978477478
25.5184230804 26.8157329559 61.0968971252
25.5133342743 26.8077297211 60.8968620300
25.5132732391 26.8045768738 60.6976585388
25.5167655945 26.8048534393 60.4990463257
25.5225582123 26.8073463440 60.3008155823
25.5302982330 26.8117179871 60.1029205322
25.5403232574 26.8182926178 59.9054183960
25.5525817871 26.8270206451 59.7083053589
25.5657825470 26.8366584778 59.5113677979
25.5779571533 26.8453083038 59.3142509460
25.5879459381 26.8518466949 59.1167526245
25.5960655212 26.8565864563 58.9189224243
25.6034069061 26.8605728149 58.7209548950
25.6107292175 26.8645401001 58.5229759216
25.6180248260 26.8684825897 58.3249893188
25.6246833801 26.8718109131 58.1268844604
25.6297874451 26.8736381531 57.9284896851
25.6323566437 26.8730201721 57.7296218872
25.6318836212 26.8694686890 57.5301818848
25.6291828156 26.8637676239 57.3303146362
25.6268081665 26.8583793640 57.1304855347
25.6280860901 26.8565177917 56.9313163757
25.6351814270 26.8602638245 56.7332267761
25.6477088928 26.8692531586 56.5361595154
25.6632061005 26.8811073303 56.3396606445
25.6792278290 26.8934669495 56.1432723999
25.6953086853 26.9058856964 55.9469070435
25.7127285004 26.9195938110 55.7508125305
25.7320117950 26.9351005554 55.5550918579
25.7508888245 26.9502162933 55.3593063354
25.7653827667 26.9611034393 55.1626853943
25.7732620239 26.9656085968 54.9647789001
25.7761688232 26.9653148651 54.7658920288
25.7780780792 26.9640598297 54.5667991638
25.7818241119 26.9645767212 54.3680534363
25.7873916626 26.9668521881 54.1696624756
25.7931480408 26.9693069458 53.9713058472
25.7978668213 26.9707622528 53.7727317810
25.8013896942 26.9710636139 53.5739059448
25.8040313721 26.9705123901 53.3748931885
25.8058338165 26.9691524506 53.1756973267
25.8062419891 26.9664459229 52.9762039185
25.8042736053 26.9614486694 52.7762069702
25.7992382050 26.9534893036 52.5755577087
25.7916908264 26.9431056976 52.3743629456
25.7837352753 26.9323272705 52.1730499268
25.7782459259 26.9239292145 51.9722251892
25.7779026031 26.9204978943 51.7724533081
25.7846126556 26.9238700867 51.5741500854
25.7990322113 26.9346847534 51.3774719238
25.8201808929 26.9519939423 51.1822357178
25.8456993103 26.9735202789 50.9879493713
25.8725109100 26.9962959290 50.7939682007
25.8973560333 27.0171718597 50.5995941162
25.9175128937 27.0335254669 50.4042358398
25.9319305420 27.0443401337 50.2076530457
25.9417343140 27.0507030487 50.0100746155
25.9494304657 27.0550289154 49.8120346069
25.9575271606 27.0597419739 49.6140823364
25.9675598145 27.0663242340 49.4165534973
25.9797649384 27.0750026703 49.2195053101
25.9932880402 27.0849533081 49.0227546692
26.0067195892 27.0948162079 48.8259925842
26.0186958313 27.1032752991 48.6289100647
26.0284137726 27.1095523834 48.4313278198
26.0360660553 27.1138362885 48.2332763672
26.0429935455 27.1174221039 48.0350608826
26.0512828827 27.1223220825 47.8371467590
26.0626525879 27.1301956177 47.6399383545
26.0771331787 27.1410694122 47.4434432983
26.0926761627 27.1529712677 47.2472038269
26.1065273285 27.1632423401 47.0505828857
26.1174468994 27.1706790924 46.8532905579
26.1267890930 27.1765956879 46.6556358337
26.1374244690 27.1837596893 46.4582824707
26.1514186859 27.1941661835 46.2617149353
26.1684780121 27.2075328827 46.0658798218
26.1864490509 27.2217807770 45.8702735901
26.2032012939 27.2348518372 45.6743965149
26.2179222107 27.2459602356 45.4780464172
26.2310161591 27.2554988861 45.2813148499
26.2433204651 27.2642745972 45.0844039917
26.2555065155 27.2729377747 44.8874664307
26.2677936554 27.2816982269 44.6905632019
26.2799053192 27.2902889252 44.4936180115
26.2912158966 27.2981052399 44.2964859009
26.3010501862 27.3044967651 44.0989952087
26.3089981079 27.3090667725 43.9010429382
26.3151741028 27.3119258881 43.7026557922
26.3204174042 27.3138847351 43.5040321350
26.3262596130 27.3164215088 43.3055458069
26.3343429565 27.3211212158 43.1076126099
26.3453426361 27.3286399841 42.9104042053
26.3583450317 27.3380908966 42.7136993408
26.3715133667 27.3477001190 42.5170440674
26.3834648132 27.3561363220 42.3200874329
26.3938140869 27.3630275726 42.1227302551
26.4025650024 27.3683719635 41.9249725342
26.4094238281 27.3718910217 41.7267303467
26.4138736725 27.3730831146 41.5278663635
26.4157695770 27.3718070984 41.3283386230
26.4158973694 27.3688240051 41.1283416748
26.4160881042 27.3659019470 40.9283485413
26.4188899994 27.3655014038 40.7290153503
26.4268951416 27.3701267242 40.5310211182
26.4417400360 27.3813571930 40.3348083496
26.4630069733 27.3987903595 40.1402854919
26.4880142212 27.4198379517 39.9467697144
26.5132904053 27.4411430359 39.7533493042
26.5367336273 27.4606819153 39.5594711304
26.5585403442 27.4786376953 39.3651885986
26.5802249908 27.4964771271 39.1708908081
26.6028499603 27.5152244568 38.9768676758
26.6258220673 27.5343074799 38.7829627991
26.6472206116 27.5518722534 38.5886573792
26.6655902863 27.5665092468 38.3935546875
26.6813316345 27.5786094666 38.1977577209
26.6961345673 27.5898036957 38.0017204285
26.7114219666 27.6014633179 37.8058204651
26.7276515961 27.6140346527 37.6101913452
26.7442951202 27.6270065308 37.4146881104
26.7597217560 27.6388034821 37.2188606262
26.7715377808 27.6471118927 37.0220489502
26.7776813507 27.6499385834 36.8236732483
26.7772941589 27.6464595795 36.6234779358
26.7710094452 27.6372795105 36.4216232300
26.7612171173 27.6247119904 36.2187614441
26.7521171570 27.6128101349 36.0160598755
26.7482738495 27.6059875488 35.8148002625
26.7520198822 27.6064987183 35.6156616211
26.7621040344 27.6131324768 35.4183044434
26.7751808167 27.6226577759 35.2217979431
26.7886543274 27.6325683594 35.0254135132
26.8022575378 27.6426029205 34.8290710449
26.8175964355 27.6543140411 34.6332321167
26.8367805481 27.6697406769 34.4385108948
26.8610229492 27.6900558472 34.2452621460
26.8896312714 27.7145919800 34.0533065796
26.9200954437 27.7409210205 33.8619194031
26.9496936798 27.7664127350 33.6703186035
26.9774284363 27.7901039124 33.4782104492
27.0041809082 27.8128490448 33.2858467102
27.0308418274 27.8355026245 33.0934867859
27.0565738678 27.8572616577 32.9008865356
27.0791587830 27.8759784698 32.7073860168
27.0966644287 27.8897876740 32.5124015808
27.1085376740 27.8981533051 32.3157577515
27.1155300140 27.9018020630 32.1176681519
27.1193294525 27.9023647308 31.9186172485
27.1224327087 27.9022541046 31.7193489075
27.1280307770 27.9045581818 31.5208187103
27.1393871307 27.9124221802 31.3240184784
27.1584415436 27.9277305603 31.1295509338
27.1843109131 27.9496231079 30.9371643066
27.2130565643 27.9742984772 30.7456855774
27.2396545410 27.9968948364 30.5535831451
27.2607822418 28.0142078400 30.3598384857
27.2762336731 28.0260353088 30.1643733978
27.2883205414 28.0346088409 29.9678840637
27.3003749847 28.0431499481 29.7713890076
27.3152122498 28.0543823242 29.5757617950
27.3337440491 28.0691852570 29.3812885284
27.3543605804 28.0860061646 29.1874809265
27.3739604950 28.1018428802 28.9933776855
27.3900222778 28.1142597198 28.7981834412
27.4018974304 28.1226310730 28.6016883850
27.4104938507 28.1278305054 28.4041633606
27.4171466827 28.1311511993 28.2060260773
27.4230041504 28.1337051392 28.0076313019
27.4291801453 28.1365661621 27.8093318939
27.4372158051 28.1412239075 27.6116180420
27.4492301941 28.1497287750 27.4151725769
27.4673347473 28.1641216278 27.2206802368
27.4924812317 28.1853218079 27.0284652710
27.5234375000 28.2121410370 26.8381481171
27.5567398071 28.2412281036 26.6486263275
27.5879192352 28.2682628632 26.4584598541
27.6133422852 28.2897338867 26.2664642334
27.6314811707 28.3041610718 26.0721263885
27.6427478790 28.3119449615 25.8755626678
27.6483592987 28.3142604828 25.6771507263
27.6495265961 28.3122806549 25.4772739410
27.6474533081 28.3071651459 25.2763175964
27.6435756683 28.3003044128 25.0747451782
27.6395549774 28.2933063507 24.8731021881
27.6371154785 28.2878379822 24.6719608307
27.6378803253 28.2854652405 24.4718608856
27.6429996490 28.2873039246 24.2732009888
27.6526432037 28.2935161591 24.0760440826
27.6657371521 28.3030681610 23.8800468445
27.6803016663 28.3140392303 23.6845474243
27.6941184998 28.3242893219 23.4888076782
27.7054004669 28.3320865631 23.2922191620
27.7133350372 28.3366470337 23.0944995880
27.7184581757 28.3384895325 22.8958225250
27.7227916718 28.3395690918 22.6968688965
27.7296810150 28.3431167603 22.4987792969
27.7431640625 28.3530464172 22.3029422760
27.7668514252 28.3728408813 22.1106147766
27.8027229309 28.4044208527 21.9225063324
27.8503875732 28.4474067688 21.7385120392
27.9067211151 28.4987792969 21.5575847626
27.9662399292 28.5532341003 21.3778457642
28.0227489471 28.6047782898 21.1971511841
28.0714893341 28.6488094330 21.0138301849
28.1100902557 28.6830348969 20.8270378113
28.1383914948 28.7073001862 20.6366901398
28.1581783295 28.7233276367 20.4433841705
28.1727828979 28.7343463898 20.2482738495
28.1860198975 28.7440395355 20.0526885986
28.2010078430 28.7554283142 19.8577308655
28.2196292877 28.7703304291 19.6640720367
28.2423496246 28.7891979218 19.4718875885
28.2679748535 28.8108768463 19.2807617188
28.2938327789 28.8327808380 19.0897502899
28.3170566559 28.8521366119 18.8978233337
28.3361625671 28.8675098419 18.7044410706
28.3513393402 28.8790817261 18.5096626282
28.3634319305 28.8876705170 18.3137798309
28.3730430603 28.8938579559 18.1170043945
28.3806266785 28.8980865479 17.9194946289
28.3871250153 28.9012622833 17.7215862274
28.3945255280 28.9053115845 17.5240020752
28.4059906006 28.9132919312 17.3278999329
28.4252872467 28.9288520813 17.1346721649
28.4553775787 28.9548530579 16.9454250336
28.4968681335 28.9918861389 16.7604103088
28.5474853516 29.0377502441 16.5788230896
28.6027679443 29.0881290436 16.3990345001
28.6572246552 29.1377105713 16.2190208435
28.7053565979 29.1811714172 16.0367374420
28.7427597046 29.2142543793 15.8505258560
28.7675075531 29.2350940704 15.6596374512
28.7810630798 29.2451019287 15.4645872116
28.7876071930 29.2483253479 15.2669124603
28.7920417786 29.2495098114 15.0684404373
28.7982540131 29.2524127960 14.8706293106
28.8084487915 29.2591686249 14.6743173599
28.8229503632 29.2700939178 14.4796390533
28.8402576447 29.2837333679 14.2860355377
28.8580875397 29.2978782654 14.0926456451
28.8751106262 29.3112430573 13.8989620209
28.8920097351 29.3244895935 13.7052459717
28.9110984802 29.3398532867 13.5123825073
28.9349136353 29.3597927094 13.3213520050
28.9646129608 29.3854274750 13.1326131821
28.9992809296 29.4158706665 12.9458284378
29.0369853973 29.4492530823 12.7602643967
29.0765571594 29.4844417572 12.5754737854
29.1180515289 29.5214958191 12.3914861679
29.1616535187 29.5605869293 12.2083759308
29.2067050934 29.6010856628 12.0258941650
29.2520160675 29.6418342590 11.8435764313
29.2965927124 29.6818733215 11.6610355377
29.3396129608 29.7204074860 11.4779462814
29.3798465729 29.7562446594 11.2938184738
29.4158954620 29.7880325317 11.1080942154
29.4474697113 29.8154888153 10.9206457138
29.4759292603 29.8399314880 10.7320022583
29.5029754639 29.8630065918 10.5428314209
29.5289688110 29.8850650787 10.3532724380
29.5530643463 29.9052829742 10.1629848480
29.5749187469 29.9233360291 9.9718275070
29.5958213806 29.9404640198 9.7803106308
29.6178607941 29.9586963654 9.5892715454
29.6419963837 29.9789562225 9.3990993500
29.6668376923 29.9999008179 9.2092390060
29.6893177032 30.0185585022 9.0184516907
29.7065334320 30.0321216583 8.8255510330
29.7170124054 30.0391616821 8.6299276352
29.7206802368 30.0396080017 8.4315299988
29.7183456421 30.0342445374 8.2306718826
29.7119960785 30.0249919891 8.0281505585
29.7057876587 30.0158748627 7.8256583214
29.7060317993 30.0130081177 7.6257910728
29.7187843323 30.0222492218 7.4310593605
29.7464179993 30.0458984375 7.2424764633
29.7862739563 30.0813827515 7.0589833260
29.8323764801 30.1229133606 6.8781337738
29.8783416748 30.1643161774 6.6972937584
29.9197826385 30.2013378143 6.5146355629
29.9555721283 30.2328872681 6.3296761513
29.9875011444 30.2607002258 6.1431508064
30.0181369781 30.2872600555 5.9561233521
30.0484294891 30.3134899139 5.7689905167
30.0774669647 30.3385047913 5.5813674927
30.1044387817 30.3615207672 5.3929080963
30.1303539276 30.3835124969 5.2040338516
30.1577606201 30.4069499969 5.0158214569
30.1891307831 30.4342250824 4.8293237686
30.2257118225 30.4665470123 4.6450815201
30.2676811218 30.5040893555 4.4631853104
30.3145046234 30.5463314056 4.2834205627
30.3640727997 30.5912342072 4.1048984528
30.4117889404 30.6343441010 3.9256541729
30.4520015717 30.6701869965 3.7432532310
30.4812431335 30.6954078674 3.5561830997
30.4999160767 30.7103919983 3.3645873070
30.5111274719 30.7181510925 3.1697809696
30.5186977386 30.7223815918 2.9734001160
30.5262050629 30.7265510559 2.7769892216
30.5367832184 30.7336959839 2.5819115639
30.5525913239 30.7459068298 2.3891170025
30.5737590790 30.7633094788 2.1986761093
30.5979042053 30.7835941315 2.0095601082
30.6212882996 30.8031425476 1.8201366663
30.6410655975 30.8192005157 1.6291538477
30.6567974091 30.8313369751 1.4364067316
30.6703624725 30.8413753510 1.2427146435
30.6849536896 30.8524112701 1.0494850874
30.7038555145 30.8676185608 0.8581746817
30.7292022705 30.8890705109 0.6697446108
30.7613277435 30.9170894623 0.4843608141
30.7992286682 30.9507064819 0.3015935421
30.8416805267 30.9887294769 0.1209111512
32.6307868958 17.8933238983 80.3381423950
32.6206932068 17.8859596252 80.1399078369
32.6054115295 17.8760738373 79.9412918091
32.5911712646 17.8666934967 79.7427139282
32.5807800293 17.8591842651 79.5443725586
32.5732460022 17.8530635834 79.3461990356
32.5673942566 17.8477592468 79.1481170654
32.5649032593 17.8440876007 78.9502639771
32.5695152283 17.8438720703 78.7529067993
32.5837478638 17.8483314514 78.5562438965
32.6062698364 17.8568210602 78.3602066040
32.6316261292 17.8666896820 78.1643981934
32.6524353027 17.8743457794 77.9682693481
32.6626892090 17.8768711090 77.7713394165
32.6599731445 17.8730907440 77.5734176636
32.6455993652 17.8636436462 77.3745651245
32.6237068176 17.8505382538 77.1750946045
32.5998535156 17.8364791870 76.9754180908
32.5787887573 17.8237762451 76.7759170532
32.5621986389 17.8132476807 76.5767364502
32.5482139587 17.8039855957 76.3777236938
32.5330963135 17.7941722870 76.1785888672
32.5137557983 17.7823066711 75.9790649414
32.4897918701 17.7681903839 75.7791137695
32.4641571045 17.7532615662 75.5789794922
32.4418945313 17.7399711609 75.3790740967
32.4279708862 17.7307357788 75.1798400879
32.4259071350 17.7272682190 74.9815902710
32.4372406006 17.7303161621 74.7844848633
32.4607086182 17.7392654419 74.5884399414
32.4917793274 17.7519111633 74.3930892944
32.5240402222 17.7651386261 74.1978683472
32.5520172119 17.7762794495 74.0022964478
32.5729789734 17.7840118408 73.8061141968
32.5868797302 17.7883090973 73.6093063354
32.5952072144 17.7898921967 73.4119873047
32.5998420715 17.7896823883 73.2143249512
32.6023216248 17.7884254456 73.0164566040
32.6035690308 17.7865676880 72.8184585571
32.6040954590 17.7843589783 72.6203765869
32.6044502258 17.7820663452 72.4222717285
32.6056900024 17.7802047729 72.2242279053
32.6095848083 17.7796325684 72.0264358521
32.6180725098 17.7812957764 71.8290786743
32.6319732666 17.7855911255 71.6322402954
32.6501007080 17.7919445038 71.4358367920
32.6700859070 17.7992000580 71.2396163940
32.6901779175 17.8065090179 71.0434265137
32.7097167969 17.8135509491 70.8471908569
32.7275238037 17.8197460175 70.6507949829
32.7404327393 17.8235626221 70.4539108276
32.7445564270 17.8231029510 70.2561187744
32.7384529114 17.8176670074 70.0572662354
32.7246131897 17.8084659576 69.8575820923
32.7071418762 17.7975006104 69.6574783325
32.6882133484 17.7858238220 69.4571838379
32.6672935486 17.7731781006 69.2566375732
32.6436767578 17.7592182159 69.0557556152
32.6188850403 17.7446880341 68.8547058105
32.5962219238 17.7311916351 68.6538314819
32.5783767700 17.7200393677 68.4534378052
32.5659828186 17.7115402222 68.2536010742
32.5580406189 17.7052040100 68.0542221069
32.5529518127 17.7002582550 67.8551406860
32.5491065979 17.6959171295 67.6561737061
32.5447959900 17.6913490295 67.4571380615
32.5380973816 17.6856174469 67.2578048706
32.5274009705 17.6779422760 67.0579910278
32.5128059387 17.6683673859 66.8577041626
32.4971122742 17.6582603455 66.6572494507
32.4849891663 17.6498870850 66.4571762085
32.4807281494 17.6453418732 66.2579956055
32.4864387512 17.6456508636 66.0599594116
32.5013771057 17.6504478455 65.8630065918
32.5222091675 17.6581153870 65.6667556763
32.5444030762 17.6664466858 65.4706878662
32.5641937256 17.6736068726 65.2743453979
32.5797538757 17.6787090302 65.0775070190
32.5909004211 17.6816596985 64.8801345825
32.5982742310 17.6827774048 64.6823043823
32.6030006409 17.6826057434 64.4841384888
32.6067543030 17.6819610596 64.2858505249
32.6118927002 17.6819896698 64.0877151489
32.6212387085 17.6840648651 63.8901100159
32.6372184753 17.6893711090 63.6933326721
32.6604461670 17.6982059479 63.4974784851
32.6890029907 17.7096366882 63.3023223877
32.7194900513 17.7220039368 63.1074371338
32.7487220764 17.7337627411 62.9124183655
32.7740173340 17.7436046600 62.7169151306
32.7924995422 17.7501316071 62.5205497742
32.8020401001 17.7523021698 62.3230247498
32.8038215637 17.7506980896 62.1244773865
32.8031120300 17.7478790283 61.9255867004
32.8060798645 17.7468490601 61.7271690369
32.8157119751 17.7490673065 61.5296325684
32.8312225342 17.7541446686 61.3328819275
32.8507766724 17.7611923218 61.1366844177
32.8733406067 17.7697048187 60.9409065247
32.8975219727 17.7790069580 60.7453689575
32.9198150635 17.7873878479 60.5495872498
32.9350204468 17.7923202515 60.3528480530
32.9385452271 17.7915630341 60.1544990540
32.9282760620 17.7840881348 59.9542198181
32.9054107666 17.7704792023 59.7521476746
32.8747558594 17.7530765533 59.5489349365
32.8441696167 17.7357063293 59.3456726074
32.8223724365 17.7226142883 59.1436004639
32.8154602051 17.7167720795 58.9436073303
32.8239822388 17.7184448242 58.7458000183
32.8428115845 17.7251396179 58.5494766235
32.8643264771 17.7331428528 58.3535537720
32.8824081421 17.7394733429 58.1571464539
32.8943748474 17.7428245544 57.9598541260
32.9004287720 17.7432975769 57.7616958618
32.9022331238 17.7417011261 57.5629043579
32.9017906189 17.7390079498 57.3637657166
32.9007797241 17.7360382080 57.1645278931
32.9003181458 17.7333374023 56.9653587341
32.9009437561 17.7311649323 56.7663345337
32.9028625488 17.7296237946 56.5674896240
32.9064178467 17.7288780212 56.3688850403
32.9126052856 17.7294139862 56.1706695557
32.9231376648 17.7320652008 55.9731101990
32.9393844604 17.7375030518 55.7764358521
32.9605216980 17.7453231812 55.5805206299
32.9825630188 17.7535820007 55.3847618103
32.9997177124 17.7594623566 55.1882591248
33.0072593689 17.7606582642 54.9902572632
33.0037765503 17.7564830780 54.7905158997
32.9920196533 17.7482776642 54.5894432068
32.9783020020 17.7391147614 54.3880348206
32.9701919556 17.7326850891 54.1874809265
32.9731597900 17.7316513062 53.9886779785
32.9883346558 17.7365665436 53.7918243408
33.0129776001 17.7460937500 53.5965118408
33.0434722900 17.7584724426 53.4021644592
33.0784072876 17.7730159760 53.2085723877
33.1190795898 17.7903556824 53.0159492493
33.1669158936 17.8111858368 52.8245506287
33.2201271057 17.8346366882 52.6340866089
33.2724380493 17.8576507568 52.4435386658
33.3147163391 17.8757762909 52.2513732910
33.3386230469 17.8849487305 52.0561828613
33.3404235840 17.8833465576 51.8572998047
33.3230209351 17.8723869324 51.6551666260
33.2949333191 17.8562202454 51.4511833191
33.2664375305 17.8398551941 51.2470741272
33.2452774048 17.8270626068 51.0441665649
33.2346000671 17.8193778992 50.8430061340
33.2338409424 17.8165283203 50.6435279846
33.2408905029 17.8174839020 50.4453811646
33.2537574768 17.8212738037 50.2482376099
33.2712135315 17.8273029327 50.0518989563
33.2923202515 17.8351116180 49.8562049866
33.3152656555 17.8438129425 49.6608505249
33.3369445801 17.8519001007 49.4652900696
33.3544731140 17.8579635620 49.2690124512
33.3674049377 17.8617858887 49.0719223022
33.3783836365 17.8646583557 48.8744926453
33.3916473389 17.8686428070 48.6774673462
33.4104385376 17.8753223419 48.4814414978
33.4347877502 17.8847122192 48.2864341736
33.4610633850 17.8950386047 48.0917892456
33.4841346741 17.9038066864 47.8965873718
33.5006294250 17.9093666077 47.7001991272
33.5103797913 17.9116401672 47.5025825500
33.5154724121 17.9116420746 47.3041114807
33.5184593201 17.9106178284 47.1052398682
33.5213127136 17.9095287323 46.9063301086
33.5252075195 17.9089450836 46.7076072693
33.5305824280 17.9090843201 46.5091476440
33.5372390747 17.9098491669 46.3109245300
33.5444984436 17.9109058380 46.1128082275
33.5514564514 17.9118175507 45.9146308899
33.5573158264 17.9121932983 45.7162399292
33.5615997314 17.9117984772 45.5175399780
33.5641860962 17.9105777740 45.3185081482
33.5652046204 17.9085922241 45.1191635132
33.5648956299 17.9059581757 44.9195480347
33.5635261536 17.9028072357 44.7197151184
33.5614471436 17.8993110657 44.5197257996
33.5592117310 17.8957386017 44.3196868896
33.5576095581 17.8924732208 44.1197547913
33.5575065613 17.8899402618 43.9201011658
33.5596618652 17.8885078430 43.7208747864
33.5647201538 17.8884887695 43.5222091675
33.5734405518 17.8902587891 43.3242607117
33.5868797302 17.8943290710 43.1272506714
33.6058731079 17.9011077881 42.9313507080
33.6297950745 17.9102916718 42.7364501953
33.6558799744 17.9205284119 42.5420036316
33.6803016663 17.9299564362 42.3472404480
33.7004356384 17.9372920990 42.1516304016
33.7160301208 17.9424152374 41.9551124573
33.7284812927 17.9460048676 41.7579612732
33.7393150330 17.9488048553 41.5604820251
33.7493133545 17.9511985779 41.3628311157
33.7585144043 17.9532012939 41.1650123596
33.7666015625 17.9546604156 40.9669609070
33.7733001709 17.9554443359 40.7686233521
33.7786483765 17.9555683136 40.5699958801
33.7832260132 17.9553165436 40.3712005615
33.7882537842 17.9552841187 40.1724891663
33.7954864502 17.9563274384 39.9742355347
33.8067283630 17.9593276978 39.7768211365
33.8229904175 17.9647750854 39.5804672241
33.8434753418 17.9722843170 39.3850212097
33.8655509949 17.9805679321 39.1899261475
33.8864479065 17.9882793427 38.9945945740
33.9057807922 17.9952259064 38.7989425659
33.9263992310 18.0027999878 38.6035804749
33.9526214600 18.0131072998 38.4094429016
33.9872283936 18.0275096893 38.2171401978
34.0297012329 18.0457477570 38.0265808105
34.0765991211 18.0661449432 37.8370285034
34.1230163574 18.0863094330 37.6474227905
34.1637535095 18.1037044525 37.4566230774
34.1943664551 18.1161575317 37.2636375427
34.2121620178 18.1223583221 37.0678520203
34.2164688110 18.1219730377 36.8690872192
34.2081794739 18.1154460907 36.6675186157
34.1898231506 18.1040000916 36.4636764526
34.1657943726 18.0897884369 36.2585258484
34.1414566040 18.0754261017 36.0532569885
34.1212081909 18.0630569458 35.8488578796
34.1074142456 18.0538387299 35.6458702087
34.1010780334 18.0482597351 35.4445381165
34.1030273438 18.0467243195 35.2450637817
34.1147079468 18.0499382019 35.0477943420
34.1382827759 18.0589580536 34.8532447815
34.1754531860 18.0746116638 34.6618270874
34.2249145508 18.0962677002 34.4732742310
