12.4177827835 36.4947738647 64.9507217407
12.4248933792 36.5141792297 64.7547836304
12.4312477112 36.5315475464 64.5586471558
12.4356698990 36.5437011719 64.3619842529
12.4369678497 36.5474166870 64.1644287109
12.4338560104 36.5392265320 63.9656028748
12.4247751236 36.5149269104 63.7650222778
12.4081764221 36.4703330994 63.5622100830
12.3838939667 36.4049987793 63.3570709229
12.3552160263 36.3277969360 63.1505355835
12.3297882080 36.2593688965 62.9448623657
12.3170709610 36.2252540588 62.7429008484
12.3226642609 36.2405662537 62.5464057922
12.3438434601 36.2979507446 62.3546562195
12.3709974289 36.3714637756 62.1647987366
12.3939018250 36.4335060120 61.9737319946
12.4070339203 36.4691658020 61.7797241211
12.4104290009 36.4785461426 61.5827369690
12.4076166153 36.4711647034 61.3838195801
12.4032564163 36.4596099854 61.1843986511
12.4012765884 36.4544792175 60.9857101440
12.4035053253 36.4607086182 60.7883453369
12.4092626572 36.4764633179 60.5921134949
12.4162425995 36.4955177307 60.3962898254
12.4222259521 36.5118789673 60.2001609802
12.4263153076 36.5231323242 60.0034370422
12.4288682938 36.5302391052 59.8062210083
12.4306497574 36.5352592468 59.6087532043
12.4322195053 36.5397109985 59.4112205505
12.4338264465 36.5442619324 59.2136993408
12.4355449677 36.5491142273 59.0162124634
12.4374113083 36.5543632507 58.8187828064
12.4395265579 36.5602874756 58.6214332581
12.4420986176 36.5674438477 58.4242439270
12.4454212189 36.5766258240 58.2273139954
12.4497833252 36.5886154175 58.0307502747
12.4553651810 36.6038932800 57.8346176147
12.4621267319 36.6223602295 57.6389045715
12.4697208405 36.6430702209 57.4435043335
12.4774608612 36.6641769409 57.2481765747
12.4844703674 36.6833152771 57.0526161194
12.4899625778 36.6983489990 56.8565368652
12.4935054779 36.7081298828 56.6597824097
12.4951629639 36.7128143311 56.4623603821
12.4954767227 36.7138748169 56.2644577026
12.4953098297 36.7136383057 56.0663757324
12.4955711365 36.7145576477 55.8684463501
12.4969234467 36.7184219360 55.6709060669
12.4995822906 36.7258110046 55.4738502502
12.5031442642 36.7356376648 55.2771263123
12.5064659119 36.7448196411 55.0803260803
12.5079536438 36.7490463257 54.8828468323
12.5064535141 36.7452125549 54.6842536926
12.5020456314 36.7335281372 54.4845581055
12.4958734512 36.7170791626 54.2841758728
12.4895439148 36.7002029419 54.0837097168
12.4854717255 36.6894264221 53.8840713501
12.4876613617 36.6955490112 53.6868133545
12.5006198883 36.7307434082 53.4936943054
12.5260734558 36.7996635437 53.3054428101
12.5608587265 36.8937721252 53.1208992004
12.5989122391 36.9967041016 52.9377517700
12.6353092194 37.0951652527 52.7540855408
12.6679811478 37.1835708618 52.5690841675
12.6964235306 37.2605590820 52.3825225830
12.7202005386 37.3249549866 52.1942024231
12.7389154434 37.3756828308 52.0039482117
12.7528514862 37.4135131836 51.8118400574
12.7631416321 37.4415054321 51.6183128357
12.7714757919 37.4642105103 51.4240264893
12.7799606323 37.4873275757 51.2298240662
12.7914199829 37.5184745789 51.0368614197
12.8093862534 37.5671844482 50.8465995789
12.8365459442 37.6407051086 50.6601829529
12.8716592789 37.7357025146 50.4771461487
12.9080753326 37.8342132568 50.2947692871
12.9369611740 37.9123954773 50.1093826294
12.9531326294 37.9562606812 49.9187698364
12.9575929642 37.9685134888 49.7232894897
12.9550075531 37.9617462158 49.5248413086
12.9501342773 37.9488029480 49.3254089355
12.9464654922 37.9391136169 49.1264686584
12.9464139938 37.9391860962 48.9290580750
12.9515514374 37.9532661438 48.7338676453
12.9623479843 37.9826202393 48.5411338806
12.9772891998 38.0231628418 48.3502311707
12.9923543930 38.0640411377 48.1594276428
13.0026636124 38.0920791626 47.9665985107
13.0059843063 38.1012573242 47.7707366943
13.0050144196 38.0988540649 47.5729942322
13.0063276291 38.1026077271 47.3762512207
13.0172090530 38.1321907043 47.1837539673
13.0423011780 38.2001342773 46.9976272583
13.0808382034 38.3043708801 46.8176040649
13.1260986328 38.4267501831 46.6407356262
13.1690998077 38.5430374146 46.4630050659
13.2043237686 38.6383247375 46.2819061279
13.2318811417 38.7129211426 46.0974388123
13.2547731400 38.7749252319 45.9109382629
13.2754058838 38.8308296204 45.7234802246
13.2947511673 38.8832588196 45.5354957581
13.3132858276 38.9335021973 45.3472023010
13.3314285278 38.9826850891 45.1587944031
13.3484954834 39.0289649963 44.9699401855
13.3613061905 39.0637550354 44.7791557312
13.3652048111 39.0744895935 44.5842323303
13.3588838577 39.0576400757 44.3845024109
13.3490638733 39.0313453674 44.1830902100
13.3486280441 39.0303802490 43.9860916138
13.3678693771 39.0825309753 43.7984619141
13.4065275192 39.1870880127 43.6201858521
13.4540500641 39.3155746460 43.4462966919
13.4974098206 39.4328231812 43.2705688477
13.5288877487 39.5180015564 43.0892448425
13.5476198196 39.5687751770 42.9018440247
13.5560159683 39.5916481018 42.7094688416
13.5565395355 39.5932731628 42.5132675171
13.5517320633 39.5805091858 42.3144454956
13.5456075668 39.5641899109 42.1149559021
13.5434503555 39.5585784912 41.9173965454
13.5496368408 39.5754890442 41.7239685059
13.5656242371 39.6188545227 41.5354423523
13.5899362564 39.6846885681 41.3511276245
13.6198482513 39.7656364441 41.1697044373
13.6526346207 39.8543472290 40.9898338318
13.6852111816 39.9424858093 40.8099708557
13.7138214111 40.0199241638 40.6282081604
13.7356615067 40.0790863037 40.4430961609
13.7510499954 40.1208343506 40.2547645569
13.7632598877 40.1540031433 40.0648574829
13.7760000229 40.1886024475 39.8752593994
13.7913379669 40.2302131653 39.6870422363
13.8095426559 40.2795600891 39.5003623962
13.8302040100 40.3355407715 39.3150215149
13.8535337448 40.3987236023 39.1311416626
13.8805999756 40.4719924927 38.9492950439
13.9119358063 40.5567817688 38.7697868347
13.9462356567 40.6495742798 38.5919456482
13.9811458588 40.7440147400 38.4145507813
14.0150413513 40.8357162476 38.2367362976
14.0470962524 40.9224472046 38.0580596924
14.0758409500 41.0002479553 37.8777236938
14.0990219116 41.0630226135 37.6945075989
14.1153268814 41.1072463989 37.5076675415
14.1257677078 41.1356391907 37.3177185059
14.1332635880 41.1560821533 37.1262092590
14.1413850784 41.1782112122 36.9350624084
14.1533708572 41.2107734680 36.7460441589
14.1712474823 41.2592391968 36.5602874756
14.1947460175 41.3228721619 36.3776741028
14.2208900452 41.3936500549 36.1965980530
14.2454032898 41.4600257874 36.0147132874
14.2651443481 41.5135192871 35.8302650452
14.2793912888 41.5521850586 35.6428298950
14.2892417908 41.5789833069 35.4529876709
14.2965087891 41.5988082886 35.2617301941
14.3034038544 41.6176261902 35.0702896118
14.3127336502 41.6430206299 34.8802375793
14.3275318146 41.6831741333 34.6933021545
14.3498449326 41.7436103821 34.5106773376
14.3797941208 41.8246574402 34.3324699402
14.4159460068 41.9224433899 34.1579017639
14.4561672211 42.0312194824 33.9857902527
14.4978542328 42.1439476013 33.8146629333
14.5382938385 42.2533073425 33.6429595947
14.5763940811 42.3563537598 33.4700469971
14.6142873764 42.4588432312 33.2971496582
14.6558542252 42.5712471008 33.1265182495
14.7022390366 42.6966552734 32.9588432312
14.7488088608 42.8225631714 32.7914390564
14.7875223160 42.9272613525 32.6195869446
14.8128471375 42.9958267212 32.4399909973
14.8255405426 43.0302963257 32.2530250549
14.8315649033 43.0467643738 32.0621528625
14.8381471634 43.0647392273 31.8716278076
14.8502807617 43.0977020264 31.6844291687
14.8696374893 43.1501579285 31.5015850067
14.8956508636 43.2205772400 31.3227958679
14.9266109467 43.3043518066 31.1470718384
14.9596824646 43.3938217163 30.9727268219
14.9910964966 43.4788208008 30.7974929810
15.0175895691 43.5505371094 30.6193847656
15.0380640030 43.6060104370 30.4377059937
15.0538034439 43.6487007141 30.2532062531
15.0670089722 43.6845550537 30.0672073364
15.0791101456 43.7174224854 29.8805732727
15.0904140472 43.7481422424 29.6934871674
15.1010370255 43.7770233154 29.5060176849
15.1117763519 43.8062210083 29.3186531067
15.1241998672 43.8399620056 29.1323699951
15.1402063370 43.8833694458 28.9483566284
15.1612701416 43.9404335022 28.7675571442
15.1873912811 44.0111465454 28.5899963379
15.2163944244 44.0896339417 28.4143371582
15.2444810867 44.1656494141 28.2382011414
15.2679138184 44.2291030884 28.0592193604
15.2845535278 44.2742233276 27.8760128021
15.2943601608 44.3009033203 27.6885185242
15.2990598679 44.3137969971 27.4978008270
15.3017501831 44.3212661743 27.3058109283
15.3064727783 44.3342208862 27.1151275635
15.3170394897 44.3629493713 26.9282150269
15.3352327347 44.4122619629 26.7462501526
15.3600835800 44.4795455933 26.5686511993
15.3892602921 44.5585021973 26.3939399719
15.4208688736 44.6440238953 26.2209129333
15.4534664154 44.7322158813 26.0486373901
15.4849605560 44.8174285889 25.8757553101
15.5129117966 44.8930740356 25.7006607056
15.5363502502 44.9565467834 25.5226955414
15.5565443039 45.0112571716 25.3426723480
15.5754079819 45.0623817444 25.1618366241
15.5935335159 45.1115112305 24.9805774689
15.6102828979 45.1569252014 24.7984619141
15.6255826950 45.1984252930 24.6154384613
15.6410999298 45.2405166626 24.4326095581
15.6595611572 45.2905502319 24.2518062592
15.6830120087 45.3540534973 24.0744152069
15.7113332748 45.4307022095 23.9003849030
15.7421588898 45.5141067505 23.7281455994
15.7724704742 45.5961265564 23.5556640625
15.8004035950 45.6717262268 23.3816719055
15.8253221512 45.7391891479 23.2057228088
15.8465862274 45.7967910767 23.0273666382
15.8632497787 45.8419723511 22.8459320068
15.8751792908 45.8743782043 22.6613044739
15.8838434219 45.8979682922 22.4744682312
15.8917083740 45.9194030762 22.2871074677
15.9011192322 45.9450111389 22.1008415222
15.9136629105 45.9790763855 21.9167747498
15.9300136566 46.0234146118 21.7353973389
15.9499063492 46.0773086548 21.5565433502
15.9722194672 46.1377410889 21.3794479370
15.9953594208 46.2004051208 21.2030086517
16.0177135468 46.2609405518 21.0260963440
16.0378189087 46.3154144287 20.8476753235
16.0543308258 46.3601875305 20.6667842865
16.0662479401 46.3925552368 20.4826965332
16.0736408234 46.4127159119 20.2954349518
16.0784912109 46.4260177612 20.1063861847
16.0848026276 46.4432601929 19.9183921814
16.0972766876 46.4771347046 19.7348251343
16.1189384460 46.5358047485 19.5578861237
16.1494178772 46.6182746887 19.3873596191
16.1853351593 46.7154197693 19.2208576202
16.2222023010 46.8151321411 19.0551662445
16.2561016083 46.9068298340 18.8874568939
16.2843570709 46.9832992554 18.7157649994
16.3056640625 47.0410118103 18.5391120911
16.3200817108 47.0801315308 18.3575057983
16.3288688660 47.1040534973 18.1718273163
16.3339996338 47.1181106567 17.9834957123
16.3376121521 47.1280632019 17.7940597534
16.3417091370 47.1393318176 17.6049900055
16.3481483459 47.1569175720 17.4176597595
16.3586292267 47.1854095459 17.2333412170
16.3743515015 47.2280502319 17.0529479980
16.3952465057 47.2846527100 16.8764572144
16.4192905426 47.3497505188 16.7023868561
16.4428997040 47.4136772156 16.5280742645
16.4626331329 47.4671440125 16.3509349823
16.4768371582 47.5056838989 16.1697082520
16.4858722687 47.5302772522 15.9846343994
16.4911556244 47.5447463989 15.7967557907
16.4942321777 47.5532531738 15.6072196960
16.4964618683 47.5594749451 15.4170475006
16.4991569519 47.5669593811 15.2272338867
16.5038509369 47.5798339844 15.0389490128
16.5124206543 47.6031723022 14.8536376953
16.5266342163 47.6417350769 14.6726751328
16.5470905304 47.6971549988 14.4965534210
16.5726127625 47.7662467957 14.3244009018
16.6011066437 47.8433494568 14.1546268463
16.6309394836 47.9240760803 13.9859886169
16.6609630585 48.0053138733 13.8176012039
16.6894416809 48.0823783875 13.6481161118
16.7140617371 48.1490325928 13.4757261276
16.7334480286 48.2015609741 13.2993354797
16.7482166290 48.2416267395 13.1193981171
16.7603321075 48.2745285034 12.9374275208
16.7715892792 48.3051185608 12.7548227310
16.7827587128 48.3354682922 12.5721845627
16.7939434052 48.3658599854 12.3895940781
16.8056945801 48.3977813721 12.2074871063
16.8196830750 48.4357452393 12.0271949768
16.8381385803 48.4857597351 11.8504981995
16.8622932434 48.5511550903 11.6784057617
16.8911914825 48.6293525696 11.5101833344
16.9220409393 48.7128181458 11.3436250687
16.9518737793 48.7935409546 11.1763572693
16.9788894653 48.8666572571 11.0069274902
17.0024280548 48.9303894043 10.8347883224
17.0220336914 48.9835090637 10.6595535278
17.0367622375 49.0234642029 10.4804363251
17.0453186035 49.0467643738 10.2963609695
17.0470371246 49.0516052246 10.1067495346
17.0431747437 49.0413856506 9.9125919342
17.0373153687 49.0257797241 9.7167854309
17.0339946747 49.0170249939 9.5230302811
17.0365715027 49.0241813660 9.3340959549
17.0460968018 49.0500946045 9.1508808136
17.0616683960 49.0923271179 8.9726781845
17.0814990997 49.1460533142 8.7980442047
17.1039581299 49.2068748474 8.6256542206
17.1281433105 49.2723503113 8.4547710419
17.1535701752 49.3411788940 8.2850036621
17.1792297363 49.4106369019 8.1155185699
17.2032108307 49.4755630493 7.9447193146
17.2235870361 49.5307617188 7.7709865570
17.2395572662 49.5740699768 7.5936284065
17.2514514923 49.6063690186 7.4128961563
17.2599067688 49.6293983459 7.2293086052
17.2654285431 49.6445083618 7.0432696342
17.2686862946 49.6535034180 6.8553299904
17.2710895538 49.6601943970 6.6666736603
17.2748012543 49.6704139709 6.4791321754
17.2816047668 49.6889839172 6.2942333221
17.2915191650 49.7159461975 6.1120066643
17.3028736115 49.7467918396 5.9310426712
17.3138732910 49.7766876221 5.7498121262
17.3235549927 49.8030166626 5.5674839020
17.3310909271 49.8235626221 5.3833408356
17.3350048065 49.8343315125 5.1960968971
17.3339424133 49.8316688538 5.0045633316
17.3282814026 49.8165969849 4.8090386391
17.3205375671 49.7959022522 4.6116828918
17.3141613007 49.7789001465 4.4154820442
17.3119945526 49.7732543945 4.2229204178
17.3155441284 49.7830429077 4.0353379250
17.3252964020 49.8095664978 3.8531906605
17.3414268494 49.8533020020 3.6766645908
17.3638381958 49.9139938354 3.5057120323
17.3914089203 49.9886054993 3.3393774033
17.4216327667 50.0703811646 3.1754798889
17.4514827728 50.1511421204 3.0113554001
17.4786643982 50.2247047424 2.8449707031
17.5021419525 50.2882690430 2.6753931046
17.5217037201 50.3412666321 2.5024127960
17.5372581482 50.3834533691 2.3259282112
17.5487079620 50.4145545959 2.1458272934
17.5564155579 50.4355621338 1.9624158144
17.5615501404 50.4496269226 1.7767210007
17.5658702850 50.4614906311 1.5903074741
17.5713520050 50.4764900208 1.4049508572
17.5800266266 50.5001029968 1.2224884033
17.5937500000 50.5373458862 1.0446193218
17.6136112213 50.5911521912 0.8723530769
17.6392574310 50.6605682373 0.7054049969
17.6689434052 50.7408905029 0.5422203541
17.7003631592 50.8258895874 0.3807177544
17.7314090729 50.9098777771 0.2189834416
17.7603168488 50.9880981445 0.0554002598
-30.1194133759 34.6693840027 78.8609771729
-30.1389484406 34.6923561096 78.6673202515
-30.1726837158 34.7323989868 78.4746627808
-30.2105979919 34.7774620056 78.2823562622
-30.2435188293 34.8165245056 78.0897674561
-30.2651062012 34.8419647217 77.8964157104
-30.2717590332 34.8494529724 77.7020263672
-30.2620944977 34.8373260498 77.5064468384
-30.2375183105 34.8072738647 77.3097381592
-30.2041091919 34.7666053772 77.1123123169
-30.1731567383 34.7288932800 76.9150085449
-30.1568794250 34.7088165283 76.7187652588
-30.1609764099 34.7132301331 76.5240783691
-30.1811294556 34.7369461060 76.3306503296
-30.2074966431 34.7681312561 76.1377563477
-30.2325286865 34.7977104187 75.9448013306
-30.2547111511 34.8238639832 75.7516479492
-30.2768383026 34.8499565125 75.5585327148
-30.3025512695 34.8803558350 75.3657455444
-30.3335781097 34.9171409607 75.1734542847
-30.3675155640 34.9574279785 74.9814605713
-30.3969879150 34.9923477173 74.7891387939
-30.4122238159 35.0101509094 74.5956268311
-30.4066429138 35.0029335022 74.4002990723
-30.3814506531 34.9721412659 74.2032089233
-30.3455047607 34.9284248352 74.0050964355
-30.3103485107 34.8856544495 73.8069763184
-30.2842044830 34.8537139893 73.6096191406
-30.2694625854 34.8354873657 73.4132690430
-30.2643184662 34.8287925720 73.2177810669
-30.2655658722 34.8297805786 73.0228881836
-30.2700881958 34.8347091675 72.8283004761
-30.2751083374 34.8402328491 72.6337661743
-30.2782268524 34.8434715271 72.4390487671
-30.2775859833 34.8421936035 72.2439575195
-30.2719440460 34.8348999023 72.0483703613
-30.2604503632 34.8205757141 71.8521728516
-30.2426261902 34.7986373901 71.6553039551
-30.2195396423 34.7703781128 71.4578628540
-30.1958522797 34.7413902283 71.2603149414
-30.1797542572 34.7215309143 71.0634994507
-30.1786403656 34.7196769714 70.8682250977
-30.1940956116 34.7377510071 70.6746978760
-30.2220726013 34.7708702087 70.4825286865
-30.2571010590 34.8124694824 70.2911758423
-30.2942848206 34.8566589355 70.1001052856
-30.3277187347 34.8963432312 69.9086914063
-30.3498516083 34.9224395752 69.7160873413
-30.3531532288 34.9258995056 69.5214157104
-30.3313541412 34.8991851807 69.3239212036
-30.2808685303 34.8379821777 69.1231231689
-30.2058181763 34.7472534180 68.9194183350
-30.1239719391 34.6483497620 68.7147827148
-30.0641422272 34.5759162903 68.5125427246
-30.0513782501 34.5600585938 68.3157043457
-30.0900077820 34.6059875488 68.1249084473
-30.1598701477 34.6894645691 67.9378967285
-30.2299022675 34.7731437683 67.7510299683
-30.2766933441 34.8288841248 67.5614776611
-30.2922248840 34.8470458984 67.3681945801
-30.2791347504 34.8307991028 67.1714248657
-30.2436923981 34.7876815796 66.9718551636
-30.1933021545 34.7265930176 66.7703552246
-30.1374435425 34.6589317322 66.5680618286
-30.0886688232 34.5997848511 66.3665542603
-30.0601902008 34.5650367737 66.1675415039
-30.0587882996 34.5628395081 65.9719467163
-30.0790672302 34.5867080688 65.7791442871
-30.1071491241 34.6199569702 65.5873870850
-30.1307735443 34.6478500366 65.3950958252
-30.1451644897 34.6646385193 65.2016220093
-30.1508960724 34.6710205078 65.0070190430
-30.1488704681 34.6680717468 64.8113861084
-30.1376075745 34.6540222168 64.6144866943
-30.1142158508 34.6253890991 64.4159164429
-30.0780792236 34.5814361572 64.2155532837
-30.0340805054 34.5280303955 64.0140304565
-29.9913177490 34.4761085510 63.8125915527
-29.9574604034 34.4348945618 63.6123123169
-29.9340610504 34.4062500000 63.4134330750
-29.9170284271 34.3852615356 63.2154045105
-29.9007759094 34.3652114868 63.0174484253
-29.8818702698 34.3419723511 62.8190765381
-29.8599948883 34.3151626587 62.6202354431
-29.8364791870 34.2863769531 62.4211082458
-29.8120136261 34.2564544678 62.2217941284
-29.7853374481 34.2238731384 62.0221023560
-29.7538738251 34.1855354309 61.8216438293
-29.7163295746 34.1398849487 61.6202163696
-29.6761531830 34.0910682678 61.4183158875
-29.6426753998 34.0503082275 61.2173461914
-29.6266803741 34.0305671692 61.0189628601
-29.6325454712 34.0371055603 60.8238830566
-29.6543731689 34.0628356934 60.6312599182
-29.6803665161 34.0935745239 60.4393157959
-29.7008037567 34.1176338196 60.2465515137
-29.7120456696 34.1306381226 60.0523796082
-29.7147312164 34.1333541870 59.8568763733
-29.7098026276 34.1269187927 59.6601676941
-29.6957492828 34.1095085144 59.4619865417
-29.6682281494 34.0759086609 59.2616195679
-29.6230545044 34.0210838318 59.0583457947
-29.5617675781 33.9468917847 58.8523712158
-29.4947681427 33.8658256531 58.6453437805
-29.4369220734 33.7957687378 58.4396858215
-29.3988857269 33.7495231628 58.2371826172
-29.3830204010 33.7299385071 58.0382766724
-29.3862056732 33.7332534790 57.8425140381
-29.4030551910 33.7529983521 57.6490440369
-29.4257698059 33.7797966003 57.4565887451
-29.4450302124 33.8024368286 57.2635841370
-29.4553623199 33.8143463135 57.0690879822
-29.4592571259 33.8185157776 56.8735008240
-29.4639072418 33.8235931396 56.6780433655
-29.4752502441 33.8367195129 56.4837532043
-29.4969120026 33.8622512817 56.2912750244
-29.5321655273 33.9041252136 56.1012115479
-29.5822982788 33.9638862610 55.9138298035
-29.6420269012 34.0351867676 55.7282371521
-29.6988449097 34.1029853821 55.5422325134
-29.7390766144 34.1508445740 55.3533592224
-29.7555007935 34.1700820923 55.1602706909
-29.7505474091 34.1636123657 54.9633407593
-29.7337760925 34.1429367065 54.7642478943
-29.7161674500 34.1212501526 54.5649642944
-29.7049007416 34.1071929932 54.3668098450
-29.7018680573 34.1030349731 54.1701431274
-29.7061080933 34.1076202393 53.9748191833
-29.7174644470 34.1207618713 53.7808189392
-29.7386970520 34.1457786560 53.5886917114
-29.7744617462 34.1882667542 53.3993301392
-29.8270549774 34.2509918213 53.2132186890
-29.8919258118 34.3284759521 53.0295333862
-29.9579372406 34.4073333740 52.8461837769
-30.0135707855 34.4737091064 52.6609573364
-30.0534038544 34.5210914612 52.4727783203
-30.0791492462 34.5515365601 52.2819366455
-30.0960731506 34.5713729858 52.0894165039
-30.1096458435 34.5871810913 51.8962669373
-30.1249237061 34.6050376892 51.7034721375
-30.1472206116 34.6313362122 51.5120887756
-30.1815032959 34.6720466614 51.3231201172
-30.2297954559 34.7295989990 51.1370086670
-30.2885799408 34.7997665405 50.9530868530
-30.3491001129 34.8720245361 50.7696189880
-30.4010639191 34.9339942932 50.5845260620
-30.4374046326 34.9771766663 50.3963470459
-30.4570579529 35.0002975464 50.2048187256
-30.4641819000 35.0083541870 50.0107536316
-30.4649772644 35.0087966919 49.8153877258
-30.4647483826 35.0080108643 49.6198081970
-30.4668865204 35.0100708008 49.4247131348
-30.4733409882 35.0173225403 49.2305183411
-30.4855594635 35.0315017700 49.0375404358
-30.5049781799 35.0543403625 48.8460960388
-30.5323791504 35.0867767334 48.6563758850
-30.5663547516 35.1271171570 48.4680976868
-30.6029148102 35.1705665588 48.2804336548
-30.6381168365 35.2123832703 48.0925369263
-30.6717281342 35.2522888184 47.9043579102
-30.7075462341 35.2948455811 47.7167167664
-30.7494106293 35.3446731567 47.5304489136
-30.7975769043 35.4020767212 47.3456306458
-30.8494777679 35.4639739990 47.1617164612
-30.9027614594 35.5275344849 46.9781951904
-30.9556522369 35.5906219482 46.7946853638
-31.0048217773 35.6492347717 46.6104431152
-31.0455055237 35.6976470947 46.4243888855
-31.0753269196 35.7329940796 46.2359771729
-31.0976676941 35.7593498230 46.0459289551
-31.1204833984 35.7862739563 45.8560256958
-31.1512622833 35.8227729797 45.6679649353
-31.1926479340 35.8720245361 45.4823722839
-31.2424850464 35.9314422607 45.2987861633
-31.2973499298 35.9969062805 45.1164398193
-31.3552474976 36.0660171509 44.9348907471
-31.4155101776 36.1379699707 44.7539939880
-31.4776592255 36.2121925354 44.5736427307
-31.5408725739 36.2876968384 44.3936500549
-31.6037712097 36.3628196716 44.2136955261
-31.6643371582 36.4351387024 44.0333023071
-31.7199363708 36.5014877319 43.8518486023
-31.7673301697 36.5579681396 43.6685447693
-31.8036117554 36.6010894775 43.4826774597
-31.8282413483 36.6301994324 43.2940902710
-31.8441009521 36.6487579346 43.1034355164
-31.8563404083 36.6629676819 42.9119338989
-31.8706417084 36.6796607971 42.7209472656
-31.8922691345 36.7051582336 42.5317611694
-31.9249706268 36.7439727783 42.3453063965
-31.9690341949 36.7964515686 42.1616897583
-32.0204620361 36.8577842712 41.9799613953
-32.0732345581 36.9207344055 41.7986526489
-32.1222419739 36.9791564941 41.6165046692
-32.1631011963 37.0277824402 41.4324188232
-32.1907196045 37.0604858398 41.2451019287
-32.2015609741 37.0730171204 41.0536346436
-32.1982994080 37.0685882568 40.8586349487
-32.1902275085 37.0583724976 40.6624107361
-32.1881446838 37.0553627014 40.4676818848
-32.1989212036 37.0678100586 40.2762069702
-32.2234611511 37.0968132019 40.0882606506
-32.2580871582 37.1379432678 39.9029350281
-32.2981224060 37.1855850220 39.7190589905
-32.3409614563 37.2365913391 39.5359764099
-32.3854713440 37.2896080017 39.3533973694
-32.4294052124 37.3419303894 39.1707496643
-32.4696617126 37.3898353577 38.9872169495
-32.5056686401 37.4326286316 38.8026428223
-32.5406646729 37.4742050171 38.6178703308
-32.5786514282 37.5193748474 38.4339408875
-32.6211128235 37.5699310303 38.2512588501
-32.6677207947 37.6254768372 38.0697555542
-32.7189559937 37.6865806580 37.8895645142
-32.7763137817 37.7550506592 37.7110977173
-32.8404541016 37.8316764832 37.5345535278
-32.9108848572 37.9158668518 37.3598175049
-32.9872512817 38.0071945190 37.1868133545
-33.0692863464 38.1053428650 37.0154800415
-33.1551589966 38.2081031799 36.8453369141
-33.2403678894 38.3100662231 36.6751708984
-33.3182525635 38.4032249451 36.5031547546
-33.3819351196 38.4792976379 36.3273773193
-33.4271583557 38.5331802368 36.1466217041
-33.4544448853 38.5654869080 35.9609832764
-33.4686317444 38.5820465088 35.7717590332
-33.4763031006 38.5907630920 35.5807342529
-33.4835205078 38.5989379883 35.3895950317
-33.4952926636 38.6125946045 35.1997413635
-33.5157470703 38.6366844177 35.0123443604
-33.5474090576 38.6742591858 34.8281440735
-33.5896224976 38.7245216370 34.6469879150
-33.6382446289 38.7824821472 34.4677238464
-33.6881256104 38.8419685364 34.2889060974
-33.7361068726 38.8991661072 34.1096343994
-33.7807998657 38.9524116516 33.9295005798
-33.8201942444 38.9992790222 33.7479171753
-33.8514328003 39.0363426208 33.5640525818
-33.8737335205 39.0626564026 33.3776473999
-33.8906593323 39.0825080872 33.1897125244
-33.9089851379 39.1040458679 33.0022163391
-33.9349365234 39.1347541809 32.8169784546
-33.9703254700 39.1768074036 32.6345558167
-34.0112304688 39.2254943848 32.4538154602
-34.0507011414 39.2724609375 32.2727279663
-34.0833740234 39.3112525940 32.0896873474
-34.1081199646 39.3405075073 31.9043502808
-34.1276435852 39.3634834290 31.7174930573
-34.1471977234 39.3864974976 31.5306777954
-34.1736526489 39.4178085327 31.3459644318
-34.2131538391 39.4648094177 31.1652240753
-34.2666473389 39.5286445618 30.9887771606
-34.3272514343 39.6010208130 30.8145809174
-34.3841133118 39.6689033508 30.6393547058
-34.4304122925 39.7240829468 30.4610080719
-34.4677314758 39.7684631348 30.2799987793
-34.5036964417 39.8112144470 30.0986385345
-34.5465164185 39.8622093201 29.9194488525
-34.6005477905 39.9266891479 29.7437934875
-34.6642456055 40.0027885437 29.5712261200
-34.7308311462 40.0823669434 29.3996715546
-34.7913932800 40.1547012329 29.2263584137
-34.8388633728 40.2112884521 29.0490646362
-34.8706169128 40.2489776611 28.8669300079
-34.8884162903 40.2698822021 28.6804637909
-34.8965492249 40.2791633606 28.4909782410
-34.9002609253 40.2831268311 28.3001041412
-34.9054412842 40.2888526917 28.1096973419
-34.9186630249 40.3042526245 27.9218521118
-34.9459991455 40.3366241455 27.7385253906
-34.9900627136 40.3891181946 27.5606002808
-35.0473709106 40.4575424194 27.3870010376
-35.1092643738 40.5314826965 27.2149772644
-35.1667327881 40.6000938416 27.0416374207
-35.2148666382 40.6574859619 26.8653793335
-35.2532691956 40.7031707764 26.6860446930
-35.2838211060 40.7394142151 26.5042228699
-35.3091773987 40.7694091797 26.3207550049
-35.3321876526 40.7965812683 26.1365604401
-35.3547592163 40.8232269287 25.9522609711
-35.3772888184 40.8498268127 25.7679843903
-35.4000778198 40.8767318726 25.5838298798
-35.4250946045 40.9063186646 25.4004497528
-35.4556465149 40.9425621033 25.2189502716
-35.4939155579 40.9880905151 25.0400714874
-35.5383338928 41.0410156250 24.8633155823
-35.5831756592 41.0944442749 24.6867790222
-35.6215171814 41.1400604248 24.5081367493
-35.6495208740 41.1732368469 24.3260784149
-35.6682853699 41.1953048706 24.1409454346
-35.6825103760 41.2119140625 23.9543037415
-35.6980934143 41.2301597595 23.7681465149
-35.7200775146 41.2560997009 23.5841903687
-35.7508430481 41.2925987244 23.4032707214
-35.7895011902 41.3385963440 23.2251091003
-35.8335494995 41.3910751343 23.0488643646
-35.8809852600 41.4476280212 22.8738613129
-35.9298744202 41.5059318542 22.6994476318
-35.9763717651 41.5613555908 22.5242900848
-36.0150070190 41.6073226929 22.3464832306
-36.0417633057 41.6390075684 22.1646099091
-36.0563392639 41.6560401917 21.9785270691
-36.0614814758 41.6617279053 21.7891635895
-36.0610504150 41.6607055664 21.5978469849
-36.0587615967 41.6574516296 21.4058704376
-36.0579757690 41.6560058594 21.2144145966
-36.0620002747 41.6603507996 21.0246543884
-36.0743560791 41.6747093201 20.8378505707
-36.0981674194 41.7028503418 20.6551380157
-36.1346130371 41.7461891174 20.4769725800
-36.1818199158 41.8024673462 20.3027191162
-36.2354736328 41.8665046692 20.1308612823
-36.2902374268 41.9318733215 19.9594955444
-36.3406028748 41.9919509888 19.7866420746
-36.3820114136 42.0412597656 19.6106414795
-36.4126129150 42.0775680542 19.4307975769
-36.4336471558 42.1023712158 19.2475299835
-36.4474449158 42.1184692383 19.0616626740
-36.4556884766 42.1278839111 18.8737850189
-36.4602279663 42.1328430176 18.6845607758
-36.4646415710 42.1376533508 18.4952945709
-36.4736557007 42.1479988098 18.3077220917
-36.4911270142 42.1685142517 18.1232833862
-36.5189895630 42.2015304565 17.9427127838
-36.5569267273 42.2466621399 17.7659263611
-36.6019973755 42.3003768921 17.5918579102
-36.6493911743 42.3568801880 17.4187335968
-36.6948852539 42.4111061096 17.2449836731
-36.7368583679 42.4610939026 17.0699939728
-36.7754936218 42.5070686340 16.8938255310
-36.8105316162 42.5487136841 16.7163696289
-36.8400154114 42.5836791992 16.5368766785
-36.8610382080 42.6084709167 16.3542327881
-36.8717041016 42.6208038330 16.1676959991
-36.8734169006 42.6223640442 15.9777669907
-36.8720817566 42.6202583313 15.7866735458
-36.8760681152 42.6245574951 15.5976066589
-36.8913040161 42.6423835754 15.4128494263
-36.9180030823 42.6740036011 15.2325191498
-36.9525756836 42.7150917053 15.0552644730
-36.9918746948 42.7618637085 14.8798923492
-37.0345535278 42.8127021790 14.7058963776
-37.0788345337 42.8654670715 14.5325956345
-37.1207237244 42.9153594971 14.3584451675
-37.1553192139 42.9564743042 14.1815233231
-37.1793708801 42.9849052429 14.0005426407
-37.1925086975 43.0002136230 13.8153295517
-37.1966590881 43.0047073364 13.6266069412
-37.1949348450 43.0021362305 13.4355745316
-37.1909103394 42.9967956543 13.2436256409
-37.1883201599 42.9931831360 13.0522317886
-37.1909751892 42.9958801270 12.8629045486
-37.2025299072 43.0092811584 12.6771116257
-37.2255859375 43.0365180969 12.4959154129
-37.2600593567 43.0774917603 12.3193149567
-37.3022460938 43.1277389526 12.1458578110
-37.3460655212 43.1799507141 11.9731302261
-37.3855934143 43.2270011902 11.7987546921
-37.4165687561 43.2637634277 11.6210012436
-37.4364242554 43.2871513367 11.4388103485
-37.4441528320 43.2959518433 11.2517423630
-37.4406509399 43.2912406921 11.0601263046
-37.4291572571 43.2769203186 10.8652486801
-37.4150657654 43.2594680786 10.6692819595
-37.4044914246 43.2462539673 10.4747219086
-37.4020614624 43.2428321838 10.2834720612
-37.4092597961 43.2509956360 10.0961627960
-37.4245910645 43.2689399719 9.9122076035
-37.4454307556 43.2935142517 9.7305479050
-37.4698982239 43.3224487305 9.5504188538
-37.4970092773 43.3545646667 9.3714275360
-37.5254783630 43.3883132935 9.1930446625
-37.5529251099 43.4208335876 9.0142850876
-37.5761489868 43.4482727051 8.8338088989
-37.5917167664 43.4665031433 8.6501712799
-37.5966644287 43.4719581604 8.4621086121
-37.5897293091 43.4631195068 8.2690591812
-37.5729064941 43.4423828125 8.0718288422
-37.5523033142 43.4171028137 7.8729672432
-37.5369606018 43.3981513977 7.6762847900
-37.5352401733 43.3955841064 7.4853386879
-37.5508041382 43.4138069153 7.3017225266
-37.5813980103 43.4501152039 7.1245269775
-37.6212882996 43.4976043701 6.9513497353
-37.6644058228 43.5489768982 6.7796216011
-37.7052536011 43.5976181030 6.6069946289
-37.7383842468 43.6369743347 6.4311270714
-37.7589759827 43.6612510681 6.2499217987
-37.7644424438 43.6673278809 6.0622248650
-37.7553596497 43.6559066772 5.8682456017
-37.7351951599 43.6311531067 5.6694445610
-37.7093963623 43.5996208191 5.4681515694
-37.6842613220 43.5688896179 5.2670950890
-37.6657791138 43.5461578369 5.0688848495
-37.6586570740 43.5370941162 4.8755970001
-37.6656990051 43.5450668335 4.6884913445
-37.6870841980 43.5702934265 4.5076870918
-37.7198181152 43.6091766357 4.3319091797
-37.7585372925 43.6552581787 4.1588249207
-37.7976379395 43.7018013000 3.9859769344
-37.8325119019 43.7432556152 3.8113257885
-37.8590011597 43.7746315002 3.6330175400
-37.8736763000 43.7917861938 3.4495005608
-37.8764457703 43.7946243286 3.2607030869
-37.8726119995 43.7895126343 3.0689566135
-37.8709678650 43.7870368958 2.8781776428
-37.8792152405 43.7964630127 2.6918230057
-37.9005241394 43.8216018677 2.5113468170
-37.9334678650 43.8607368469 2.3361420631
-37.9745788574 43.9096984863 2.1646783352
-38.0210723877 43.9651336670 1.9957190752
-38.0714683533 44.0252647400 1.8286098242
-38.1242942810 44.0883216858 1.6626942158
-38.1768798828 44.1510887146 1.4967627525
-38.2258033752 44.2094497681 1.3292547464
-38.2685775757 44.2604141235 1.1590268612
-38.3047409058 44.3034248352 0.9858464599
-38.3354644775 44.3398895264 0.8102337718
-38.3632812500 44.3728599548 0.6333389878
-38.3927001953 44.4077529907 0.4572266042
-38.4298782349 44.4519882202 0.2847467959
-38.4799346924 44.5117149353 0.1182877645
18.0168190002 36.3335838318 80.4730148315
18.0027351379 36.3070602417 80.2752380371
17.9805698395 36.2652244568 80.0765533447
17.9599933624 36.2263946533 79.8779830933
17.9471683502 36.2022552490 79.6801910400
17.9431953430 36.1948852539 79.4833450317
17.9454994202 36.1994056702 79.2871780396
17.9496021271 36.2073402405 79.0912246704
17.9508113861 36.2097854614 78.8949356079
17.9463996887 36.2015838623 78.6979980469
17.9377593994 36.1853713989 78.5005493164
17.9305896759 36.1719436646 78.3032455444
17.9317378998 36.1742782593 78.1069183350
17.9444122314 36.1984481812 77.9119796753
17.9659919739 36.2394905090 77.7181701660
17.9906997681 36.2864570618 77.5247955322
18.0143890381 36.3314971924 77.3313522339
18.0371017456 36.3746833801 77.1378402710
18.0620231628 36.4220542908 76.9446716309
18.0921993256 36.4793853760 76.7522506714
18.1269950867 36.5454673767 76.5605010986
18.1609497070 36.6099510193 76.3687286377
18.1871700287 36.6597824097 76.1760101318
18.2029609680 36.6898574829 75.9819564819
18.2119293213 36.7070083618 75.7870101929
18.2204914093 36.7233886719 75.5920333862
18.2331790924 36.7475814819 75.3976440430
18.2513561249 36.7821731567 75.2040481567
18.2744026184 36.8259963989 75.0111846924
18.3001995087 36.8750267029 74.8187713623
18.3250350952 36.9222373962 74.6262817383
18.3448123932 36.9598655701 74.4331207275
18.3570060730 36.9831199646 74.2388992310
18.3614730835 36.9917411804 74.0435562134
18.3598613739 36.9888458252 73.8473129272
18.3546314240 36.9790916443 73.6505203247
18.3482646942 36.9671859741 73.4535369873
18.3427028656 36.9568099976 73.2566452026
18.3389720917 36.9498977661 73.0600280762
18.3371486664 36.9465980530 72.8636856079
18.3367004395 36.9459075928 72.6675491333
18.3369827271 36.9465980530 72.4715270996
18.3375396729 36.9478111267 72.2755432129
18.3381500244 36.9491233826 72.0795669556
18.3387489319 36.9504165649 71.8835830688
18.3393363953 36.9516868591 71.6875915527
18.3399162292 36.9529418945 71.4916000366
18.3404846191 36.9541778564 71.2956008911
18.3410453796 36.9553947449 71.0995941162
18.3416538239 36.9567031860 70.9035949707
18.3424549103 36.9583778381 70.7076263428
18.3436698914 36.9608383179 70.5117263794
18.3455123901 36.9644851685 70.3159332275
18.3480720520 36.9694938660 70.1202621460
18.3512287140 36.9756317139 69.9246978760
18.3546600342 36.9822883606 69.7291870117
18.3579483032 36.9886741638 69.5336608887
18.3607349396 36.9941101074 69.3380432129
18.3628177643 36.9982147217 69.1422958374
18.3641757965 37.0009422302 68.9464187622
18.3649253845 37.0025215149 68.7504348755
18.3652744293 37.0033378601 68.5543670654
18.3653869629 37.0037078857 68.3582534790
18.3652114868 37.0035324097 68.1620864868
18.3642635345 37.0018959045 67.9657592773
18.3616065979 36.9970169067 67.7691040039
18.3562965393 36.9871139526 67.5719223022
18.3482418060 36.9720115662 67.3741912842
18.3387031555 36.9541015625 67.1761474609
18.3297405243 36.9372749329 66.9781799316
18.3230304718 36.9247207642 66.7806320190
18.3192710876 36.9177551270 66.5836486816
18.3185405731 36.9165306091 66.3872604370
18.3210601807 36.9214591980 66.1915130615
18.3275470734 36.9339065552 65.9965744019
18.3388099670 36.9553985596 65.8026275635
18.3547630310 36.9857826233 65.6096649170
18.3737201691 37.0218544006 65.4173660278
18.3927726746 37.0581054688 65.2251281738
18.4090499878 37.0890998840 65.0323562622
18.4207553864 37.1114349365 64.8386611938
18.4272842407 37.1239585876 64.6438903809
18.4286155701 37.1266365051 64.4480285645
18.4245147705 37.1190261841 64.2509918213
18.4140396118 37.0993385315 64.0525588989
18.3961029053 37.0655136108 63.8524742126
18.3712253571 37.0185394287 63.6508140564
18.3430500031 36.9653205872 63.4483566284
18.3180370331 36.9180870056 63.2465171814
18.3035335541 36.8907699585 63.0469512939
18.3052482605 36.8941764832 62.8509788513
18.3244647980 36.9307365417 62.6589546204
18.3563766479 36.9913520813 62.4698638916
18.3917007446 37.0584297180 62.2816276550
18.4210243225 37.1141395569 62.0921058655
18.4382686615 37.1469688416 61.8998641968
18.4409179688 37.1521453857 61.7042770386
18.4287548065 37.1292572021 61.5052261353
18.4040145874 37.0825424194 61.3031806946
18.3728046417 37.0235748291 61.0995368958
18.3445625305 36.9702301025 60.8965072632
18.3279438019 36.9389038086 60.6961784363
18.3260421753 36.9354591370 60.4993362427
18.3355426788 36.9536132813 60.3052406311
18.3504066467 36.9819297791 60.1124725342
18.3660182953 37.0116615295 59.9199218750
18.3803138733 37.0389022827 59.7270812988
18.3926677704 37.0624656677 59.5337944031
18.4028377533 37.0818901062 59.3399963379
18.4108428955 37.0972099304 59.1456794739
18.4173793793 37.1097488403 58.9510078430
18.4243335724 37.1230812073 58.7564544678
18.4350337982 37.1435127258 58.5628662109
18.4535274506 37.1787033081 58.3712921143
18.4826107025 37.2339553833 58.1824760437
18.5217056274 37.3081817627 57.9963150024
18.5665359497 37.3932647705 57.8117446899
18.6111392975 37.4779243469 57.6272277832
18.6506080627 37.5528488159 57.4414787292
18.6823482513 37.6131401062 57.2537994385
18.7055683136 37.6572875977 57.0639457703
18.7203998566 37.6855392456 56.8719177246
18.7276935577 37.6995162964 56.6779098511
18.7288761139 37.7019119263 56.4822769165
18.7254657745 37.6956100464 56.2854003906
18.7192134857 37.6839179993 56.0877380371
18.7131500244 37.6725921631 55.8901062012
18.7118759155 37.6703338623 55.6937675476
18.7193889618 37.6847229004 55.4998359680
18.7361812592 37.7166938782 55.3084907532
18.7588615417 37.7598190308 55.1188201904
18.7824077606 37.8045806885 54.9294471741
18.8023300171 37.8424797058 54.7391166687
18.8154182434 37.8674316406 54.5469055176
18.8201198578 37.8764953613 54.3523483276
18.8172817230 37.8712768555 54.1556510925
18.8105430603 37.8586654663 53.9578285217
18.8054008484 37.8490829468 53.7604408264
18.8068943024 37.8520698547 53.5649490356
18.8172092438 37.8717651367 53.3720169067
18.8347740173 37.9052009583 53.1812171936
18.8554496765 37.9445228577 52.9913749695
18.8749275208 37.9815788269 52.8012275696
18.8905982971 38.0114212036 52.6100044250
18.9017829895 38.0327720642 52.4174842834
18.9090709686 38.0467338562 52.2238311768
18.9138374329 38.0559196472 52.0294342041
18.9182014465 38.0643463135 51.8349266052
18.9251213074 38.0776100159 51.6411972046
18.9381484985 38.1024475098 51.4493331909
18.9603843689 38.1447296143 51.2603111267
18.9926719666 38.2060508728 51.0744171143
19.0325927734 38.2818336487 50.8909530640
19.0752716064 38.3628425598 50.7084426880
19.1149711609 38.4382095337 50.5251197815
19.1463451385 38.4977989197 50.3393058777
19.1658668518 38.5349388123 50.1498603821
19.1732788086 38.5491371155 49.9566574097
19.1714744568 38.5458755493 49.7605590820
19.1649246216 38.5336227417 49.5629463196
19.1581649780 38.5209732056 49.3652496338
19.1549949646 38.5151252747 49.1686706543
19.1584701538 38.5218658447 48.9742164612
19.1717586517 38.5471992493 48.7829246521
19.1984863281 38.5979843140 48.5960159302
19.2409114838 38.6785125732 48.4142761230
19.2970333099 38.7849884033 48.2371139526
19.3598594666 38.9041633606 48.0622978210
19.4201469421 39.0185279846 47.8868064880
19.4701499939 39.1134109497 47.7080764771
19.5057907104 39.1810836792 47.5247077942
19.5265750885 39.2206153870 47.3364868164
19.5341777802 39.2351722717 47.1439056396
19.5313396454 39.2299537659 46.9478378296
19.5224399567 39.2132530212 46.7497100830
19.5146293640 39.1986122131 46.5519256592
19.5168991089 39.2030639648 46.3575363159
19.5367183685 39.2407684326 46.1691360474
19.5767612457 39.3167839050 45.9877128601
19.6338329315 39.4250564575 45.8122444153
19.6999340057 39.5504341125 45.6400413513
19.7648620605 39.6735877991 45.4676055908
19.8196868896 39.7776031494 45.2918243408
19.8596916199 39.8535423279 45.1110115051
19.8850250244 39.9016914368 44.9251556396
19.8990306854 39.9283828735 44.7353782654
19.9059410095 39.9416275024 44.5431289673
19.9093494415 39.9482421875 44.3496513367
19.9117126465 39.9528732300 44.1558036804
19.9143962860 39.9581108093 43.9620742798
19.9178352356 39.9647827148 43.7686157227
19.9215831757 39.9720382690 43.5752754211
19.9241962433 39.9771461487 43.3815269470
19.9234161377 39.9758224487 43.1865539551
19.9171638489 39.9641342163 42.9895782471
19.9053230286 39.9418601990 42.7905426025
19.8908538818 39.9146041870 42.5905036926
19.8787517548 39.8918380737 42.3912963867
19.8738498688 39.8827056885 42.1947059631
19.8797111511 39.8939628601 42.0020904541
19.8988399506 39.9303588867 41.8144226074
19.9323902130 39.9940681458 41.6321830750
19.9789772034 40.0824775696 41.4549140930
20.0344257355 40.1876754761 41.2811012268
20.0935268402 40.2997894287 41.1088066101
20.1525001526 40.4116630554 40.9366188049
20.2100677490 40.5208740234 40.7640533447
20.2665634155 40.6280517578 40.5912284851
20.3219795227 40.7331848145 40.4181327820
20.3737258911 40.8313674927 40.2437782288
20.4154453278 40.9105567932 40.0656890869
20.4394741058 40.9562301636 39.8808631897
20.4428424835 40.9627685547 39.6880760193
20.4316196442 40.9416656494 39.4896125793
20.4183864594 40.9167518616 39.2903251648
20.4143161774 40.9091949463 39.0945930481
20.4229431152 40.9256935120 38.9038429260
20.4407215118 40.9595260620 38.7167243958
20.4622058868 41.0003814697 38.5311164856
20.4841613770 41.0421257019 38.3457489014
20.5060081482 41.0836677551 38.1603927612
20.5281295776 41.1257286072 37.9752006531
20.5505180359 41.1682968140 37.7901687622
20.5726356506 41.2103538513 37.6050834656
20.5937194824 41.2504463196 37.4196357727
20.6128482819 41.2868385315 37.2334442139
20.6293354034 41.3182258606 37.0462265015
20.6436023712 41.3454055786 36.8581428528
20.6577224731 41.3723106384 36.6700286865
20.6748638153 41.4049377441 36.4831924438
20.6977596283 41.4484672546 36.2987709045
20.7269802094 41.5039749146 36.1170196533
20.7603683472 41.5673789978 35.9370765686
20.7943840027 41.6319694519 35.7574768066
20.8259620667 41.6919441223 35.5769424438
20.8530616760 41.7434387207 35.3946151733
20.8742237091 41.7836799622 35.2098579407
20.8886032104 41.8110733032 35.0222930908
20.8968696594 41.8268890381 34.8321762085
20.9023017883 41.8373336792 34.6408691406
20.9105606079 41.8531341553 34.4507789612
20.9266300201 41.8837318420 34.2640419006
20.9509601593 41.9299774170 34.0808830261
20.9793052673 41.9838256836 33.8995132446
21.0068168640 42.0360946655 33.7178535461
21.0319080353 42.0837821960 33.5352134705
21.0567073822 42.1309165955 33.3525123596
21.0847587585 42.1842079163 33.1712875366
21.1178741455 42.2470970154 32.9923439026
21.1540260315 42.3157310486 32.8148155212
21.1880149841 42.3802757263 32.6364288330
21.2146492004 42.4308815002 32.4548873901
21.2314662933 42.4628944397 32.2690773010
21.2390842438 42.4774818420 32.0792236328
21.2401657104 42.4796829224 31.8864822388
21.2385158539 42.4767112732 31.6925182343
21.2382812500 42.4764213562 31.4991798401
21.2430877686 42.4856834412 31.3080978394
21.2556667328 42.5096626282 31.1205215454
21.2777919769 42.5517311096 30.9372844696
21.3098754883 42.6126632690 30.7586097717
21.3505859375 42.6899375916 30.5839347839
21.3972969055 42.7785758972 30.4120979309
21.4464149475 42.8717727661 30.2414817810
21.4928035736 42.9598045349 30.0697422028
21.5300540924 43.0305213928 29.8939228058
21.5531406403 43.0744094849 29.7116718292
21.5615558624 43.0905036926 29.5226974487
21.5600605011 43.0878257751 29.3291473389
21.5566997528 43.0816154480 29.1347198486
21.5593509674 43.0867919922 28.9430809021
21.5723800659 43.1116256714 28.7562980652
21.5950965881 43.1548118591 28.5740871429
21.6229190826 43.2076721191 28.3943347931
21.6502780914 43.2596511841 28.2144336700
21.6733379364 43.3034896851 28.0325679779
21.6911277771 43.3373451233 27.8482608795
21.7047920227 43.3633804321 27.6620330811
21.7159633636 43.3846969604 27.4746475220
21.7256031036 43.4031105042 27.2865543365
21.7340602875 43.4192848206 27.0979156494
21.7420997620 43.4346694946 26.9090957642
21.7519474030 43.4534759521 26.7211608887
21.7672882080 43.4826927185 26.5359077454
21.7918109894 43.5293006897 26.3551445007
21.8266220093 43.5953941345 26.1794490814
21.8682765961 43.6744537354 26.0071792603
21.9096908569 43.7530593872 25.8348979950
21.9438819885 43.8179817200 25.6591835022
21.9674129486 43.8627090454 25.4783115387
21.9809322357 43.8884735107 25.2925605774
21.9875431061 43.9011497498 25.1034240723
21.9911441803 43.9081230164 24.9128074646
21.9955425262 43.9166107178 24.7225933075
22.0038414001 43.9324836731 24.5343303680
22.0176811218 43.9588546753 24.3488559723
22.0369415283 43.9954948425 24.1661300659
22.0604629517 44.0402030945 23.9855918884
22.0871810913 44.0909729004 23.8067264557
22.1163520813 44.1463813782 23.6291656494
22.1467971802 44.2042045593 23.4523239136
22.1765918732 44.2607994080 23.2752304077
22.2038078308 44.3125076294 23.0968971252
22.2273063660 44.3571739197 22.9167346954
22.2465991974 44.3938713074 22.7344760895
22.2612094879 44.4217033386 22.5498619080
22.2709312439 44.4402732849 22.3627662659
22.2768726349 44.4516830444 22.1737384796
22.2814617157 44.4605255127 21.9840240479
22.2867965698 44.4707870483 21.7947025299
22.2932586670 44.4831809998 21.6059780121
22.2999858856 44.4960784912 21.4174041748
22.3062400818 44.5080795288 21.2285957336
22.3120040894 44.5191497803 21.0395431519
22.3177127838 44.5301208496 20.8504714966
22.3238983154 44.5419883728 20.6616611481
22.3310737610 44.5557365417 20.4733867645
22.3397712708 44.5723648071 20.2859325409
22.3505477905 44.5929298401 20.0995998383
22.3637638092 44.6181221008 19.9145908356
22.3791790009 44.6474723816 19.7307853699
22.3959102631 44.6793212891 19.5477218628
22.4133243561 44.7124633789 19.3650646210
22.4321708679 44.7483139038 19.1832199097
22.4544906616 44.7907485962 19.0032920837
22.4820232391 44.8430557251 18.8262367249
22.5144577026 44.9046440125 18.6519069672
22.5488071442 44.9698677063 18.4786987305
22.5801105499 45.0293197632 18.3039226532
22.6032810211 45.0733604431 18.1247844696
22.6156978607 45.0970344543 17.9398212433
22.6188488007 45.1031570435 17.7498035431
22.6172657013 45.1003112793 17.5571880341
22.6156215668 45.0973510742 17.3645286560
22.6167583466 45.0996551514 17.1733970642
22.6219062805 45.1095619202 16.9844856262
22.6319713593 45.1287803650 16.7983131409
22.6483287811 45.1599197388 16.6156654358
22.6723709106 45.2056159973 16.4373435974
22.7039966583 45.2656745911 16.2633228302
22.7403621674 45.3347129822 16.0920410156
22.7764911652 45.4033012390 15.9207191467
22.8075218201 45.4622344971 15.7466182709
22.8307266235 45.5063438416 15.5681772232
22.8458003998 45.5350494385 15.3851909637
22.8537158966 45.5501976013 15.1981792450
22.8554992676 45.5537261963 15.0076951981
22.8521041870 45.5474510193 14.8142614365
22.8453845978 45.5348739624 14.6189117432
22.8388328552 45.5226173401 14.4236364365
22.8367481232 45.5188217163 14.2309036255
22.8421478271 45.5292053223 14.0424661636
22.8554859161 45.5546226501 13.8586177826
22.8754253387 45.5925483704 13.6786184311
22.9005546570 45.6402969360 13.5016736984
22.9300537109 45.6963310242 13.3273324966
22.9628124237 45.7585334778 13.1549615860
22.9958209991 45.8212127686 12.9828214645
23.0236587524 45.8740959167 12.8077411652
23.0407047272 45.9065399170 12.6264028549
23.0453033447 45.9154052734 12.4377937317
