-48.9148941040 12.3026247025 59.4848594666
-48.8923645020 12.2965097427 59.2901840210
-48.8786430359 12.2923498154 59.0966529846
-48.8710403442 12.2895488739 58.9039230347
-48.8665580750 12.2874393463 58.7115974426
-48.8631286621 12.2855625153 58.5194015503
-48.8603057861 12.2838211060 58.3272781372
-48.8595466614 12.2825374603 58.1354255676
-48.8640289307 12.2824172974 57.9442901611
-48.8775901794 12.2843112946 57.7544097900
-48.9028549194 12.2888031006 57.5661697388
-48.9397354126 12.2958745956 57.3795814514
-48.9853019714 12.3048725128 57.1942520142
-49.0349082947 12.3147687912 57.0095481873
-49.0838623047 12.3245191574 56.8248062134
-49.1286506653 12.3333463669 56.6395263672
-49.1669807434 12.3407392502 56.4533729553
-49.1970634460 12.3463020325 56.2660751343
-49.2173805237 12.3496980667 56.0774002075
-49.2272453308 12.3507728577 55.8872261047
-49.2270431519 12.3496141434 55.6955909729
-49.2177658081 12.3464403152 55.5026206970
-49.2006683350 12.3415298462 55.3084793091
-49.1780433655 12.3353929520 55.1134910583
-49.1545066833 12.3290538788 54.9183349609
-49.1367301941 12.3239927292 54.7239990234
-49.1305885315 12.3215131760 54.5313682556
-49.1375465393 12.3219432831 54.3406944275
-49.1538085938 12.3244390488 54.1514282227
-49.1730613708 12.3275985718 53.9626274109
-49.1901054382 12.3302679062 53.7735061646
-49.2024612427 12.3318958282 53.5836830139
-49.2099189758 12.3324365616 53.3931198120
-49.2135810852 12.3321352005 53.2019729614
-49.2153739929 12.3314180374 53.0105323792
-49.2179145813 12.3308677673 52.8192024231
-49.2242317200 12.3311548233 52.6284599304
-49.2369575500 12.3328657150 52.4387207031
-49.2570953369 12.3362216949 52.2501602173
-49.2831802368 12.3408994675 52.0625572205
-49.3116874695 12.3461151123 51.8753623962
-49.3384017944 12.3509311676 51.6879119873
-49.3596267700 12.3545303345 51.4996147156
-49.3725929260 12.3562946320 51.3100051880
-49.3752288818 12.3557653427 51.1187438965
-49.3660736084 12.3526172638 50.9255676270
-49.3446578979 12.3467464447 50.7303810120
-49.3122100830 12.3384246826 50.5333595276
-49.2719726563 12.3283739090 50.3350105286
-49.2282905579 12.3175573349 50.1360397339
-49.1846923828 12.3067588806 49.9370155334
-49.1429290771 12.2963676453 49.7382316589
-49.1043777466 12.2866888046 49.5399208069
-49.0723228455 12.2784538269 49.3426399231
-49.0522956848 12.2728891373 49.1473274231
-49.0499076843 12.2712421417 48.9549484253
-49.0681877136 12.2741861343 48.7660560608
-49.1062240601 12.2815189362 48.5805282593
-49.1593399048 12.2922000885 48.3976097107
-49.2206993103 12.3047142029 48.2161636353
-49.2840499878 12.3176698685 48.0351295471
-49.3460388184 12.3303232193 47.8539352417
-49.4062080383 12.3425741196 47.6725006104
-49.4648933411 12.3544940948 47.4908790588
-49.5212211609 12.3658933640 47.3089141846
-49.5729751587 12.3762741089 47.1262168884
-49.6176223755 12.3850784302 46.9423332214
-49.6532249451 12.3918724060 46.7569046021
-49.6785278320 12.3963785172 46.5696945190
-49.6928863525 12.3984546661 46.3805694580
-49.6965370178 12.3981504440 46.1895484924
-49.6910514832 12.3958168030 45.9968910217
-49.6793708801 12.3921070099 45.8031120300
-49.6651535034 12.3878335953 45.6088523865
-49.6520233154 12.3838014603 45.4147605896
-49.6433181763 12.3807525635 45.2214469910
-49.6422805786 12.3794069290 45.0295143127
-49.6516532898 12.3803739548 44.8394699097
-49.6722717285 12.3838405609 44.6514930725
-49.7018470764 12.3892965317 44.4651794434
-49.7351379395 12.3955783844 44.2795829773
-49.7656478882 12.4012441635 44.0935096741
-49.7877349854 12.4050369263 43.9059028625
-49.7982597351 12.4062604904 43.7161598206
-49.7971038818 12.4048891068 43.5242385864
-49.7862739563 12.4013671875 43.3304901123
-49.7684326172 12.3962879181 43.1354026794
-49.7461853027 12.3902282715 42.9394493103
-49.7221755981 12.3837776184 42.7431259155
-49.6992187500 12.3775596619 42.5469665527
-49.6799507141 12.3721618652 42.3514747620
-49.6663246155 12.3680181503 42.1570281982
-49.6592674255 12.3653335571 41.9638214111
-49.6584320068 12.3640327454 41.7718009949
-49.6621322632 12.3637390137 41.5806465149
-49.6674842834 12.3638124466 41.3898124695
-49.6709175110 12.3634595871 41.1986045837
-49.6688690186 12.3618888855 41.0063209534
-49.6585502625 12.3584794998 40.8124046326
-49.6388130188 12.3529758453 40.6166152954
-49.6111869812 12.3457183838 40.4192352295
-49.5803298950 12.3377437592 40.2211723328
-49.5527954102 12.3305063248 40.0237197876
-49.5341453552 12.3252439499 39.8279991150
-49.5263595581 12.3223962784 39.6344184875
-49.5274810791 12.3215293884 39.4426078796
-49.5335693359 12.3217658997 39.2517929077
-49.5410461426 12.3223104477 39.0612564087
-49.5474853516 12.3226261139 38.8705139160
-49.5509185791 12.3222723007 38.6791610718
-49.5489387512 12.3207149506 38.4867019653
-49.5389328003 12.3173732758 38.2925910950
-49.5196418762 12.3119678497 38.0965538025
-49.4927902222 12.3048801422 37.8989257813
-49.4631462097 12.2971725464 37.7006797791
-49.4365158081 12.2901334763 37.5030136108
-49.4172058105 12.2847223282 37.3068275452
-49.4069213867 12.2813186646 37.1124877930
-49.4051818848 12.2798137665 36.9199180603
-49.4101142883 12.2797927856 36.7287330627
-49.4191169739 12.2806768417 36.5384063721
-49.4293746948 12.2818393707 36.3483505249
-49.4381980896 12.2826843262 36.1579971313
-49.4430732727 12.2826499939 35.9668083191
-49.4416694641 12.2812194824 35.7742805481
-49.4325370789 12.2780704498 35.5800895691
-49.4162940979 12.2733402252 35.3843612671
-49.3962707520 12.2677698135 35.1877861023
-49.3775482178 12.2624874115 34.9914627075
-49.3648986816 12.2585563660 34.7964172363
-49.3611335754 12.2566003799 34.6032791138
-49.3665695190 12.2566909790 34.4121284485
-49.3793373108 12.2584114075 34.2225761414
-49.3960113525 12.2610015869 34.0338897705
-49.4123458862 12.2635164261 33.8451423645
-49.4239616394 12.2649812698 33.6553688049
-49.4271240234 12.2645654678 33.4637374878
-49.4195861816 12.2617702484 33.2697334290
-49.4012031555 12.2565631866 33.0733070374
-49.3739624023 12.2493848801 32.8748703003
-49.3413238525 12.2410068512 32.6751899719
-49.3072891235 12.2323179245 32.4751472473
-49.2756462097 12.2241592407 32.2755851746
-49.2494697571 12.2172174454 32.0772094727
-49.2308158875 12.2119483948 31.8804950714
-49.2205352783 12.2085418701 31.6856441498
-49.2181930542 12.2069005966 31.4925765991
-49.2220954895 12.2066497803 31.3009223938
-49.2294616699 12.2071685791 31.1100578308
-49.2368698120 12.2076959610 30.9192047119
-49.2408256531 12.2074565887 30.7275600433
-49.2383384705 12.2057838440 30.5344276428
-49.2274093628 12.2022323608 30.3393344879
-49.2075538635 12.1966953278 30.1421489716
-49.1799354553 12.1894302368 29.9431266785
-49.1468162537 12.1809406281 29.7427787781
-49.1106491089 12.1717739105 29.5416679382
-49.0736312866 12.1624164581 29.3403034210
-49.0380096436 12.1533699036 29.1392097473
-49.0066757202 12.1452770233 28.9390754700
-48.9831733704 12.1389265060 28.7407436371
-48.9705810547 12.1350040436 28.5449600220
-48.9695854187 12.1336603165 28.3519077301
-48.9769287109 12.1341733932 28.1608352661
-48.9858283997 12.1350326538 27.9701366425
-48.9888191223 12.1345758438 27.7780265808
-48.9814033508 12.1318054199 27.5834121704
-48.9638862610 12.1267843246 27.3863468170
-48.9401931763 12.1203899384 27.1877593994
-48.9152870178 12.1137266159 26.9888420105
-48.8933258057 12.1077175140 26.7905979156
-48.8773460388 12.1030387878 26.5937747955
-48.8696441650 12.1002025604 26.3989448547
-48.8719520569 12.0995941162 26.2065486908
-48.8852577209 12.1014337540 26.0168476105
-48.9095077515 12.1057081223 25.8298492432
-48.9432716370 12.1121006012 25.6452217102
-48.9833450317 12.1198978424 25.4621925354
-49.0244407654 12.1279220581 25.2794609070
-49.0597534180 12.1346607208 25.0953388214
-49.0826759338 12.1386413574 24.9081649780
-49.0889587402 12.1389179230 24.7168521881
-49.0782966614 12.1354227066 24.5212936401
-49.0549430847 12.1291027069 24.3225250244
-49.0273971558 12.1218490601 24.1226615906
-49.0067672729 12.1161346436 23.9245033264
-49.0032844543 12.1142368317 23.7306518555
-49.0218658447 12.1172513962 23.5423927307
-49.0598106384 12.1245756149 23.3590774536
-49.1091918945 12.1344470978 23.1787242889
-49.1622772217 12.1451435089 22.9993743896
-49.2152252197 12.1558084488 22.8200492859
-49.2680664063 12.1664505005 22.6407604218
-49.3230056763 12.1775598526 22.4620723724
-49.3829994202 12.1897964478 22.2847557068
-49.4506263733 12.2037305832 22.1094856262
-49.5267295837 12.2195539474 21.9364986420
-49.6093406677 12.2368268967 21.7652988434
-49.6935157776 12.2544469833 21.5946063995
-49.7723464966 12.2708787918 21.4226169586
-49.8390846252 12.2846193314 21.2475509644
-49.8894691467 12.2947177887 21.0682640076
-49.9228477478 12.3010311127 20.8845520020
-49.9413414001 12.3040294647 20.6969394684
-49.9481430054 12.3044242859 20.5062484741
-49.9467697144 12.3029994965 20.3133869171
-49.9415130615 12.3007097244 20.1194820404
-49.9378623962 12.2987766266 19.9259910583
-49.9419403076 12.2985649109 19.7345561981
-49.9591331482 12.3012742996 19.5466365814
-49.9925956726 12.3076066971 19.3631076813
-50.0425338745 12.3176078796 19.1840515137
-50.1063880920 12.3307094574 19.0088157654
-50.1796379089 12.3459033966 18.8361988068
-50.2565803528 12.3619203568 18.6646709442
-50.3310699463 12.3773908615 18.4925689697
-50.3975105286 12.3910703659 18.3183612823
-50.4520072937 12.4020900726 18.1409683228
-50.4931869507 12.4101438522 17.9599876404
-50.5221366882 12.4154739380 17.7756938934
-50.5417022705 12.4187135696 17.5888481140
-50.5557441711 12.4207229614 17.4004936218
-50.5686912537 12.4224891663 17.2118492126
-50.5851783752 12.4250440598 17.0241947174
-50.6093215942 12.4293041229 16.8386840820
-50.6436424255 12.4358301163 16.6560306549
-50.6883239746 12.4446659088 16.4763088226
-50.7412033081 12.4553279877 16.2989311218
-50.7980766296 12.4668798447 16.1227378845
-50.8532409668 12.4780521393 15.9461297989
-50.9008789063 12.4875469208 15.7674646378
-50.9371147156 12.4945020676 15.5856323242
-50.9610824585 12.4987249374 15.4003667831
-50.9742469788 12.5005407333 15.2120590210
-50.9790344238 12.5004911423 15.0213775635
-50.9780960083 12.4991645813 14.8290615082
-50.9742050171 12.4971809387 14.6358947754
-50.9702758789 12.4951877594 14.4427042007
-50.9691352844 12.4938173294 14.2503023148
-50.9731330872 12.4935913086 14.0593690872
-50.9835968018 12.4948053360 13.8702983856
-51.0003776550 12.4974279404 13.6830606461
-51.0216255188 12.5010452271 13.4971303940
-51.0440750122 12.5049295425 13.3115682602
-51.0638351440 12.5082149506 13.1252470016
-51.0774765015 12.5101385117 12.9371595383
-51.0829467773 12.5102396011 12.7466936111
-51.0799484253 12.5084543228 12.5537471771
-51.0696525574 12.5050430298 12.3586473465
-51.0540809631 12.5004568100 12.1619758606
-51.0358467102 12.4952754974 11.9644889832
-51.0184936523 12.4902915955 11.7672328949
-51.0067977905 12.4865674973 11.5716218948
-51.0058822632 12.4852457047 11.3791885376
-51.0194740295 12.4871568680 11.1910619736
-51.0487022400 12.4925537109 11.0076074600
-51.0920333862 12.5010929108 10.8283977509
-51.1453704834 12.5118637085 10.6522331238
-51.2022132874 12.5234155655 10.4771833420
-51.2549400330 12.5340499878 10.3009614944
-51.2974243164 12.5424022675 10.1217145920
-51.3273124695 12.5479469299 9.9387102127
-51.3463325500 12.5510702133 9.7524480820
-51.3586425781 12.5526971817 9.5641689301
-51.3684959412 12.5537767410 9.3751506805
-51.3788871765 12.5549764633 9.1863012314
-51.3918724060 12.5567541122 8.9982509613
-51.4096412659 12.5595989227 8.8116741180
-51.4349212646 12.5641174316 8.6274156570
-51.4700508118 12.5708312988 8.4462080002
-51.5152587891 12.5797929764 8.2681427002
-51.5674705505 12.5903158188 8.0922899246
-51.6206779480 12.6010618210 7.9168066978
-51.6677970886 12.6104497910 7.7394981384
-51.7029495239 12.6171712875 7.5585284233
-51.7231101990 12.6205501556 7.3729310036
-51.7285156250 12.6206398010 7.1827530861
-51.7220497131 12.6180820465 6.9888639450
-51.7082023621 12.6138782501 6.7926487923
-51.6920089722 12.6091518402 6.5956707001
-51.6779594421 12.6049032211 6.3993391991
-51.6693649292 12.6018714905 6.2047014236
-51.6683311462 12.6005239487 6.0124311447
-51.6760025024 12.6011180878 5.8229060173
-51.6926345825 12.6037101746 5.6362252235
-51.7172508240 12.6080837250 5.4520959854
-51.7470970154 12.6136217117 5.2696552277
-51.7776145935 12.6193113327 5.0874609947
-51.8037338257 12.6240196228 4.9038929939
-51.8219833374 12.6269731522 4.7178306580
-51.8320198059 12.6280956268 4.5291495323
-51.8364601135 12.6279687881 4.3386726379
-51.8393402100 12.6274948120 4.1476931572
-51.8446350098 12.6275596619 3.9574890137
-51.8556861877 12.6289081573 3.7691473961
-51.8752975464 12.6321659088 3.5835876465
-51.9055786133 12.6378030777 3.4015130997
-51.9473495483 12.6460037231 3.2232108116
-51.9993820190 12.6564912796 3.0483014584
-52.0579338074 12.6684350967 2.8755841255
-52.1172485352 12.6805496216 2.7031865120
-52.1712036133 12.6914682388 2.5290989876
-52.2152366638 12.7001743317 2.3518133163
-52.2472724915 12.7062044144 2.1706252098
-52.2672195435 12.7095384598 1.9854807854
-52.2759246826 12.7103652954 1.7966367006
-52.2743415833 12.7088975906 1.6043879986
-52.2630844116 12.7052717209 1.4089176655
-52.2421951294 12.6994962692 1.2102205753
-52.2112617493 12.6914815903 1.0081406832
-52.1702842712 12.6812248230 0.8026578426
-52.1212882996 12.6691780090 0.5944302678
-52.0695114136 12.6565122604 0.3852001727
-52.0224685669 12.6449012756 0.1774842739
-36.5508232117 -38.9313354492 75.6012191772
-36.5471611023 -38.9253921509 75.4107360840
-36.5452346802 -38.9213600159 75.2204132080
-36.5518264771 -38.9267005920 75.0308990479
-36.5689659119 -38.9436569214 74.8424224854
-36.5934448242 -38.9686927795 74.6546859741
-36.6198005676 -38.9957923889 74.4671783447
-36.6429977417 -39.0194168091 74.2793884277
-36.6595191956 -39.0356941223 74.0909576416
-36.6676864624 -39.0427703857 73.9016876221
-36.6674995422 -39.0406532288 73.7115707397
-36.6597328186 -39.0301933289 73.5206527710
-36.6451148987 -39.0121917725 73.3289947510
-36.6245384216 -38.9876289368 73.1366729736
-36.5998191833 -38.9585037231 72.9438629150
-36.5735969543 -38.9277267456 72.7508392334
-36.5483818054 -38.8980560303 72.5578689575
-36.5258789063 -38.8713684082 72.3651428223
-36.5073127747 -38.8490180969 72.1727981567
-36.4937362671 -38.8321609497 71.9809722900
-36.4853858948 -38.8210563660 71.7897033691
-36.4806556702 -38.8139305115 71.5988082886
-36.4761352539 -38.8070449829 71.4079284668
-36.4679183960 -38.7960815430 71.2166061401
-36.4529762268 -38.7777214050 71.0244827271
-36.4300918579 -38.7506103516 70.8314056396
-36.4001884460 -38.7157745361 70.6374511719
-36.3658370972 -38.6760406494 70.4429092407
-36.3300361633 -38.6347084045 70.2481307983
-36.2952651978 -38.5945129395 70.0533981323
-36.2634773254 -38.5576019287 69.8589630127
-36.2363243103 -38.5257873535 69.6650161743
-36.2148475647 -38.5002250671 69.4717178345
-36.1990470886 -38.4809150696 69.2790679932
-36.1878814697 -38.4667015076 69.0869674683
-36.1796569824 -38.4557304382 68.8951950073
-36.1725845337 -38.4460220337 68.7035522461
-36.1650695801 -38.4358329773 68.5118331909
-36.1555290222 -38.4234123230 68.3198318481
-36.1419105530 -38.4064979553 68.1272811890
-36.1217689514 -38.3824043274 67.9338455200
-36.0932922363 -38.3491325378 67.7392807007
-36.0564346313 -38.3066291809 67.5435562134
-36.0130958557 -38.2569885254 67.3469009399
-35.9661445618 -38.2033729553 67.1496810913
-35.9180526733 -38.1484947205 66.9522171021
-35.8699951172 -38.0936584473 66.7546615601
-35.8220520020 -38.0389442444 66.5570220947
-35.7741699219 -37.9842987061 66.3593063354
-35.7272377014 -37.9306983948 66.1616210938
-35.6834449768 -37.8805541992 65.9642868042
-35.6455574036 -37.8369102478 65.7676849365
-35.6154594421 -37.8018455505 65.5720977783
-35.5932197571 -37.7754287720 65.3775634766
-35.5775566101 -37.7562561035 65.1839141846
-35.5670318604 -37.7427444458 64.9909667969
-35.5605773926 -37.7337112427 64.7985687256
-35.5571403503 -37.7280044556 64.6065979004
-35.5554199219 -37.7241821289 64.4148559570
-35.5540809631 -37.7207794189 64.2231597900
-35.5521812439 -37.7167663574 64.0313720703
-35.5492973328 -37.7116661072 63.8394279480
-35.5453758240 -37.7054176331 63.6473121643
-35.5405311584 -37.6981620789 63.4550437927
-35.5349044800 -37.6900405884 63.2626380920
-35.5284881592 -37.6810455322 63.0700988770
-35.5210227966 -37.6708984375 62.8773765564
-35.5120048523 -37.6590423584 62.6843948364
-35.5008316040 -37.6448097229 62.4910545349
-35.4870109558 -37.6276626587 62.2972755432
-35.4703559875 -37.6073951721 62.1030197144
-35.4509696960 -37.5841178894 61.9082946777
-35.4289321899 -37.5579185486 61.7131080627
-35.4039840698 -37.5285148621 61.5174140930
-35.3756980896 -37.4954338074 61.3211326599
-35.3439636230 -37.4585533142 61.1242370605
-35.3094863892 -37.4186553955 60.9268341064
-35.2741775513 -37.3778381348 60.7292289734
-35.2410736084 -37.3394470215 60.5319099426
-35.2137107849 -37.3073806763 60.3354644775
-35.1952133179 -37.2850761414 60.1404304504
-35.1877174377 -37.2748870850 59.9471817017
-35.1921386719 -37.2778282166 59.7559013367
-35.2078132629 -37.2931632996 59.5665092468
-35.2318992615 -37.3177642822 59.3785552979
-35.2596588135 -37.3464088440 59.1912574768
-35.2861137390 -37.3736190796 59.0037803650
-35.3080863953 -37.3958892822 58.8155708313
-35.3250160217 -37.4126091003 58.6265258789
-35.3384742737 -37.4255027771 58.4369010925
-35.3510246277 -37.4373970032 58.2471351624
-35.3650016785 -37.4508666992 58.0576286316
-35.3815193176 -37.4671325684 57.8685874939
-35.4002265930 -37.4858055115 57.6799545288
-35.4201812744 -37.5058555603 57.4915657043
-35.4410095215 -37.5268745422 57.3033638000
-35.4628829956 -37.5490417480 57.1153755188
-35.4850273132 -37.5715026855 56.9274673462
-35.5044288635 -37.5909461975 56.7390937805
-35.5164146423 -37.6022224426 56.5493927002
-35.5169639587 -37.6008987427 56.3576164246
-35.5047760010 -37.5855445862 56.1634864807
-35.4816703796 -37.5581588745 55.9673118591
-35.4513092041 -37.5227851868 55.7697410583
-35.4177093506 -37.4838371277 55.5715026855
-35.3846626282 -37.4455032349 55.3732986450
-35.3557319641 -37.4117012024 55.1758041382
-35.3337669373 -37.3855705261 54.9795684814
-35.3202247620 -37.3687210083 54.7848854065
-35.3149833679 -37.3610191345 54.5917549133
-35.3167915344 -37.3610763550 54.3999557495
-35.3237953186 -37.3668632507 54.2091560364
-35.3339309692 -37.3760948181 54.0189666748
-35.3451843262 -37.3865623474 53.8290061951
-35.3558044434 -37.3963356018 53.6389312744
-35.3645706177 -37.4040603638 53.4485054016
-35.3711471558 -37.4093742371 53.2576522827
-35.3763656616 -37.4131927490 53.0665359497
-35.3819770813 -37.4174423218 52.8754959106
-35.3899383545 -37.4242820740 52.6849288940
-35.4017524719 -37.4353637695 52.4951400757
-35.4182243347 -37.4515838623 52.3063011169
-35.4395332336 -37.4731292725 52.1184654236
-35.4650077820 -37.4992637634 51.9315071106
-35.4928245544 -37.5279846191 51.7450637817
-35.5201644897 -37.5561752319 51.5585632324
-35.5436210632 -37.5800933838 51.3713035583
-35.5590667725 -37.5951805115 51.1824150085
-35.5612640381 -37.5956687927 50.9907951355
-35.5445823669 -37.5753593445 50.7952270508
-35.5051841736 -37.5300140381 50.5948600769
-35.4430351257 -37.4596023560 50.3896217346
-35.3621597290 -37.3685569763 50.1803054810
-35.2693824768 -37.2643928528 49.9683113098
-35.1730079651 -37.1562614441 49.7553710938
-35.0819549561 -37.0539932251 49.5433959961
-35.0045890808 -36.9668083191 49.3341903687
-34.9472618103 -36.9016990662 49.1291656494
-34.9135856628 -36.8626556396 48.9291572571
-34.9048080444 -36.8510475159 48.7345008850
-34.9205436707 -36.8664474487 48.5451774597
-34.9591789246 -36.9070854187 48.3609008789
-35.0177726746 -36.9697151184 48.1810798645
-35.0917739868 -37.0493278503 48.0047683716
-35.1751670837 -37.1392898560 47.8306617737
-35.2616539001 -37.2326622009 47.6573905945
-35.3464546204 -37.3241806030 47.4838829041
-35.4273719788 -37.4114189148 47.3096466064
-35.5038566589 -37.4937705994 47.1345481873
-35.5750007629 -37.5702438354 46.9583625793
-35.6384239197 -37.6382064819 46.7805404663
-35.6911048889 -37.6943283081 46.6003723145
-35.7313232422 -37.7367210388 46.4174308777
-35.7600975037 -37.7665023804 46.2319183350
-35.7809562683 -37.7875595093 46.0446166992
-35.7983016968 -37.8047447205 45.8565330505
-35.8155364990 -37.8218078613 45.6684455872
-35.8340110779 -37.8402366638 45.4806671143
-35.8531723022 -37.8594245911 45.2930755615
-35.8716812134 -37.8778915405 45.1053581238
-35.8885116577 -37.8945121765 44.9172668457
-35.9030456543 -37.9085998535 44.7286529541
-35.9141921997 -37.9189529419 44.5392494202
-35.9199676514 -37.9233894348 44.3485717773
-35.9183120728 -37.9196357727 44.1561164856
-35.9084358215 -37.9068183899 43.9616661072
-35.8915367126 -37.8862609863 43.7654914856
-35.8705902100 -37.8612442017 43.5682983398
-35.8493652344 -37.8359184265 43.3709907532
-35.8311271667 -37.8138809204 43.1743659973
-35.8179168701 -37.7973899841 42.9789352417
-35.8107299805 -37.7875366211 42.7849540710
-35.8100204468 -37.7848243713 42.5925559998
-35.8160400391 -37.7895240784 42.4018135071
-35.8287391663 -37.8015899658 42.2127342224
-35.8473434448 -37.8201637268 42.0251464844
-35.8696975708 -37.8428726196 41.8385238647
-35.8920669556 -37.8655967712 41.6519355774
-35.9100189209 -37.8834571838 41.4642639160
-35.9200477600 -37.8925781250 41.2746086121
-35.9209403992 -37.8916282654 41.0826377869
-35.9143638611 -37.8824501038 40.8887596130
-35.9045143127 -37.8696556091 40.6940193176
-35.8968544006 -37.8592834473 40.4998130798
-35.8962402344 -37.8566703796 40.3074035645
-35.9052429199 -37.8646659851 40.1174736023
-35.9236526489 -37.8830261230 39.9299926758
-35.9491157532 -37.9091644287 39.7443771362
-35.9781417847 -37.9392280579 39.5597229004
-36.0067291260 -37.9688110352 39.3750038147
-36.0309906006 -37.9936256409 39.1891822815
-36.0479125977 -38.0103492737 39.0014610291
-36.0559082031 -38.0172309875 38.8113975525
-36.0547599792 -38.0140342712 38.6189079285
-36.0452728271 -38.0016441345 38.4241828918
-36.0291786194 -37.9819679260 38.2276649475
-36.0094718933 -37.9583091736 38.0301361084
-35.9907417297 -37.9357299805 37.8328323364
-35.9783973694 -37.9201850891 37.6372070313
-35.9765243530 -37.9161872864 37.4443969727
-35.9860496521 -37.9247550964 37.2546730042
-36.0046958923 -37.9433784485 37.0674476624
-36.0282135010 -37.9673767090 36.8815841675
-36.0516510010 -37.9912834167 36.6957283020
-36.0704383850 -38.0100631714 36.5086250305
-36.0815238953 -38.0203514099 36.3194160461
-36.0839805603 -38.0211296082 36.1278266907
-36.0787620544 -38.0134429932 35.9340972900
-36.0680999756 -37.9997558594 35.7388267517
-36.0548973083 -37.9832649231 35.5428199768
-36.0424003601 -37.9675521851 35.3469772339
-36.0344085693 -37.9568061829 35.1523742676
-36.0351181030 -37.9556541443 34.9602088928
-36.0475273132 -37.9674034119 34.7713584900
-36.0711059570 -37.9914665222 34.5856971741
-36.1009712219 -38.0224647522 34.4018669128
-36.1296386719 -38.0521392822 34.2177391052
-36.1500282288 -38.0726928711 34.0312728882
-36.1579704285 -38.0795135498 33.8412513733
-36.1531028748 -38.0722122192 33.6475296021
-36.1381797791 -38.0538253784 33.4508743286
-36.1177749634 -38.0293922424 33.2525901794
-36.0975532532 -38.0051574707 33.0543136597
-36.0838012695 -37.9880638123 32.8578910828
-36.0821609497 -37.9843177795 32.6649856567
-36.0956153870 -37.9972229004 32.4765129089
-36.1232872009 -38.0257987976 32.2922554016
-36.1608581543 -38.0652961731 32.1109733582
-36.2019653320 -38.1086959839 31.9307994843
-36.2395019531 -38.1481552124 31.7496280670
-36.2669639587 -38.1765060425 31.5655021667
-36.2803039551 -38.1892814636 31.3771820068
-36.2795677185 -38.1865386963 31.1846466064
-36.2687072754 -38.1726303101 30.9890460968
-36.2534484863 -38.1538696289 30.7920894623
-36.2387809753 -38.1357574463 30.5952739716
-36.2277679443 -38.1216812134 30.3995380402
-36.2218856812 -38.1132583618 30.2053375244
-36.2217483521 -38.1111717224 30.0128765106
-36.2275009155 -38.1155853271 29.8222179413
-36.2388038635 -38.1261138916 29.6332664490
-36.2546844482 -38.1416931152 29.4457416534
-36.2734909058 -38.1604995728 29.2591419220
-36.2929077148 -38.1799774170 29.0727577209
-36.3101692200 -38.1970863342 28.8857288361
-36.3225135803 -38.2087631226 28.6971855164
-36.3276519775 -38.2124977112 28.5063991547
-36.3241653442 -38.2067146301 28.3129024506
-36.3117332458 -38.1910743713 28.1165752411
-36.2914581299 -38.1667785645 27.9177398682
-36.2662162781 -38.1370048523 27.7172851563
-36.2405776978 -38.1067886353 27.5166492462
-36.2197532654 -38.0818862915 27.3174953461
-36.2081375122 -38.0671348572 27.1212348938
-36.2084121704 -38.0655059814 26.9287586212
-36.2214088440 -38.0779037476 26.7403583527
-36.2457046509 -38.1027641296 26.5556144714
-36.2769432068 -38.1352882385 26.3731498718
-36.3080711365 -38.1676826477 26.1906948090
-36.3317489624 -38.1918678284 26.0058689117
-36.3439216614 -38.2033615112 25.8173274994
-36.3459243774 -38.2036323547 25.6254768372
-36.3438110352 -38.1993675232 25.4322738647
-36.3455162048 -38.1993103027 25.2403125763
-36.3571395874 -38.2102012634 25.0516128540
-36.3802680969 -38.2337760925 24.8667240143
-36.4119300842 -38.2667655945 24.6846942902
-36.4470062256 -38.3035240173 24.5038452148
-36.4805641174 -38.3386077881 24.3225479126
-36.5086746216 -38.3676795959 24.1394805908
-36.5282020569 -38.3872871399 23.9535846710
-36.5368423462 -38.3948860168 23.7640609741
-36.5335540771 -38.3893241882 23.5705280304
-36.5189361572 -38.3712654114 23.3731613159
-36.4953727722 -38.3433380127 23.1727313995
-36.4671134949 -38.3102264404 22.9706573486
-36.4400062561 -38.2783851624 22.7689170837
-36.4199447632 -38.2543182373 22.5695209503
-36.4104652405 -38.2419281006 22.3737010956
-36.4113540649 -38.2409706116 22.1814060211
-36.4193153381 -38.2478179932 21.9915370941
-36.4297561646 -38.2574005127 21.8025283813
-36.4382247925 -38.2648086548 21.6128482819
-36.4412612915 -38.2662200928 21.4212932587
-36.4369697571 -38.2595481873 21.2271900177
-36.4255332947 -38.2449989319 21.0305843353
-36.4095916748 -38.2254753113 20.8323764801
-36.3940315247 -38.2063713074 20.6342639923
-36.3847541809 -38.1941947937 20.4383182526
-36.3867149353 -38.1944236755 20.2463035583
-36.4025001526 -38.2098999023 20.0591564178
-36.4321899414 -38.2407226563 19.8769474030
-36.4741973877 -38.2851295471 19.6991481781
-36.5257606506 -38.3400878906 19.5248107910
-36.5828094482 -38.4010925293 19.3525104523
-36.6399841309 -38.4622421265 19.1803512573
-36.6915817261 -38.5172386169 19.0062885284
-36.7327690125 -38.5607452393 18.8285732269
-36.7601776123 -38.5890541077 18.6459655762
-36.7719116211 -38.6000671387 18.4577445984
-36.7676391602 -38.5934181213 18.2637462616
-36.7493133545 -38.5712623596 18.0646381378
-36.7220115662 -38.5391998291 17.8622264862
-36.6936035156 -38.5059242249 17.6593570709
-36.6728134155 -38.4810447693 17.4592056274
-36.6665992737 -38.4722518921 17.2643470764
-36.6782302856 -38.4831504822 17.0760173798
-36.7064743042 -38.5123825073 16.8938140869
-36.7462615967 -38.5543479919 16.7159080505
-36.7905311584 -38.6012649536 16.5397224426
-36.8323516846 -38.6454772949 16.3627014160
-36.8661117554 -38.6807937622 16.1827507019
-36.8878173828 -38.7028160095 15.9983644485
-36.8953018188 -38.7091369629 15.8086996078
-36.8886489868 -38.6998596191 15.6137495041
-36.8705253601 -38.6779289246 15.4144773483
-36.8459396362 -38.6488609314 15.2127332687
-36.8213272095 -38.6197662354 15.0109272003
-36.8031578064 -38.5977783203 14.8115015030
-36.7963752747 -38.5883598328 14.6163482666
-36.8031883240 -38.5939407349 14.4263334274
-36.8222999573 -38.6130981445 14.2410020828
-36.8488655090 -38.6404762268 14.0585393906
-36.8756256104 -38.6680755615 13.8761901855
-36.8953132629 -38.6878623962 13.6911697388
-36.9030036926 -38.6944160461 13.5015697479
-36.8973007202 -38.6861877441 13.3068180084
-36.8803367615 -38.6655273438 13.1077032089
-36.8570976257 -38.6379470825 12.9061222076
-36.8341979980 -38.6107368469 12.7046232224
-36.8186416626 -38.5916328430 12.5059270859
-36.8169746399 -38.5878562927 12.3126029968
-36.8341178894 -38.6048393250 12.1266107559
-36.8713684082 -38.6440162659 11.9485082626
-36.9247741699 -38.7010231018 11.7767992020
-36.9856262207 -38.7662467957 11.6081027985
-37.0435180664 -38.8282089233 11.4383430481
-37.0903205872 -38.8779296875 11.2642993927
-37.1221885681 -38.9111709595 11.0844221115
-37.1386833191 -38.9274406433 10.8984947205
-37.1410179138 -38.9280853271 10.7069597244
-37.1317367554 -38.9159049988 10.5107908249
-37.1149711609 -38.8954658508 10.3116102219
-37.0955734253 -38.8721199036 10.1113367081
-37.0775909424 -38.8503379822 9.9115877151
-37.0640220642 -38.8334236145 9.7135715485
-37.0577392578 -38.8245506287 9.5184583664
-37.0619316101 -38.8272438049 9.3275566101
-37.0792007446 -38.8443679810 9.1419448853
-37.1097793579 -38.8761863708 8.9617557526
-37.1503562927 -38.9190406799 8.7856769562
-37.1947097778 -38.9660644531 8.6112012863
-37.2360839844 -39.0098037720 8.4355812073
-37.2694129944 -39.0446548462 8.2567329407
-37.2920150757 -39.0676727295 8.0735378265
-37.3034172058 -39.0783271790 7.8857722282
-37.3051948547 -39.0783538818 7.6940531731
-37.3005638123 -39.0713081360 7.4996833801
-37.2934646606 -39.0615348816 7.3042755127
-37.2876930237 -39.0532302856 7.1093964577
-37.2863311768 -39.0497932434 6.9163312912
-37.2910385132 -39.0530509949 6.7257819176
-37.3013496399 -39.0625000000 6.5375714302
-37.3149261475 -39.0755538940 6.3507370949
-37.3289527893 -39.0890998840 6.1641058922
-37.3417892456 -39.1013412476 5.9769935608
-37.3537101746 -39.1125640869 5.7895097733
-37.3660125732 -39.1242141724 5.6021995544
-37.3793334961 -39.1369819641 5.4153332710
-37.3929252625 -39.1500549316 5.2285971642
-37.4057197571 -39.1622428894 5.0415387154
-37.4177513123 -39.1735954285 4.8541703224
-37.4301910400 -39.1853904724 4.6669878960
-37.4441795349 -39.1989021301 4.4804830551
-37.4601364136 -39.2145843506 4.2948365211
-37.4779930115 -39.2323646545 4.1100249290
-37.4976005554 -39.2520751953 3.9259896278
-37.5186805725 -39.2734184265 3.7426166534
-37.5406036377 -39.2956886292 3.5596358776
-37.5621719360 -39.3175697327 3.3765339851
-37.5814170837 -39.3368797302 3.1924531460
-37.5957374573 -39.3507575989 3.0062599182
-37.6030235291 -39.3568687439 2.8170223236
-37.6029624939 -39.3548660278 2.6245844364
-37.5970916748 -39.3464508057 2.4295980930
-37.5877113342 -39.3341560364 2.2330546379
-37.5772438049 -39.3206672668 2.0360100269
-37.5686187744 -39.3092079163 1.8397469521
-37.5654563904 -39.3037796021 1.6458680630
-37.5713195801 -39.3083229065 1.4559615850
-37.5886535645 -39.3255233765 1.2711318731
-37.6182708740 -39.3562965393 1.0917727947
-37.6593780518 -39.3997535706 0.9175636768
-37.7096214294 -39.4533004761 0.7474876642
-37.7651672363 -39.5127029419 0.5798589587
-37.8210601807 -39.5724868774 0.4124774337
-37.8721351624 -39.6269531250 0.2430288494
-37.9143257141 -39.6716117859 0.0696769729
-46.1133918762 25.7069339752 74.7904815674
-46.1399917603 25.7195644379 74.6032485962
-46.1766128540 25.7374114990 74.4169692993
-46.2092666626 25.7531929016 74.2303619385
-46.2293128967 25.7624130249 74.0426177979
-46.2350997925 25.7642116547 73.8535614014
-46.2285385132 25.7595844269 73.6633377075
-46.2114639282 25.7494831085 73.4720993042
-46.1843147278 25.7341384888 73.2798614502
-46.1469993591 25.7134990692 73.0865936279
-46.1005401611 25.6881046295 72.8923797607
-46.0480651855 25.6595764160 72.6975021362
-45.9944229126 25.6304397583 72.5024261475
-45.9449882507 25.6034927368 72.3076858521
-45.9045562744 25.5812320709 72.1137695313
-45.8765182495 25.5654220581 71.9210357666
-45.8622741699 25.5567913055 71.7296524048
-45.8610916138 25.5549602509 71.5395812988
-45.8703689575 25.5585727692 71.3505783081
-45.8858833313 25.5654335022 71.1622238159
-45.9020271301 25.5726222992 70.9739532471
-45.9126091003 25.5769138336 70.7851104736
-45.9126243591 25.5757083893 70.5951614380
-45.8999862671 25.5679130554 70.4038543701
-45.8755264282 25.5539627075 70.2112503052
-45.8414077759 25.5349864960 70.0175704956
-45.7996482849 25.5120296478 69.8229980469
-45.7520217896 25.4860191345 69.6277160645
-45.7007751465 25.4581241608 69.4319686890
-45.6489257813 25.4299163818 69.2360687256
-45.5995712280 25.4030036926 69.0403671265
-45.5550117493 25.3785877228 68.8451232910
-45.5165939331 25.3573703766 68.6505050659
-45.4848937988 25.3396492004 68.4565887451
-45.4590797424 25.3249912262 68.2632904053
-45.4358558655 25.3116817474 68.0702438354
-45.4097175598 25.2968559265 67.8768234253
-45.3748397827 25.2774772644 67.6823348999
-45.3271217346 25.2514152527 67.4862899780
-45.2653427124 25.2180309296 67.2885131836
-45.1915130615 25.1783733368 67.0892105103
-45.1105422974 25.1349964142 66.8889465332
-45.0290412903 25.0913410187 66.6884918213
-44.9532852173 25.0506782532 66.4886093140
-44.8870239258 25.0149574280 66.2897644043
-44.8303184509 24.9842109680 66.0919876099
-44.7802162170 24.9569015503 65.8949279785
-44.7328796387 24.9310321808 65.6981353760
-44.6856575012 24.9052238464 65.5012817383
-44.6376190186 24.8789882660 65.3042526245
-44.5885124207 24.8521938324 65.1070098877
-44.5378074646 24.8245697021 64.9094924927
-44.4848442078 24.7957687378 64.7116012573
-44.4294509888 24.7656993866 64.5133209229
-44.3720474243 24.7345848083 64.3146972656
-44.3133544922 24.7028007507 64.1158142090
-44.2541389465 24.6707401276 63.9167747498
-44.1953315735 24.6388931274 63.7176971436
-44.1383972168 24.6080226898 63.5187759399
-44.0853614807 24.5791778564 63.3202781677
-44.0385093689 24.5535545349 63.1225166321
-44.0002441406 24.5324020386 62.9258308411
-43.9729614258 24.5169696808 62.7305526733
-43.9585304260 24.5082263947 62.5369644165
-43.9574699402 24.5064468384 62.3451576233
-43.9684562683 24.5109443665 62.1549835205
-43.9884529114 24.5201301575 61.9660530090
-44.0135955811 24.5319976807 61.7778511047
-44.0404014587 24.5447292328 61.5899047852
-44.0661582947 24.5569171906 61.4018440247
-44.0884208679 24.5672836304 61.2133255005
-44.1047248840 24.5745487213 61.0239906311
-44.1135330200 24.5779094696 60.8336143494
-44.1154899597 24.5777015686 60.6422729492
-44.1133346558 24.5753517151 60.4503364563
-44.1105499268 24.5726776123 60.2583007813
-44.1101608276 24.5712471008 60.0665969849
-44.1144409180 24.5722503662 59.8755607605
-44.1249580383 24.5764999390 59.6854324341
-44.1422843933 24.5842971802 59.4963073730
-44.1655769348 24.5952014923 59.3080711365
-44.1923179626 24.6079025269 59.1203727722
-44.2184028625 24.6202621460 58.9326057434
-44.2387390137 24.6296272278 58.7440147400
-44.2485847473 24.6335315704 58.5538711548
-44.2452239990 24.6305522919 58.3617477417
-44.2289581299 24.6208553314 58.1676597595
-44.2029800415 24.6060981750 57.9720649719
-44.1723060608 24.5888938904 57.7757110596
-44.1423072815 24.5720424652 57.5794067383
-44.1173324585 24.5578060150 57.3838272095
-44.0998573303 24.5474758148 57.1893653870
-44.0904464722 24.5413475037 56.9961242676
-44.0882263184 24.5389633179 56.8039855957
-44.0912742615 24.5393238068 56.6126632690
-44.0968894958 24.5410213470 56.4217414856
-44.1020126343 24.5424613953 56.2307395935
-44.1040229797 24.5422821045 56.0392456055
-44.1016921997 24.5398387909 55.8470497131
-44.0960197449 24.5356559753 55.6543083191
-44.0906181335 24.5316143036 55.4615974426
-44.0911102295 24.5306434631 55.2698211670
-44.1032791138 24.5357551575 55.0799369812
-44.1308593750 24.5488929749 54.8925781250
-44.1744270325 24.5703620911 54.7078742981
-44.2316284180 24.5989341736 54.5254707336
-44.2979202271 24.6322402954 54.3446388245
-44.3674201965 24.6672191620 54.1644325256
-44.4339065552 24.7006282806 53.9838104248
-44.4917755127 24.7295494080 53.8018341064
-44.5369148254 24.7518386841 53.6177902222
-44.5673446655 24.7664642334 53.4313163757
-44.5833930969 24.7735996246 53.2424392700
-44.5872650146 24.7743911743 53.0515022278
-44.5824737549 24.7706680298 52.8590812683
-44.5732269287 24.7646255493 52.6658782959
-44.5637741089 24.7584724426 52.4726219177
-44.5577316284 24.7540988922 52.2799339294
-44.5576553345 24.7528324127 52.0882644653
-44.5647621155 24.7553081512 51.8978462219
-44.5788040161 24.7613964081 51.7086448669
-44.5979919434 24.7701683044 51.5203590393
-44.6190414429 24.7799091339 51.3324241638
-44.6375808716 24.7883434296 51.1440658569
-44.6491813660 24.7931594849 50.9544906616
-44.6507568359 24.7927532196 50.7631301880
-44.6416282654 24.7867698669 50.5698432922
-44.6235122681 24.7761058807 50.3749122620
-44.5995674133 24.7624015808 50.1788940430
-44.5730819702 24.7473735809 49.9823684692
-44.5465965271 24.7323474884 49.7858009338
-44.5217399597 24.7181682587 49.5894851685
-44.4997138977 24.7054634094 49.3936500549
-44.4819030762 24.6949558258 49.1985511780
-44.4701690674 24.6876144409 49.0045433044
-44.4666366577 24.6845455170 48.8120384216
-44.4728088379 24.6865329742 48.6213340759
-44.4885177612 24.6934928894 48.4324188232
-44.5117645264 24.7043762207 48.2449340820
-44.5398559570 24.7177867889 48.0583915710
-44.5707893372 24.7326793671 47.8724212646
-44.6036529541 24.7485771179 47.6868515015
-44.6381568909 24.7653293610 47.5016365051
-44.6739578247 24.7827587128 47.3167114258
-44.7101669312 24.8003997803 47.1319084167
-44.7450942993 24.8173732758 46.9468994141
-44.7764625549 24.8324928284 46.7612419128
-44.8019943237 24.8445720673 46.5744895935
-44.8201026917 24.8527812958 46.3863143921
-44.8304061890 24.8569259644 46.1966285706
-44.8340415955 24.8575935364 46.0056343079
-44.8335609436 24.8561172485 45.8138275146
-44.8324165344 24.8542919159 45.6218795776
-44.8339767456 24.8538780212 45.4304618835
-44.8404731750 24.8560371399 45.2400245667
-44.8521575928 24.8608989716 45.0506248474
-44.8673057556 24.8675670624 44.8619346619
-44.8832893372 24.8746700287 44.6734199524
-44.8980331421 24.8811283112 44.4846763611
-44.9108886719 24.8866004944 44.2955589294
-44.9224128723 24.8913784027 44.1061782837
-44.9332542419 24.8958034515 43.9166717529
-44.9424858093 24.8993873596 43.7268409729
-44.9468574524 24.9004402161 43.5360145569
-44.9424324036 24.8969058990 43.3433647156
-44.9273071289 24.8877944946 43.1484870911
-44.9027976990 24.8737926483 42.9516258240
-44.8722610474 24.8566474915 42.7534599304
-44.8393974304 24.8382911682 42.5547599792
-44.8075141907 24.8204460144 42.3562088013
-44.7793693542 24.8045463562 42.1583938599
-44.7569122314 24.7916145325 41.9617347717
-44.7408180237 24.7819957733 41.7663841248
-44.7301139832 24.7751884460 41.5721549988
-44.7221984863 24.7698326111 41.3784980774
-44.7133483887 24.7639923096 41.1846237183
-44.6998252869 24.7557125092 40.9897193909
-44.6794815063 24.7438793182 40.7933197021
-44.6531677246 24.7289352417 40.5955886841
-44.6247711182 24.7129039764 40.3973579407
-44.5995025635 24.6985015869 40.1997604370
-44.5817451477 24.6880168915 40.0037651062
-44.5740242004 24.6827621460 39.8099365234
-44.5771980286 24.6831855774 39.6184921265
-44.5908432007 24.6890697479 39.4293556213
-44.6130790710 24.6994304657 39.2421340942
-44.6398353577 24.7121486664 39.0559425354
-44.6645240784 24.7237911224 38.8693237305
-44.6793785095 24.7303047180 38.6805267334
-44.6783714294 24.7285518646 38.4881858826
-44.6598663330 24.7176742554 38.2918930054
-44.6267585754 24.6991844177 38.0922660828
-44.5844459534 24.6758956909 37.8904991150
-44.5387573242 24.6508445740 37.6878967285
-44.4950485229 24.6268272400 37.4856719971
-44.4578857422 24.6062221527 37.2848739624
-44.4305000305 24.5907135010 37.0862617493
-44.4142456055 24.5810070038 36.8901634216
-44.4084854126 24.5767726898 36.6964569092
-44.4109230042 24.5768127441 36.5046348572
-44.4180831909 24.5793151855 36.3139038086
-44.4258460999 24.5821323395 36.1233177185
-44.4299316406 24.5830287933 35.9318733215
-44.4263877869 24.5799503326 35.7386398315
-44.4122390747 24.5713405609 35.5428962708
-44.3863410950 24.5566062927 35.3443565369
-44.3501472473 24.5365047455 35.1433334351
-44.3080139160 24.5133037567 34.9408416748
-44.2666549683 24.4905052185 34.7384681702
-44.2333564758 24.4719123840 34.5379486084
-44.2134246826 24.4602851868 34.3405761719
-44.2085494995 24.4565105438 34.1467857361
-44.2172622681 24.4598217010 33.9562568665
-44.2363662720 24.4685497284 33.7682380676
-44.2619667053 24.4806652069 33.5818138123
-44.2900161743 24.4940605164 33.3960189819
-44.3166618347 24.5067195892 33.2099075317
-44.3380813599 24.5166587830 33.0225524902
-44.3501510620 24.5217189789 32.8329277039
-44.3487739563 24.5197677612 32.6400032043
-44.3311614990 24.5093517303 32.4430656433
-44.2968673706 24.4902362823 32.2419700623
-44.2476844788 24.4633560181 32.0371246338
-44.1867141724 24.4303264618 31.8292655945
-44.1172714233 24.3928794861 31.6191997528
-44.0420494080 24.3524188995 31.4075813293
-43.9627799988 24.3098468781 31.1948318481
-43.8806266785 24.2657699585 30.9812355042
-43.7972183228 24.2210369110 30.7671966553
-43.7154502869 24.1771583557 30.5534477234
-43.6394958496 24.1363124847 30.3410472870
-43.5739593506 24.1008968353 30.1311836243
-43.5227394104 24.0729465485 29.9248695374
-43.4883117676 24.0537567139 29.7227764130
-43.4716148376 24.0438098907 29.5251731873
-43.4720993042 24.0428256989 29.3319606781
-43.4878997803 24.0498294830 29.1426925659
-43.5162811279 24.0633926392 28.9566974640
-43.5541038513 24.0818824768 28.7731838226
-43.5978317261 24.1034526825 28.5912532806
-43.6431579590 24.1258544922 28.4097938538
-43.6853370667 24.1466178894 28.2275695801
-43.7206115723 24.1637783051 28.0435848236
-43.7477073669 24.1766738892 27.8574905396
-43.7682037354 24.1861286163 27.6696872711
-43.7858123779 24.1940765381 27.4811420441
-43.8054008484 24.2030563354 27.2931385040
-43.8322486877 24.2158222198 27.1070861816
-43.8709716797 24.2347850800 26.9242305756
-43.9239692688 24.2611923218 26.7452411652
-43.9903144836 24.2945613861 26.5698947906
-44.0660324097 24.3328208923 26.3971557617
-44.1453742981 24.3729705811 26.2254943848
-44.2220802307 24.4117450714 26.0532264709
-44.2903938293 24.4461460114 25.8787879944
-44.3459281921 24.4738807678 25.7009658813
-44.3864517212 24.4937820435 25.5191268921
-44.4127273560 24.5062561035 25.3334484100
-44.4287033081 24.5133552551 25.1449794769
-44.4396057129 24.5178089142 24.9551315308
-44.4483146667 24.5211162567 24.7646884918
-44.4526824951 24.5221614838 24.5730533600
-44.4462432861 24.5175666809 24.3784255981
-44.4216384888 24.5034980774 24.1787414551
-44.3742599487 24.4775485992 23.9726829529
-44.3038787842 24.4395961761 23.7601337433
-44.2138137817 24.3913784027 23.5419750214
-44.1089706421 24.3354473114 23.3195362091
-43.9948081970 24.2746543884 23.0943222046
-43.8776435852 24.2122936249 22.8680934906
-43.7647018433 24.1521358490 22.6428794861
-43.6628379822 24.0977554321 22.4206314087
-43.5770225525 24.0517463684 22.2027854919
-43.5097618103 24.0154190063 21.9900913239
-43.4614181519 23.9889583588 21.7826843262
-43.4308547974 23.9717731476 21.5802879333
-43.4165115356 23.9630489349 21.3824882507
-43.4172668457 23.9622039795 21.1890010834
-43.4322395325 23.9687767029 20.9996032715
-43.4596824646 23.9818534851 20.8138198853
-43.4965705872 23.9998607635 20.6308021545
-43.5399971008 24.0212783813 20.4497299194
-43.5893859863 24.0458087921 20.2704448700
-43.6475982666 24.0749416351 20.0937957764
-43.7200622559 24.1115093231 19.9213905334
-43.8128585815 24.1586894989 19.7550411224
-43.9312438965 24.2192211151 19.5963363647
-44.0787773132 24.2949619293 19.4463806152
-44.2560920715 24.3862419128 19.3054199219
-44.4591178894 24.4909420013 19.1723155975
-44.6781272888 24.6039810181 19.0442371368
-44.8987731934 24.7178783417 18.9169521332
-45.1053466797 24.8244323730 18.7857799530
-45.2851943970 24.9170455933 18.6469078064
-45.4319267273 24.9923782349 18.4983654022
-45.5451736450 25.0502395630 18.3399696350
-45.6279335022 25.0921955109 18.1725540161
-45.6844749451 25.1204681396 17.9973354340
-45.7196388245 25.1375885010 17.8157272339
-45.7384376526 25.1461677551 17.6291980743
-45.7454071045 25.1485729218 17.4390945435
-45.7443351746 25.1467838287 17.2465438843
-45.7385368347 25.1425285339 17.0525417328
-45.7313346863 25.1375408173 16.8580932617
-45.7263145447 25.1336898804 16.6642951965
-45.7270927429 25.1328659058 16.4722652435
-45.7365646362 25.1365776062 16.2829074860
-45.7560806274 25.1455326080 16.0966587067
-45.7850151062 25.1594009399 15.9133462906
-45.8206977844 25.1767921448 15.7321615219
-45.8585968018 25.1953411102 15.5517091751
-45.8928565979 25.2119884491 15.3701686859
-45.9175949097 25.2236709595 15.1856956482
-45.9286231995 25.2281951904 14.9969549179
-45.9248085022 25.2249755859 14.8035640717
-45.9086761475 25.2153244019 14.6062831879
-45.8859710693 25.2022438049 14.4068994522
-45.8642044067 25.1896553040 14.2077722549
-45.8506050110 25.1813278198 14.0111932755
-45.8503532410 25.1799640656 13.8188238144
-45.8655395508 25.1866607666 13.6313600540
-45.8950843811 25.2008495331 13.4484891891
-45.9352874756 25.2206020355 13.2690591812
-45.9806251526 25.2430343628 13.0913238525
-46.0247535706 25.2648372650 12.9132595062
-46.0620651245 25.2830810547 12.7330541611
-46.0891265869 25.2959747314 12.5495901108
-46.1050300598 25.3030471802 12.3625516891
-46.1106681824 25.3047599792 12.1722011566
-46.1080207825 25.3021488190 11.9791622162
-46.1002082825 25.2968406677 11.7844305038
-46.0918235779 25.2912330627 11.5894927979
-46.0885162354 25.2882766724 11.3961944580
-46.0951576233 25.2905139923 11.2061424255
-46.1138725281 25.2990531921 11.0200567245
-46.1438903809 25.3134918213 10.8377075195
-46.1830329895 25.3326931000 10.6584005356
-46.2289123535 25.3554115295 10.4813690186
-46.2790832520 25.3803730011 10.3058166504
-46.3309364319 25.4062099457 10.1308870316
-46.3817443848 25.4315032959 9.9556760788
-46.4284095764 25.4546356201 9.7791500092
-46.4671592712 25.4736328125 9.6000385284
-46.4942970276 25.4865703583 9.4170885086
-46.5081405640 25.4925689697 9.2297105789
-46.5108985901 25.4927806854 9.0386190414
-46.5091857910 25.4906578064 8.8460168839
-46.5124053955 25.4911079407 8.6550693512
-46.5292701721 25.4986839294 8.4687347412
-46.5640411377 25.5156059265 8.2884874344
-46.6148757935 25.5409164429 8.1137409210
-46.6750640869 25.5711116791 7.9422435760
-46.7355270386 25.6014480591 7.7709183693
-46.7870330811 25.6271095276 7.5966086388
-46.8225021362 25.6443996429 7.4168725014
-46.8393020630 25.6519432068 7.2307691574
-46.8395423889 25.6508388519 7.0389842987
-46.8277435303 25.6434516907 6.8430423737
-46.8082122803 25.6320247650 6.6444029808
-46.7843933105 25.6183605194 6.4442439079
-46.7598266602 25.6043071747 6.2437844276
-46.7387275696 25.5920619965 6.0444860458
-46.7256126404 25.5839862823 5.8479313850
-46.7243881226 25.5821189880 5.6555008888
-46.7369575500 25.5874519348 5.4678859711
-46.7620086670 25.5993041992 5.2846565247
-46.7954101563 25.6155128479 5.1043868065
-46.8321647644 25.6334762573 4.9253396988
-46.8680686951 25.6509952545 4.7460360527
-46.8998413086 25.6663570404 4.5653166771
-46.9248771667 25.6782016754 4.3822503090
-46.9417495728 25.6857833862 4.1963148117
-46.9511032104 25.6894378662 4.0077219009
-46.9558410645 25.6906852722 3.8174915314
-46.9603614807 25.6918163300 3.6271812916
-46.9693374634 25.6952743530 3.4384639263
-46.9864654541 25.7029895782 3.2526743412
-47.0132713318 25.7157592773 3.0703766346
-47.0485496521 25.7329540253 2.8911588192
-47.0891151428 25.7529087067 2.7138903141
-47.1314239502 25.7737751007 2.5373029709
-47.1728286743 25.7941684723 2.3604404926
-47.2116737366 25.8132266998 2.1827013493
-47.2465705872 25.8302211761 2.0035746098
-47.2755393982 25.8441238403 1.8223332167
-47.2957611084 25.8534545898 1.6379326582
-47.3042373657 25.8566551208 1.4492597580
-47.2990837097 25.8527355194 1.2555977106
-47.2804946899 25.8418006897 1.0569888353
-47.2508392334 25.8250846863 0.8542757630
-47.2140541077 25.8046455383 0.6488851309
-47.1749649048 25.7830047607 0.4425844252
-47.1389312744 25.7629566193 0.2373479158
-47.1113166809 25.7473068237 0.0351737104
-45.0371665955 -27.9217300415 75.3849334717
-45.0699386597 -27.9412727356 75.1971054077
-45.1299819946 -27.9783592224 75.0114288330
-45.2088661194 -28.0275611877 74.8273010254
