13.4073591232 47.2396545410 47.0573616028
13.4040918350 47.2292709351 46.8636207581
13.4015274048 47.2211418152 46.6702651978
13.3994779587 47.2146644592 46.4771957397
13.3981370926 47.2104568481 46.2845268250
13.3983440399 47.2112159729 46.0927505493
13.4016714096 47.2219810486 45.9028167725
13.4104347229 47.2501792908 45.7161140442
13.4271135330 47.3037567139 45.5341529846
13.4528264999 47.3863067627 45.3576545715
13.4856586456 47.4916839600 45.1855239868
13.5203504562 47.6030273438 45.0146446228
13.5498514175 47.6977233887 44.8407669067
13.5675859451 47.7546844482 44.6598777771
13.5691556931 47.7598152161 44.4692192078
13.5534715652 47.7096138000 44.2680282593
13.5238199234 47.6146240234 44.0582122803
13.4877281189 47.4989814758 43.8443031311
13.4536523819 47.3898048401 43.6314735413
13.4258918762 47.3008766174 43.4224052429
13.4022550583 47.2251777649 43.2157669067
13.3767070770 47.1433448792 43.0078315735
13.3446397781 47.0406074524 42.7957038879
13.3066606522 46.9189147949 42.5797233582
13.2679958344 46.7950210571 42.3631439209
13.2341442108 46.6865615845 42.1494331360
13.2072782516 46.6005058289 41.9399948120
13.1869678497 46.5354728699 41.7346038818
13.1736125946 46.4927406311 41.5335540771
13.1701078415 46.4815940857 41.3387413025
13.1803922653 46.5146675110 41.1527595520
13.2069005966 46.5997695923 40.9772644043
13.2489862442 46.7348213196 40.8119430542
13.3031091690 46.9084701538 40.6545906067
13.3655281067 47.1087226868 40.5028572083
13.4362087250 47.3354721069 40.3567733765
13.5181627274 47.5983695984 40.2183570862
13.6085300446 47.8882446289 40.0858078003
13.6892137527 48.1470680237 39.9472503662
13.7306327820 48.2799835205 39.7830696106
13.7098674774 48.2134895325 39.5778160095
13.6285381317 47.9527816772 39.3321762085
13.5145311356 47.5872917175 39.0643730164
13.4049425125 47.2359695435 38.7990341187
13.3242940903 46.9774475098 38.5526657104
13.2761583328 46.8231811523 38.3278503418
13.2511882782 46.7432060242 38.1184806824
13.2389736176 46.7041320801 37.9176445007
13.2334680557 46.6865730286 37.7213134766
13.2323493958 46.6830787659 37.5279426575
13.2350454330 46.6918220520 37.3371696472
13.2418069839 46.7135963440 37.1491889954
13.2538795471 46.7524032593 36.9648857117
13.2736883163 46.8160209656 36.7859687805
13.3034200668 46.9114570618 36.6140022278
13.3419752121 47.0351867676 36.4482841492
13.3832569122 47.1676597595 36.2846221924
13.4188747406 47.2819671631 36.1171684265
13.4434013367 47.3607101440 35.9420776367
13.4568967819 47.4040832520 35.7593231201
13.4628496170 47.4232635498 35.5712966919
13.4645261765 47.4287376404 35.3802604675
13.4626646042 47.4228630066 35.1867103577
13.4550800323 47.3986358643 34.9890747070
13.4381942749 47.3445816040 34.7847518921
13.4101514816 47.2547531128 34.5723648071
13.3731737137 47.1362724304 34.3534317017
13.3323163986 47.0053482056 34.1315383911
13.2917232513 46.8752746582 33.9096565247
13.2527742386 46.7504730225 33.6887855530
13.2158679962 46.6322212219 33.4692268372
13.1829214096 46.5266685486 33.2523880005
13.1577634811 46.4460906982 33.0410919189
13.1450071335 46.4052772522 32.8387718201
13.1493873596 46.4194183350 32.6489906311
13.1753902435 46.5028991699 32.4751586914
13.2248039246 46.6614456177 32.3187370300
13.2922830582 46.8779220581 32.1759147644
13.3642663956 47.1088447571 32.0367164612
13.4253263474 47.3047370911 31.8896694183
13.4670381546 47.4385871887 31.7284049988
13.4906711578 47.5144653320 31.5537490845
13.5025339127 47.5526008606 31.3703327179
13.5081319809 47.5706443787 31.1822338104
13.5095510483 47.5752906799 30.9909915924
13.5054464340 47.5622253418 30.7955551147
13.4920082092 47.5192260742 30.5929946899
13.4650487900 47.4328727722 30.3800563812
13.4234142303 47.2994575500 30.1557731628
13.3713846207 47.1327133179 29.9233322144
13.3172197342 46.9591217041 29.6890201569
13.2686996460 46.8036270142 29.4588241577
13.2301235199 46.6800231934 29.2361030579
13.2032070160 46.5938034058 29.0222492218
13.1893720627 46.5495376587 28.8184471130
13.1899499893 46.5514869690 28.6258125305
13.2046270370 46.5986442566 28.4441947937
13.2310705185 46.6835327148 28.2718544006
13.2661838531 46.7962226868 28.1064319611
13.3068265915 46.9266471863 27.9455089569
13.3495645523 47.0637855530 27.7864036560
13.3909044266 47.1964454651 27.6263656616
13.4282569885 47.3163146973 27.4633255005
13.4600238800 47.4182777405 27.2959861755
13.4844322205 47.4966392517 27.1228961945
13.4986877441 47.5424461365 26.9417705536
13.4996957779 47.5457725525 26.7500591278
13.4859380722 47.5017509460 26.5464572906
13.4594593048 47.4169387817 26.3325195313
13.4261722565 47.3102951050 26.1129512787
13.3928213120 47.2034454346 25.8931827545
13.3623218536 47.1057357788 25.6755809784
13.3322906494 47.0095329285 25.4582271576
13.2987384796 46.9020385742 25.2378559113
13.2610759735 46.7813644409 25.0139636993
13.2232494354 46.6601638794 24.7897701263
13.1902256012 46.5543632507 24.5693645477
13.1640768051 46.4706077576 24.3544921875
13.1440687180 46.4065475464 24.1445865631
13.1305618286 46.3633270264 23.9399871826
13.1282072067 46.3558731079 23.7446098328
13.1440029144 46.4066200256 23.5643634796
13.1807165146 46.5244407654 23.4016838074
13.2318248749 46.6884231567 23.2512283325
13.2838535309 46.8553543091 23.1017551422
13.3243741989 46.9853820801 22.9427909851
13.3477897644 47.0605621338 22.7695293427
13.3543119431 47.0815734863 22.5820426941
13.3455219269 47.0534820557 22.3815650940
13.3225669861 46.9799690247 22.1689758301
13.2883453369 46.8703269958 21.9466609955
13.2494440079 46.7456817627 21.7201843262
13.2135982513 46.6308326721 21.4961585999
13.1845788956 46.5378723145 21.2778434753
13.1603288651 46.4602088928 21.0635108948
13.1362495422 46.3830909729 20.8492145538
13.1094923019 46.2973861694 20.6324863434
13.0803546906 46.2040519714 20.4135684967
13.0513343811 46.1110877991 20.1946201324
13.0260963440 46.0302543640 19.9788417816
13.0087347031 45.9746780396 19.7698421478
13.0029335022 45.9561729431 19.5708999634
13.0113859177 45.9833717346 19.3844604492
13.0349540710 46.0590400696 19.2113704681
13.0708189011 46.1741371155 19.0492401123
13.1115427017 46.3048171997 18.8915576935
13.1479377747 46.4216194153 18.7301959991
13.1741666794 46.5058174133 18.5599327087
13.1900196075 46.5567474365 18.3805160522
13.1987676620 46.5848960876 18.1948032379
13.2037954330 46.6011123657 18.0057868958
13.2070169449 46.6115379333 17.8151588440
13.2090749741 46.6182327271 17.6234893799
13.2099752426 46.6212120056 17.4307746887
13.2092657089 46.6190338135 17.2365989685
13.2056665421 46.6075897217 17.0397911072
13.1965532303 46.5784606934 16.8379459381
13.1783418655 46.5201606750 16.6277656555
13.1484079361 46.4242706299 16.4067897797
13.1075363159 46.2933082581 16.1756649017
13.0606231689 46.1429710388 15.9388151169
13.0148067474 45.9961547852 15.7027664185
12.9767341614 45.8741645813 15.4736518860
12.9508666992 45.7913131714 15.2556447983
12.9390745163 45.7535972595 15.0505561829
12.9407901764 45.7591934204 14.8579463959
12.9531908035 45.7990531921 14.6752767563
12.9716901779 45.8584671021 14.4983396530
12.9914321899 45.9218711853 14.3226337433
13.0092449188 45.9790802002 14.1451959610
13.0243921280 46.0277481079 13.9653224945
13.0376081467 46.0702209473 13.7836885452
13.0496921539 46.1090621948 13.6010332108
13.0607900620 46.1447448730 13.4174909592
13.0702800751 46.1752700806 13.2324628830
13.0768814087 46.1965370178 13.0447244644
13.0790786743 46.2036743164 12.8528137207
13.0757436752 46.1930770874 12.6556282043
13.0662527084 46.1627388000 12.4525356293
13.0498180389 46.1101379395 12.2427415848
13.0252513885 46.0314598083 12.0250625610
12.9924087524 45.9262428284 11.7993049622
12.9542779922 45.8040695190 11.5683002472
12.9169473648 45.6844635010 11.3378982544
12.8866271973 45.5873336792 11.1141185760
12.8664588928 45.5227584839 10.9000577927
12.8560867310 45.4895935059 10.6954336166
12.8537044525 45.4820518494 10.4985475540
12.8582773209 45.4968147278 10.3084402084
12.8704299927 45.5358772278 10.1257658005
12.8916482925 45.6040077209 9.9520311356
12.9220657349 45.7016410828 9.7874279022
12.9583797455 45.8181762695 9.6287565231
12.9942903519 45.9334220886 9.4698343277
13.0238132477 46.0281829834 9.3047323227
13.0444564819 46.0944747925 9.1309385300
13.0574235916 46.1361465454 8.9495925903
13.0654449463 46.1619644165 8.7633657455
13.0707693100 46.1791343689 8.5744714737
13.0745649338 46.1914024353 8.3840627670
13.0772542953 46.2001190186 8.1925516129
13.0789442062 46.2056350708 8.0000391006
13.0796546936 46.2080078125 7.8065395355
13.0793800354 46.2072219849 7.6120400429
13.0779953003 46.2028808594 7.4164090157
13.0749187469 46.1931076050 7.2190485001
13.0684785843 46.1725540161 7.0182509422
13.0554599762 46.1309051514 6.8107237816
13.0318937302 46.0554313660 6.5923752785
12.9952793121 45.9381217957 6.3605847359
12.9463901520 45.7814559937 6.1160607338
12.8889923096 45.5975036621 5.8625874519
12.8287401199 45.4043960571 5.6059269905
12.7727003098 45.2248039246 5.3533425331
12.7279405594 45.0813751221 5.1121563911
12.6984510422 44.9869117737 4.8865718842
12.6834192276 44.9388084412 4.6758432388
12.6788530350 44.9242591858 4.4759144783
12.6804590225 44.9295082092 4.2823843956
12.6851654053 44.9446945190 4.0920872688
12.6911201477 44.9638824463 3.9031052589
12.6972408295 44.9836044312 3.7143146992
12.7028760910 45.0017738342 3.5250327587
12.7075834274 45.0169639587 3.3347904682
12.7109766006 45.0279388428 3.1431746483
12.7125768661 45.0331649780 2.9496707916
12.7116413116 45.0302619934 2.7534828186
12.7069702148 45.0153770447 2.5533211231
12.6969957352 44.9834938049 2.3474979401
12.6808614731 44.9318542480 2.1350653172
12.6600389481 44.8651809692 1.9175555706
12.6381826401 44.7951965332 1.6988431215
12.6181516647 44.7310638428 1.4819839001
12.5997095108 44.6720237732 1.2667362690
12.5813627243 44.6132888794 1.0515029430
12.5635623932 44.5563087463 0.8367723823
12.5486240387 44.5085067749 0.6250465512
12.5383062363 44.4755210876 0.4182463586
12.5328664780 44.4581756592 0.2166801244
12.5320711136 44.4557189941 0.0201248508
-27.1801586151 29.8906898499 90.4125442505
-27.1930179596 29.9027385712 90.2162017822
-27.2189788818 29.9287052155 90.0201873779
-27.2557563782 29.9661674500 89.8244628906
-27.3028297424 30.0145683289 89.6290664673
-27.3606796265 30.0744190216 89.4340133667
-27.4283885956 30.1447467804 89.2393264771
-27.5016555786 30.2209815979 89.0448989868
-27.5731811523 30.2953662872 88.8505401611
-27.6354789734 30.3599472046 88.6560211182
-27.6840286255 30.4099216461 88.4611740112
-27.7184810638 30.4449138641 88.2659530640
-27.7413024902 30.4675521851 88.0704116821
-27.7553939819 30.4809131622 87.8746032715
-27.7626609802 30.4870204926 87.6785736084
-27.7639560699 30.4867858887 87.4823379517
-27.7593688965 30.4802970886 87.2858810425
-27.7482547760 30.4668750763 87.0891647339
-27.7294311523 30.4452590942 86.8921279907
-27.7022953033 30.4148120880 86.6947250366
-27.6690025330 30.3778209686 86.4970245361
-27.6362819672 30.3414363861 86.2992858887
-27.6151428223 30.3173580170 86.1019439697
-27.6184329987 30.3192405701 85.9055862427
-27.6570549011 30.3586673737 85.7107391357
-27.7353248596 30.4402275085 85.5176849365
-27.8476467133 30.5579757690 85.3262710571
-27.9799518585 30.6969604492 85.1359558105
-28.1157207489 30.8396282196 84.9460220337
-28.2424430847 30.9726810455 84.7558822632
-28.3550796509 31.0907707214 84.5652770996
-28.4551677704 31.1955242157 84.3742370605
-28.5463695526 31.2908382416 84.1829223633
-28.6301250458 31.3782386780 83.9913787842
-28.7046890259 31.4558715820 83.7994995117
-28.7671318054 31.5206222534 83.6070938110
-28.8158569336 31.5707969666 83.4140625000
-28.8517799377 31.6073684692 83.2204055786
-28.8775558472 31.6331539154 83.0262451172
-28.8955745697 31.6506977081 82.8316802979
-28.9065380096 31.6607418060 82.6367416382
-28.9099540710 31.6627655029 82.4413681030
-28.9060440063 31.6570034027 82.2455673218
-28.8969326019 31.6457138062 82.0494384766
-28.8859348297 31.6324176788 81.8531646729
-28.8761329651 31.6203918457 81.6569366455
-28.8699779510 31.6122417450 81.4609069824
-28.8699951172 31.6106529236 81.2652435303
-28.8795852661 31.6192378998 81.0701828003
-28.9028949738 31.6424064636 80.8760147095
-28.9432029724 31.6836376190 80.6829910278
-29.0001792908 31.7425880432 80.4911346436
-29.0681838989 31.8132610321 80.3001022339
-29.1381282806 31.8859958649 80.1093139648
-29.2027778625 31.9531040192 79.9182739258
-29.2613868713 32.0137939453 79.7269058228
-29.3193492889 32.0737953186 79.5355911255
-29.3830528259 32.1398963928 79.3447723389
-29.4544467926 32.2141761780 79.1546173096
-29.5294570923 32.2923011780 78.9648361206
-29.6006336212 32.3663520813 78.7748947144
-29.6613845825 32.4293212891 78.5842819214
-29.7084083557 32.4777030945 78.3927230835
-29.7408370972 32.5105705261 78.2001113892
-29.7581272125 32.5273437500 78.0063629150
-29.7598819733 32.5276069641 77.8114166260
-29.7472248077 32.5125503540 77.6153259277
-29.7225208282 32.4846878052 77.4182205200
-29.6867294312 32.4450378418 77.2201690674
-29.6377544403 32.3913764954 77.0209655762
-29.5734920502 32.3214607239 76.8203887939
-29.4984836578 32.2401237488 76.6187973022
-29.4280662537 32.1636619568 76.4174423218
-29.3842983246 32.1155319214 76.2182464600
-29.3859195709 32.1156501770 76.0228805542
-29.4402027130 32.1717491150 75.8320999146
-29.5410385132 32.2773323059 75.6455154419
-29.6719703674 32.4149131775 75.4617767334
-29.8121337891 32.5623092651 75.2790908813
-29.9435806274 32.7004394531 75.0958404541
-30.0567131042 32.8191032410 74.9111328125
-30.1503639221 32.9170570374 74.7248001099
-30.2273712158 32.9973220825 74.5370788574
-30.2905998230 33.0629348755 74.3481750488
-30.3421955109 33.1161842346 74.1582641602
-30.3843746185 33.1594238281 73.9675216675
-30.4194831848 33.1951484680 73.7761611938
-30.4491214752 33.2250595093 73.5843200684
-30.4730281830 33.2488746643 73.3919525146
-30.4884452820 33.2636642456 73.1987686157
-30.4903259277 33.2640647888 73.0042495728
-30.4723911285 33.2433967590 72.8077087402
-30.4297332764 33.1964454651 72.6085968018
-30.3633594513 33.1242790222 72.4069671631
-30.2834281921 33.0376968384 72.2037963867
-30.2064437866 32.9542503357 72.0007781982
-30.1473751068 32.8898468018 71.7995147705
-30.1140708923 32.8528366089 71.6008834839
-30.1082839966 32.8450813293 71.4051284790
-30.1296787262 32.8662223816 71.2123031616
-30.1775016785 32.9154663086 71.0223922729
-30.2495422363 32.9904556274 70.8352127075
-30.3412475586 33.0863571167 70.6503295898
-30.4462203979 33.1963615417 70.4670791626
-30.5568904877 33.3124313354 70.2846450806
-30.6648311615 33.4255981445 70.1020812988
-30.7617683411 33.5270652771 69.9184417725
-30.8418750763 33.6106376648 69.7330169678
-30.9037380219 33.6748161316 69.5456008911
-30.9498558044 33.7222518921 69.3564453125
-30.9836673737 33.7566070557 69.1659088135
-31.0064849854 33.7792701721 68.9741058350
-31.0169830322 33.7888336182 68.7808685303
-31.0136814117 33.7837257385 68.5859680176
-30.9976768494 33.7651062012 68.3895187378
-30.9725151062 33.7367553711 68.1919021606
-30.9417304993 33.7024230957 67.9935455322
-30.9074802399 33.6644058228 67.7946853638
-30.8719387054 33.6250114441 67.5956039429
-30.8392200470 33.5886230469 67.3967971802
-30.8151779175 33.5614585876 67.1990203857
-30.8052768707 33.5493316650 67.0029983521
-30.8127708435 33.5556983948 66.8091812134
-30.8385257721 33.5814857483 66.6177215576
-30.8817405701 33.6258392334 66.4285736084
-30.9401779175 33.6863784790 66.2414855957
-31.0099601746 33.7589836121 66.0559844971
-31.0861663818 33.8384208679 65.8714447021
-31.1639060974 33.9194908142 65.6872329712
-31.2386684418 33.9973983765 65.5027465820
-31.3064060211 34.0678329468 65.3174285889
-31.3641681671 34.1276588440 65.1308593750
-31.4104728699 34.1753044128 64.9428100586
-31.4448661804 34.2102813721 64.7531890869
-31.4674587250 34.2327117920 64.5619735718
-31.4788455963 34.2432250977 64.3692245483
-31.4799518585 34.2428054810 64.1750411987
-31.4716930389 34.2324256897 63.9795188904
-31.4548072815 34.2128715515 63.7827453613
-31.4302387238 34.1851463318 63.5848312378
-31.4000186920 34.1514091492 63.3860511780
-31.3677215576 34.1154632568 63.1869010925
-31.3374786377 34.0817031860 62.9879875183
-31.3122215271 34.0532417297 62.7897415161
-31.2930088043 34.0312118530 62.5923309326
-31.2801284790 34.0159111023 62.3958168030
-31.2747383118 34.0085830688 62.2003898621
-31.2798957825 34.0124664307 62.0065269470
-31.3005046844 34.0327873230 61.8149986267
-31.3418273926 34.0751380920 61.6266403198
-31.4064540863 34.1422729492 61.4419097900
-31.4912414551 34.2308502197 61.2603797913
-31.5867042542 34.3307838440 61.0806388855
-31.6798858643 34.4282913208 60.9007034302
-31.7593421936 34.5112037659 60.7187690735
-31.8193626404 34.5734481812 60.5339088440
-31.8604717255 34.6155738831 60.3461532593
-31.8859310150 34.6410560608 60.1559677124
-31.8979988098 34.6522979736 59.9636764526
-31.8975925446 34.6502685547 59.7693901062
-31.8863258362 34.6366882324 59.5733375549
-31.8670558929 34.6145973206 59.3759536743
-31.8422946930 34.5866622925 59.1776275635
-31.8132495880 34.5541725159 58.9785423279
-31.7804641724 34.5177040100 58.7787780762
-31.7442188263 34.4775543213 58.5783729553
-31.7042217255 34.4334106445 58.3772659302
-31.6606597900 34.3854789734 58.1754798889
-31.6172752380 34.3377304077 57.9736366272
-31.5826778412 34.2993316650 57.7731971741
-31.5662384033 34.2802467346 57.5757827759
-31.5715274811 34.2842750549 57.3820457458
-31.5945472717 34.3071594238 57.1913642883
-31.6288166046 34.3420143127 57.0026550293
-31.6712932587 34.3856010437 56.8154258728
-31.7231693268 34.4391822815 56.6299018860
-31.7860832214 34.5045089722 56.4463958740
-31.8585720062 34.5800209045 56.2646827698
-31.9358234406 34.6605987549 56.0839309692
-32.0114402771 34.7394409180 55.9030113220
-32.0787467957 34.8094444275 55.7207221985
-32.1311798096 34.8636245728 55.5358657837
-32.1628570557 34.8957290649 55.3473358154
-32.1697959900 34.9015121460 55.1543502808
-32.1511840820 34.8801193237 54.9566993713
-32.1097602844 34.8344573975 54.7548179626
-32.0507431030 34.7700729370 54.5496063232
-31.9802169800 34.6934471130 54.3421478271
-31.9043331146 34.6111221313 54.1335601807
-31.8294925690 34.5299072266 53.9250183105
-31.7622680664 34.4567909241 53.7177696228
-31.7079715729 34.3974304199 53.5128326416
-31.6687660217 34.3541183472 53.3106536865
-31.6433925629 34.3255233765 53.1110305786
-31.6290073395 34.3086204529 52.9134559631
-31.6234550476 34.3011131287 52.7175445557
-31.6265850067 34.3028411865 52.5232887268
-31.6408538818 34.3164215088 52.3311920166
-31.6710224152 34.3469161987 52.1422080994
-31.7212505341 34.3987541199 51.9571952820
-31.7896118164 34.4698829651 51.7758293152
-31.8651275635 34.5486259460 51.5959854126
-31.9326400757 34.6188583374 51.4146728516
-31.9821033478 34.6698837280 51.2298736572
-32.0129585266 34.7011108398 51.0414199829
-32.0305290222 34.7182044983 50.8503417969
-32.0400428772 34.7267303467 50.6576538086
-32.0436592102 34.7289810181 50.4637756348
-32.0406608582 34.7241935730 50.2685432434
-32.0286483765 34.7098121643 50.0714530945
-32.0046539307 34.6826782227 49.8718681335
-31.9659175873 34.6398658752 49.6691856384
-31.9105167389 34.5793190002 49.4629707336
-31.8383178711 34.5008964539 49.2531509399
-31.7525672913 34.4080543518 49.0403633118
-31.6609001160 34.3089179993 48.8261680603
-31.5742015839 34.2150650024 48.6128501892
-31.5035305023 34.1382675171 48.4027595520
-31.4571456909 34.0873031616 48.1977005005
-31.4392280579 34.0666389465 47.9986228943
-31.4504756927 34.0769996643 47.8057518005
-31.4891014099 34.1164970398 47.6187820435
-31.5510921478 34.1808547974 47.4369201660
-31.6300277710 34.2632446289 47.2588310242
-31.7173404694 34.3545494080 47.0826950073
-31.8031349182 34.4442405701 46.9063720703
-31.8778228760 34.5221138000 46.7277488708
-31.9346542358 34.5809898376 46.5453071594
-31.9718589783 34.6189765930 46.3586120605
-31.9922904968 34.6391181946 46.1682434082
-32.0006980896 34.6464614868 45.9752197266
-32.0009574890 34.6451377869 45.7803726196
-31.9946975708 34.6368751526 45.5840492249
-31.9808216095 34.6205062866 45.3859825134
-31.9552593231 34.5917015076 45.1852378845
-31.9118957520 34.5439529419 44.9803810120
-31.8461303711 34.4723663330 44.7703247070
-31.7597980499 34.3788909912 44.5554237366
-31.6627902985 34.2740516663 44.3379058838
-31.5688171387 34.1724395752 44.1209068298
-31.4896583557 34.0865936279 43.9071655273
-31.4335613251 34.0252876282 43.6986427307
-31.4069747925 33.9953880310 43.4969100952
-31.4146747589 34.0019760132 43.3031578064
-31.4568023682 34.0452041626 43.1175155640
-31.5260925293 34.1173362732 42.9383544922
-31.6091270447 34.2041015625 42.7625656128
-31.6917533875 34.2904319763 42.5868148804
-31.7643547058 34.3660926819 42.4088020325
-31.8231315613 34.4270439148 42.2275924683
-31.8680858612 34.4732818604 42.0431480408
-31.9007167816 34.5064086914 41.8557929993
-31.9227237701 34.5282249451 41.6659088135
-31.9351406097 34.5398368835 41.4737205505
-31.9374370575 34.5406761169 41.2790718079
-31.9270362854 34.5280036926 41.0813026428
-31.8999042511 34.4975204468 40.8793869019
-31.8523216248 34.4452743530 40.6723670959
-31.7836399078 34.3705673218 40.4600219727
-31.6988372803 34.2787017822 40.2435379028
-31.6081504822 34.1805763245 40.0254249573
-31.5225143433 34.0878219604 39.8084030151
-31.4488124847 34.0077667236 39.5942230225
-31.3907260895 33.9443321228 39.3838386536
-31.3534832001 33.9030838013 39.1786155701
-31.3447628021 33.8921928406 38.9805564880
-31.3693122864 33.9167137146 38.7909507751
-31.4238510132 33.9731559753 38.6090469360
-31.4979724884 34.0504417419 38.4322509766
-31.5793991089 34.1355056763 38.2574577332
-31.6584682465 34.2180595398 38.0821876526
-31.7295455933 34.2921104431 37.9049758911
-31.7901420593 34.3550033569 37.7251472473
-31.8394031525 34.4058341980 37.5424613953
-31.8769016266 34.4441452026 37.3567695618
-31.9016017914 34.4688301086 37.1677703857
-31.9110603333 34.4772911072 36.9747848511
-31.9020366669 34.4660797119 36.7769165039
-31.8728942871 34.4334526062 36.5736846924
-31.8254356384 34.3813247681 36.3655090332
-31.7638111115 34.3141212463 36.1534576416
-31.6918888092 34.2359504700 35.9385223389
-31.6121311188 34.1494407654 35.7213478088
-31.5267906189 34.0569839478 35.5025100708
-31.4399414063 33.9629211426 35.2831039429
-31.3587989807 33.8749351501 35.0650863647
-31.2933235168 33.8036193848 34.8511810303
-31.2535667419 33.7596855164 34.6441764832
-31.2456264496 33.7496223450 34.4458198547
-31.2688713074 33.7727546692 34.2560157776
-31.3167171478 33.8220787048 34.0730323792
-31.3801994324 33.8880500793 33.8944511414
-31.4511871338 33.9620094299 33.7180557251
-31.5234260559 34.0373039246 33.5421257019
-31.5927066803 34.1094512939 33.3654823303
-31.6569862366 34.1762733459 33.1875534058
-31.7154617310 34.2369155884 33.0080909729
-31.7670745850 34.2902526855 32.8267822266
-31.8101806641 34.3345375061 32.6431465149
-31.8430118561 34.3678817749 32.4566612244
-31.8634147644 34.3879966736 32.2666816711
-31.8685722351 34.3918800354 32.0723724365
-31.8557300568 34.3765983582 31.8729038239
-31.8227672577 34.3398933411 31.6676158905
-31.7678985596 34.2798690796 31.4559421539
-31.6907863617 34.1961593628 31.2377281189
-31.5961418152 34.0937805176 31.0142784119
-31.4956378937 33.9851646423 30.7889480591
-31.4039611816 33.8859443665 30.5660037994
-31.3321380615 33.8078613281 30.3486995697
-31.2846126556 33.7556457520 30.1383934021
-31.2608566284 33.7287368774 29.9349937439
-31.2574176788 33.7234649658 29.7375431061
-31.2689704895 33.7341499329 29.5445156097
-31.2900314331 33.7549591064 29.3543262482
-31.3177833557 33.7828941345 29.1661548615
-31.3534946442 33.8193054199 28.9804039001
-31.4000949860 33.8673095703 28.7979679108
-31.4568538666 33.9261322021 28.6186599731
-31.5162124634 33.9877243042 28.4402256012
-31.5670108795 34.0401992798 28.2592964172
-31.6013393402 34.0751419067 28.0734481812
-31.6176986694 34.0909500122 27.8821830750
-31.6180629730 34.0897216797 27.6860542297
-31.6033935547 34.0724906921 27.4853153229
-31.5727252960 34.0382194519 27.2796287537
-31.5262680054 33.9871406555 27.0690174103
-31.4686183929 33.9241371155 26.8548583984
-31.4075431824 33.8574905396 26.6395244598
-31.3487300873 33.7932472229 26.4247760773
-31.2919216156 33.7311401367 26.2105350494
-31.2326393127 33.6663970947 25.9954109192
-31.1675968170 33.5955200195 25.7783679962
-31.0990753174 33.5209350586 25.5601043701
-31.0358047485 33.4519386292 25.3433647156
-30.9906082153 33.4021949768 25.1322078705
-30.9755916595 33.3845825195 24.9305171967
-30.9965076447 33.4052391052 24.7401981354
-31.0497722626 33.4603462219 24.5602073669
-31.1242313385 33.5380172729 24.3870658875
-31.2058067322 33.6232719421 24.2163238525
-31.2817611694 33.7025451660 24.0439109802
-31.3431262970 33.7662773132 23.8669242859
-31.3855876923 33.8098831177 23.6839332581
-31.4090251923 33.8332252502 23.4948463440
-31.4160919189 33.8391380310 23.3004760742
-31.4106197357 33.8316917419 23.1020259857
-31.3964462280 33.8149833679 22.9007167816
-31.3766613007 33.7922935486 22.6975345612
-31.3532352448 33.7657279968 22.4931106567
-31.3272438049 33.7364311218 22.2877902985
-31.2989330292 33.7046661377 22.0816478729
-31.2667598724 33.6687812805 21.8741664886
-31.2263240814 33.6240997314 21.6638774872
-31.1718177795 33.5644302368 21.4488239288
-31.1008472443 33.4872245789 21.2281742096
-31.0195198059 33.3989868164 21.0039253235
-30.9424209595 33.3152542114 20.7809371948
-30.8864917755 33.2540664673 20.5649185181
-30.8640403748 33.2285308838 20.3600730896
-30.8792705536 33.2431297302 20.1679077148
-30.9273929596 33.2927665710 19.9869041443
-30.9953784943 33.3635559082 19.8127212524
-31.0663986206 33.4375801086 19.6396808624
-31.1270523071 33.5005607605 19.4632167816
-31.1718540192 33.5466613770 19.2814216614
-31.2020626068 33.5772171021 19.0946865082
-31.2216281891 33.5964393616 18.9043312073
-31.2339782715 33.6079711914 18.7115116119
-31.2408962250 33.6137237549 18.5168228149
-31.2428321838 33.6141662598 18.3204078674
-31.2395877838 33.6090888977 18.1221847534
-31.2307453156 33.5980529785 17.9219932556
-31.2156028748 33.5803031921 17.7195739746
-31.1928768158 33.5544738770 17.5144615173
-31.1604938507 33.5183601379 17.3059043884
-31.1158599854 33.4691963196 17.0929660797
-31.0570087433 33.4048881531 16.8749198914
-30.9848270416 33.3263778687 16.6520404816
-30.9053115845 33.2400550842 16.4264202118
-30.8291187286 33.1572685242 16.2018299103
-30.7672061920 33.0896949768 15.9821853638
-30.7258796692 33.0440483093 15.7697772980
-30.7058849335 33.0211257935 15.5649271011
-30.7055397034 33.0191345215 15.3670902252
-30.7239685059 33.0371398926 15.1760005951
-30.7610874176 33.0750579834 14.9916782379
-30.8144779205 33.1303100586 14.8133001328
-30.8765792847 33.1948394775 14.6381654739
-30.9362564087 33.2567901611 14.4622478485
-30.9845752716 33.3066406250 14.2822847366
-31.0194721222 33.3421936035 14.0974922180
-31.0450325012 33.3678016663 13.9093313217
-31.0667896271 33.3893547058 13.7198085785
-31.0872669220 33.4095458984 13.5298414230
-31.1045207977 33.4263076782 13.3387117386
-31.1136207581 33.4343795776 13.1445856094
-31.1091327667 33.4279747009 12.9454269409
-31.0864925385 33.4022293091 12.7395029068
-31.0424404144 33.3536796570 12.5255527496
-30.9767055511 33.2820243835 12.3034172058
-30.8952655792 33.1936340332 12.0752754211
-30.8115558624 33.1028251648 11.8461265564
-30.7421951294 33.0273017883 11.6222133636
-30.7000141144 32.9807395935 11.4084119797
-30.6910705566 32.9695816040 11.2070827484
-30.7167358398 32.9953002930 11.0188341141
-30.7752037048 33.0559692383 10.8430719376
-30.8589763641 33.1435966492 10.6770305634
-30.9532699585 33.2424316406 10.5151405334
-31.0412521362 33.3345489502 10.3509931564
-31.1127529144 33.4091033936 10.1806774139
-31.1674118042 33.4657173157 10.0040092468
-31.2103519440 33.5098457336 9.8229160309
-31.2464637756 33.5466957092 9.6392526627
-31.2772884369 33.5779190063 9.4535999298
-31.3000488281 33.6005439758 9.2648630142
-31.3092002869 33.6086730957 9.0708694458
-31.3012275696 33.5985565186 8.8702135086
-31.2785930634 33.5728149414 8.6638097763
-31.2478389740 33.5384216309 8.4541797638
-31.2138671875 33.5006027222 8.2432222366
-31.1769409180 33.4596290588 8.0310306549
-31.1341457367 33.4124031067 7.8164525032
-31.0814132690 33.3545913696 7.5978651047
-31.0139465332 33.2810783386 7.3733434677
-30.9274044037 33.1872367859 7.1411271095
-30.8220882416 33.0733871460 6.9012856483
-30.7078495026 32.9500312805 6.6576914787
-30.6039295197 32.8376655579 6.4180026054
-30.5311508179 32.7584838867 6.1905751228
-30.5016937256 32.7254638672 5.9803776741
-30.5148086548 32.7378120422 5.7872242928
-30.5608024597 32.7851905823 5.6073236465
-30.6282577515 32.8554420471 5.4361567497
-30.7077255249 32.9384956360 5.2699570656
-30.7899246216 33.0244598389 5.1049957275
-30.8635063171 33.1012420654 4.9366688728
-30.9175643921 33.1572227478 4.7605118752
-30.9470748901 33.1870422363 4.5744233131
-30.9550514221 33.1939163208 4.3795690536
-30.9490547180 33.1858978271 4.1789913177
-30.9356536865 33.1699867249 3.9753510952
-30.9174041748 33.1489105225 3.7696800232
-30.8933658600 33.1216659546 3.5615773201
-30.8612995148 33.0858650208 3.3501019478
-30.8196907043 33.0398902893 3.1346046925
-30.7689743042 32.9842147827 2.9152419567
-30.7118453979 32.9216995239 2.6931087971
-30.6518573761 32.8561401367 2.4696707726
-30.5904350281 32.7890510559 2.2455160618
-30.5248451233 32.7175140381 2.0194945335
-30.4496974945 32.6357955933 1.7893351316
-30.3609676361 32.5395965576 1.5533189774
-30.2592544556 32.4295616150 1.3116625547
-30.1503562927 32.3118667603 1.0667791367
-30.0427265167 32.1955223083 0.8222274184
-29.9432353973 32.0878486633 0.5809237957
-29.8546123505 31.9917583466 0.3440512717
-29.7757968903 31.9061183929 0.1111861542
31.4380645752 31.9772968292 90.4567489624
31.4352188110 31.9745998383 90.2640151978
31.4310970306 31.9706745148 90.0712127686
31.4306755066 31.9703102112 89.8785552979
31.4331760406 31.9727535248 89.6860198975
31.4316177368 31.9712924957 89.4933013916
31.4180259705 31.9582614899 89.3000106812
31.3896541595 31.9310150146 89.1059875488
31.3504409790 31.8933429718 88.9113922119
31.3073806763 31.8519706726 88.7165298462
31.2670631409 31.8132362366 88.5217208862
31.2353649139 31.7827911377 88.3272705078
31.2169971466 31.7651672363 88.1334457397
31.2121944427 31.7605876923 87.9402847290
31.2137050629 31.7620792389 87.7474517822
31.2089290619 31.7575263977 87.5542678833
31.1871242523 31.7365951538 87.3601303101
31.1477031708 31.6987247467 87.1649627686
31.1053199768 31.6580028534 86.9695587158
31.0897006989 31.6430206299 86.7756042480
31.1384792328 31.6899719238 86.5853805542
31.2800102234 31.8261203766 86.4007339478
31.5100326538 32.0473709106 86.2216491699
31.7823944092 32.3093376160 86.0455398560
32.0323104858 32.5497207642 85.8684997559
32.2160720825 32.7264823914 85.6877288818
32.3295135498 32.8356170654 85.5027923584
32.3940963745 32.8977661133 85.3149032593
32.4337310791 32.9359207153 85.1254806519
32.4628944397 32.9640083313 84.9354248047
32.4866600037 32.9869003296 84.7450485229
32.5051422119 33.0047149658 84.5543441772
32.5177307129 33.0168571472 84.3632583618
32.5254020691 33.0242767334 84.1718521118
32.5311508179 33.0298461914 83.9803085327
32.5393562317 33.0377731323 83.7889404297
32.5540618896 33.0519561768 83.5980453491
32.5762023926 33.0732879639 83.4077224731
32.6013793945 33.0975379944 83.2176437378
32.6213264465 33.1167602539 83.0272140503
32.6289100647 33.1240921021 82.8358688354
32.6223449707 33.1178207397 82.6434478760
32.6060752869 33.1022109985 82.4502563477
32.5904922485 33.0872612000 82.2570800781
32.5924758911 33.0892105103 82.0652618408
32.6330490112 33.1282691956 81.8765335083
32.7281761169 33.2197875977 81.6922760010
32.8775520325 33.3634834290 81.5126037598
33.0628204346 33.5416946411 81.3361587524
33.2582511902 33.7296752930 81.1608734131
33.4430770874 33.9074592590 80.9850158691
33.6051635742 34.0633735657 80.8075408936
33.7383918762 34.1915397644 80.6278457642
33.8409004211 34.2901611328 80.4457015991
33.9150161743 34.3614768982 80.2612380981
33.9656448364 34.4102020264 80.0748062134
33.9972457886 34.4406318665 79.8867492676
34.0131492615 34.4559669495 79.6973266602
34.0177383423 34.4604187012 79.5068817139
34.0172805786 34.4600143433 79.3159790039
34.0163879395 34.4591979980 79.1250152588
34.0140228271 34.4569625854 78.9339141846
34.0046043396 34.4479408264 78.7421264648
33.9832878113 34.4274787903 78.5491790771
33.9493293762 34.3948631287 78.3549652100
33.9052734375 34.3525352478 78.1597061157
33.8552131653 34.3044281006 77.9637680054
33.8052139282 34.2563819885 77.7677383423
33.7656669617 34.2183914185 77.5726623535
33.7536888123 34.2069129944 77.3802871704
33.7921295166 34.2439193726 77.1930084229
33.9005699158 34.3482437134 77.0129699707
34.0793952942 34.5202560425 76.8403930664
34.3009185791 34.7333297729 76.6725692749
34.5223312378 34.9463005066 76.5051040649
34.7120094299 35.1287498474 76.3346557617
34.8630371094 35.2740287781 76.1603927612
34.9841308594 35.3905220032 75.9831619263
35.0834388733 35.4860610962 75.8037643433
35.1615371704 35.5612068176 75.6222076416
35.2148246765 35.6124954224 75.4380416870
35.2415962219 35.6382789612 75.2510070801
35.2447586060 35.6413574219 75.0613632202
35.2303848267 35.6275711060 74.8697433472
35.2045364380 35.6027526855 74.6767807007
35.1709136963 35.5704574585 74.4828720093
35.1304359436 35.5315704346 74.2881011963
35.0828018188 35.4857978821 74.0924224854
35.0284156799 35.4335365295 73.8958663940
34.9688606262 35.3762969971 73.6985855103
34.9068412781 35.3166961670 73.5009078979
34.8478164673 35.2599716187 73.3034744263
34.8023719788 35.2163047791 73.1075668335
34.7860946655 35.2006950378 72.9151229858
34.8159217834 35.2294158936 72.7282867432
34.9042396545 35.3143882751 72.5487060547
35.0513954163 35.4559440613 72.3765869141
35.2399101257 35.6372718811 72.2098846436
35.4384040833 35.8281974792 72.0447540283
35.6171417236 36.0001296997 71.8774566650
35.7628974915 36.1403350830 71.7062530518
35.8791656494 36.2521858215 71.5315017700
35.9738922119 36.3433265686 71.3541488647
36.0491676331 36.4157524109 71.1744232178
36.1012687683 36.4658966064 70.9917831421
36.1271705627 36.4908447266 70.8057632446
36.1298141479 36.4934234619 70.6166915894
36.1181602478 36.4822578430 70.4256973267
36.1027526855 36.4674758911 70.2341766357
36.0906181335 36.4558486938 70.0430603027
36.0833129883 36.4488601685 69.8525772095
36.0783271790 36.4441032410 69.6623840332
36.0712928772 36.4373779297 69.4719009399
36.0568962097 36.4235725403 69.2803649902
36.0289497375 36.3967323303 69.0869064331
35.9815521240 36.3511886597 68.8906555176
35.9125366211 36.2848587036 68.6912460327
35.8272781372 36.2029037476 68.4894027710
35.7397155762 36.1187362671 68.2870712280
35.6701049805 36.0518302917 68.0871658325
35.6418533325 36.0247039795 67.8931350708
35.6772460938 36.0587768555 67.7083282471
35.7881011963 36.1654243469 67.5346527100
35.9638175964 36.3344459534 67.3707351685
36.1697273254 36.5325012207 67.2116012573
36.3633575439 36.7187500000 67.0509796143
36.5158119202 36.8654022217 66.8844985962
36.6197052002 36.9653511047 66.7109451294
36.6821670532 37.0254554749 66.5312576294
36.7149200439 37.0569953918 66.3471298218
36.7289047241 37.0704841614 66.1601715088
36.7329063416 37.0743675232 65.9716796875
36.7336616516 37.0751342773 65.7826843262
36.7356109619 37.0770454407 65.5938644409
36.7392463684 37.0805778503 65.4053115845
36.7397956848 37.0811500549 65.2162628174
36.7293777466 37.0711669922 65.0254669189
36.7020721436 37.0449447632 64.8319473267
36.6572837830 37.0019149780 64.6355667114
36.5983390808 36.9452667236 64.4368057251
36.5293350220 36.8789443970 64.2363052368
36.4551429749 36.8076324463 64.0348281860
36.3846054077 36.7398376465 63.8338088989
36.3318634033 36.6891593933 63.6356010437
36.3133506775 36.6713943481 63.4429702759
36.3432426453 36.7001762390 63.2583694458
36.4291076660 36.7827873230 63.0831947327
36.5670280457 36.9154624939 62.9169349670
36.7398643494 37.0817146301 62.7568168640
36.9241828918 37.2590065002 62.5989456177
37.1012725830 37.4293479919 62.4401512146
37.2611427307 37.5831298828 62.2786941528
37.3978614807 37.7146453857 62.1135063171
37.5048789978 37.8175964355 61.9433860779
37.5753593445 37.8854141235 61.7670707703
37.6056518555 37.9145851135 61.5838127136
37.5992164612 37.9084358215 61.3941268921
37.5681419373 37.8785934448 61.2000579834
37.5295066833 37.8414764404 61.0045776367
37.4979820251 37.8111953735 60.8102951050
37.4795036316 37.7934646606 60.6182937622
37.4689598083 37.7833633423 60.4276847839
37.4521255493 37.7672157288 60.2359123230
37.4124031067 37.7290496826 60.0399246216
37.3407173157 37.6601524353 59.8380012512
37.2422637939 37.5655097961 59.6310157776
37.1339225769 37.4613609314 59.4220199585
37.0346679688 37.3659477234 59.2145195007
36.9570083618 37.2913055420 59.0108718872
36.9048347473 37.2411689758 58.8118591309
36.8775749207 37.2149925232 58.6174468994
36.8780860901 37.2155227661 58.4282341003
36.9192810059 37.2551765442 58.2467536926
37.0212478638 37.3532714844 58.0769538879
37.1955413818 37.5209236145 57.9212036133
37.4279594421 37.7444686890 57.7769584656
37.6786041260 37.9855461121 57.6366386414
37.9023551941 38.2007598877 57.4915161133
38.0712738037 38.3632431030 57.3360557556
38.1807594299 38.4685668945 57.1692161560
38.2405586243 38.5261116028 56.9927597046
38.2642211914 38.5489082336 56.8092422485
38.2644081116 38.5491294861 56.6210861206
38.2514572144 38.5367088318 56.4302978516
38.2319450378 38.5179862976 56.2381629944
38.2080268860 38.4950218201 56.0450973511
38.1779365540 38.4661216736 55.8507347107
38.1365890503 38.4263992310 55.6540222168
38.0776062012 38.3697166443 55.4536285400
37.9988632202 38.2940292358 55.2490730286
37.9075431824 38.2062454224 55.0417823792
37.8171577454 38.1193656921 54.8345184326
37.7375717163 38.0428695679 54.6293334961
37.6690979004 37.9770584106 54.4263153076
37.6068344116 37.9172172546 54.2244720459
37.5488510132 37.8614959717 54.0234107971
37.4998321533 37.8143959045 53.8241310120
37.4700355530 37.7857818604 53.6288337708
37.4726829529 37.7883644104 53.4403839111
37.5185928345 37.8325538635 53.2611770630
37.6081695557 37.9187355042 53.0914115906
37.7277069092 38.0337257385 52.9282493591
37.8551521301 38.1563262939 52.7669982910
37.9704399109 38.2672309875 52.6033172607
38.0618057251 38.3551330566 52.4346160889
38.1262435913 38.4171371460 52.2601699829
38.1671485901 38.4565162659 52.0806541443
38.1910476685 38.4795341492 51.8974456787
38.2038879395 38.4919204712 51.7118225098
38.2081413269 38.4960479736 51.5243034363
38.2012214661 38.4894332886 51.3342857361
38.1757011414 38.4649276733 51.1400833130
38.1230735779 38.4143600464 50.9397239685
38.0408668518 38.3353424072 50.7325820923
37.9371414185 38.2356300354 50.5204086304
37.8267326355 38.1294937134 50.3065261841
37.7233161926 38.0300788879 50.0940399170
37.6356887817 37.9458503723 49.8849868774
37.5688629150 37.8816261292 49.6805648804
37.5258903503 37.8403396606 49.4815292358
37.5111541748 37.8262062073 49.2889633179
37.5363121033 37.8504371643 49.1056556702
37.6217269897 37.9326171875 48.9364700317
37.7836151123 38.0883331299 48.7853660583
38.0117225647 38.3077392578 48.6501350403
38.2607192993 38.5472259521 48.5202293396
38.4720954895 38.7505378723 48.3818244934
38.6101112366 38.8832969666 48.2263107300
38.6768493652 38.9475173950 48.0539932251
38.6954421997 38.9654350281 47.8702354431
38.6839675903 38.9544372559 47.6792640686
38.6465873718 38.9185256958 47.4820060730
38.5849761963 38.8593177795 47.2787971497
38.5111503601 38.7883605957 47.0725021362
38.4447555542 38.7245483398 46.8678817749
38.3996734619 38.6812362671 46.6683654785
38.3764266968 38.6589202881 46.4741287231
38.3665237427 38.6494331360 46.2831420898
38.3601341248 38.6433258057 46.0929946899
38.3489646912 38.6326217651 45.9016456604
38.3248367310 38.6094589233 45.7070312500
38.2796020508 38.5659980774 45.5070877075
38.2098808289 38.4989852905 45.3008995056
38.1231422424 38.4156112671 45.0902938843
38.0373725891 38.3331718445 44.8797760010
37.9721984863 38.2705345154 44.6743278503
37.9400787354 38.2396850586 44.4771728516
37.9458465576 38.2452697754 44.2896423340
37.9913520813 38.2890663147 44.1123008728
38.0760192871 38.3705253601 43.9451065063
38.1918144226 38.4819221497 43.7860908508
38.3208427429 38.6060409546 43.6306991577
38.4421043396 38.7226905823 43.4735031128
38.5427474976 38.8195152283 43.3111343384
38.6226272583 38.8963661194 43.1434974670
38.6879158020 38.9591903687 42.9721603394
38.7415885925 39.0108413696 42.7978706360
38.7803955078 39.0482025146 42.6197395325
38.7980499268 39.0652160645 42.4360542297
38.7880058289 39.0555953979 42.2450256348
38.7447013855 39.0139884949 42.0450935364
38.6672554016 38.9395523071 41.8359336853
38.5644950867 38.8407707214 41.6198272705
38.4541816711 38.7347259521 41.4015007019
38.3546104431 38.6390113831 41.1858749390
38.2753334045 38.5628128052 40.9755744934
38.2143135071 38.5041694641 40.7700958252
38.1628456116 38.4547157288 40.5671119690
38.1141586304 38.4079360962 40.3647880554
38.0688056946 38.3643569946 40.1632881165
38.0327949524 38.3297691345 39.9642791748
38.0117683411 38.3095855713 39.7693405151
38.0080375671 38.3060340881 39.5791549683
38.0221672058 38.3196601868 39.3939247131
38.0542716980 38.3505744934 39.2137260437
38.1022682190 38.3967666626 39.0380287170
38.1608619690 38.4531517029 38.8653831482
38.2258148193 38.5156517029 38.6946220398
38.2993583679 38.5864143372 38.5263977051
38.3864402771 38.6701965332 38.3621292114
38.4812278748 38.7613868713 38.2001991272
38.5608215332 38.8379669189 38.0340881348
38.6003532410 38.8760223389 37.8566474915
38.5957717896 38.8716545105 37.6666069031
38.5668792725 38.8439064026 37.4695472717
38.5379753113 38.8161506653 37.2724304199
38.5198287964 38.7987365723 37.0783653259
38.5079460144 38.7873497009 36.8860855103
38.4906005859 38.7707061768 36.6921806335
38.4564056396 38.7378616333 36.4933128357
38.3996963501 38.6833686829 36.2877807617
38.3240356445 38.6106452942 36.0765647888
38.2416687012 38.5314750671 35.8632354736
38.1681671143 38.4608345032 35.6523742676
38.1152801514 38.4100112915 35.4474906921
38.0865173340 38.3823928833 35.2496833801
38.0779495239 38.3741874695 35.0578422546
38.0823478699 38.3784599304 34.8698577881
38.0933227539 38.3890495300 34.6838493347
38.1074638367 38.4026870728 34.4988059998
38.1254920959 38.4200630188 34.3149490356
38.1527786255 38.4463386536 34.1339187622
38.1977539063 38.4896316528 33.9583015442
38.2657699585 38.5550765991 33.7897682190
38.3499679565 38.6360855103 33.6262893677
38.4277229309 38.7108955383 33.4609756470
38.4715385437 38.7530670166 33.2853622437
38.4684791565 38.7501640320 33.0953826904
38.4280433655 38.7113151550 32.8938446045
38.3702354431 38.6557655334 32.6868476868
38.3102493286 38.5981178284 32.4790649414
38.2549858093 38.5450096130 32.2726364136
38.2063713074 38.4983024597 32.0681838989
38.1615524292 38.4552383423 31.8648242950
38.1118812561 38.4075126648 31.6598529816
38.0474967957 38.3456382751 31.4501533508
37.9671211243 38.2683830261 31.2352809906
37.8840599060 38.1885452271 31.0194110870
37.8207626343 38.1277160645 30.8096618652
37.7954063416 38.1033668518 30.6118793488
37.8131637573 38.1204833984 30.4278144836
37.8690109253 38.1742286682 30.2559719086
37.9563865662 38.2582893372 30.0943431854
38.0709228516 38.3684730530 29.9416046143
38.2056694031 38.4980888367 29.7955837250
38.3454627991 38.6325607300 29.6514282227
38.4701156616 38.7524681091 29.5025901794
38.5646896362 38.8434524536 29.3441715240
38.6264991760 38.9029312134 29.1752166748
38.6628036499 38.9378814697 28.9980163574
38.6835021973 38.9578247070 28.8157482147
38.6958312988 38.9697151184 28.6307544708
38.7032623291 38.9769058228 28.4441604614
38.7067947388 38.9803352356 28.2562789917
38.7064781189 38.9800720215 28.0671195984
38.7022743225 38.9760665894 27.8766593933
38.6937255859 38.9678840637 27.6847362518
38.6783599854 38.9531440735 27.4905090332
38.6496238708 38.9255485535 27.2917652130
38.5968284607 38.8748207092 27.0848808289
38.5096282959 38.7910041809 26.8663024902
38.3859825134 38.6721420288 26.6352539063
38.2377891541 38.5296707153 26.3956661224
38.0882339478 38.3858871460 26.1553459167
37.9613990784 38.2639579773 25.9224929810
37.8712005615 38.1772575378 25.7019100189
37.8172531128 38.1254196167 25.4935665131
37.7891883850 38.0984687805 25.2939968109
37.7736854553 38.0835990906 25.0986919403
37.7582321167 38.0687789917 24.9033679962
37.7315139771 38.0431251526 24.7041149139
37.6852722168 37.9986953735 24.4980411530
37.6194992065 37.9354820251 24.2850914001
37.5454750061 37.8643379211 24.0691452026
37.4801139832 37.8015213013 23.8560848236
37.4349555969 37.7581367493 23.6499748230
37.4104537964 37.7346115112 23.4510250092
37.3993263245 37.7239494324 23.2567291260
37.3927345276 37.7176513672 23.0640068054
37.3832244873 37.7085418701 22.8702316284
37.3648147583 37.6908760071 22.6732769012
37.3337974548 37.6610870361 22.4718017578
37.2914047241 37.6203613281 22.2662124634
37.2454376221 37.5761985779 22.0592651367
37.2076263428 37.5398750305 21.8551464081
37.1884689331 37.5214920044 21.6576480865
37.1947479248 37.5275688171 21.4692573547
37.2305030823 37.5619926453 21.2914962769
37.2980117798 37.6269454956 21.1252670288
37.3969612122 37.7221412659 20.9705410004
37.5236587524 37.8440132141 20.8260593414
37.6711730957 37.9859085083 20.6893711090
37.8293342590 38.1380424500 20.5568180084
37.9842491150 38.2870521545 20.4233455658
38.1196899414 38.4173355103 20.2829971313
38.2226104736 38.5163459778 20.1309223175
38.2895927429 38.5807952881 19.9657783508
38.3276252747 38.6174049377 19.7900505066
38.3480262756 38.6370620728 19.6078529358
38.3597526550 38.6483764648 19.4224643707
38.3666915894 38.6550903320 19.2353076935
38.3679924011 38.6563796997 19.0460529327
38.3586120605 38.6473960876 18.8527984619
38.3298797607 38.6198081970 18.6522712708
38.2726821899 38.5648422241 18.4409942627
38.1834564209 38.4790763855 18.2175559998
38.0679512024 38.3680458069 17.9840393066
37.9384040833 38.2435073853 17.7449989319
37.8084831238 38.1186065674 17.5055828094
37.6917037964 38.0063514709 17.2709236145
37.6006622314 37.9188385010 17.0458488464
37.5436859131 37.8640861511 16.8336067200
37.5234375000 37.8446540833 16.6353073120
37.5401611328 37.8607749939 16.4511394501
37.5929908752 37.9116172791 16.2808666229
37.6747779846 37.9903068542 16.1218318939
37.7673606873 38.0793762207 15.9670991898
37.8467597961 38.1557655334 15.8074197769
37.8947982788 38.2019996643 15.6357107162
37.9054641724 38.2122955322 15.4495515823
37.8831710815 38.1908912659 15.2505626678
37.8390960693 38.1485481262 15.0430240631
37.7877235413 38.0991859436 14.8325433731
37.7417259216 38.0549926758 14.6240711212
37.7085456848 38.0231246948 14.4205484390
37.6916046143 38.0068740845 14.2233581543
37.6909713745 38.0063018799 14.0325660706
37.7000579834 38.0150794983 13.8456115723
37.7047729492 38.0196533203 13.6569318771
37.6895942688 38.0050926208 13.4603433609
37.6455955505 37.9628219604 13.2522401810
37.5738220215 37.8938407898 13.0329637527
37.4836006165 37.8071212769 12.8061723709
37.3895072937 37.7166748047 12.5776605606
37.3095130920 37.6397895813 12.3546409607
37.2627983093 37.5949096680 12.1448755264
37.2633438110 37.5954704285 11.9540939331
37.3105697632 37.6409225464 11.7821865082
37.3861885071 37.7136802673 11.6218643188
37.4638748169 37.7884254456 11.4625072479
37.5244407654 37.8467025757 11.2963066101
37.5628623962 37.8836898804 11.1211690903
37.5839271545 37.9039840698 10.9389953613
37.5945205688 37.9142112732 10.7525596619
37.5992774963 37.9188232422 10.5637350082
37.5992813110 37.9188690186 10.3729572296
37.5914382935 37.9113616943 10.1789331436
37.5685729980 37.8894119263 9.9786787033
37.5231590271 37.8457794189 9.7690372467
37.4546699524 37.7799606323 9.5497303009
37.3741722107 37.7025909424 9.3252992630
37.2990570068 37.6303939819 9.1029615402
37.2417297363 37.5753059387 8.8879127502
37.2038116455 37.5388832092 8.6808805466
