43.2059860229 28.4137554169 35.6207656860
43.1796684265 28.3972854614 35.4240646362
43.1463546753 28.3764152527 35.2256736755
43.1115570068 28.3546104431 35.0268745422
43.0817909241 28.3359718323 34.8292160034
43.0626754761 28.3240318298 34.6340370178
43.0567283630 28.3203754425 34.4419670105
43.0623703003 28.3240089417 34.2526588440
43.0748863220 28.3319644928 34.0650024414
43.0885047913 28.3406162262 33.8776283264
43.0979728699 28.3466548920 33.6892623901
43.0989723206 28.3473682404 33.4988555908
43.0885124207 28.3408718109 33.3056602478
43.0659065247 28.3267364502 33.1094856262
43.0333557129 28.3063468933 32.9108390808
42.9946823120 28.2821025848 32.7106361389
42.9530601501 28.2560062408 32.5096473694
42.9102401733 28.2291564941 32.3082962036
42.8679695129 28.2026519775 32.1070098877
42.8295478821 28.1785697937 31.9066143036
42.7992401123 28.1595897675 31.7081756592
42.7800292969 28.1475906372 31.5124568939
42.7722167969 28.1427593231 31.3195610046
42.7740745544 28.1440124512 31.1290779114
42.7833328247 28.1499195099 30.9404563904
42.7976188660 28.1589908600 30.7531147003
42.8139457703 28.1693439484 30.5663051605
42.8288230896 28.1787872314 30.3791484833
42.8397254944 28.1857299805 30.1909942627
42.8464241028 28.1900272369 30.0017757416
42.8509292603 28.1929454803 29.8120021820
42.8561973572 28.1963443756 29.6224250793
42.8645591736 28.2016868591 29.4336490631
42.8767890930 28.2094650269 29.2458801270
42.8922843933 28.2192935944 29.0589714050
42.9097251892 28.2303504944 28.8725872040
42.9273185730 28.2415008545 28.6862640381
42.9427986145 28.2513217926 28.4994087219
42.9541587830 28.2585525513 28.3114910126
42.9608001709 28.2628154755 28.1223449707
42.9639205933 28.2648601532 27.9322738647
42.9657096863 28.2660694122 27.7418479919
42.9682083130 28.2677288055 27.5516109467
42.9725990295 28.2705745697 27.3618755341
42.9790077209 28.2746887207 27.1726799011
42.9867019653 28.2796115875 26.9838314056
42.9945983887 28.2846641541 26.7950458527
43.0021286011 28.2894840240 26.6061668396
43.0097351074 28.2943534851 26.4173164368
43.0183944702 28.2998828888 26.2287540436
43.0283203125 28.3062133789 26.0405464172
43.0384178162 28.3126487732 25.8523941040
43.0472488403 28.3182888031 25.6639060974
43.0547103882 28.3230628967 25.4750518799
43.0628204346 28.3282489777 25.2863807678
43.0752220154 28.3361339569 25.0988979340
43.0959663391 28.3492679596 24.9137287140
43.1281661987 28.3696060181 24.7317523956
43.1726799011 28.3976879120 24.5532321930
43.2273330688 28.4321498871 24.3775920868
43.2875671387 28.4701232910 24.2035846710
43.3482284546 28.5083637238 24.0297794342
43.4051132202 28.5442276001 23.8550014496
43.4552917480 28.5758743286 23.6784191132
43.4967880249 28.6020603180 23.4994621277
43.5286178589 28.6221656799 23.3178310394
43.5512237549 28.6364688873 23.1336307526
43.5665969849 28.6462230682 22.9474067688
43.5777320862 28.6533107758 22.7599925995
43.5875549316 28.6595726013 22.5722160339
43.5981330872 28.6663112640 22.3846645355
43.6104583740 28.6741485596 22.1976261139
43.6246528625 28.6831607819 22.0111370087
43.6402664185 28.6930656433 21.8250751495
43.6565666199 28.7034034729 21.6392307281
43.6727523804 28.7136688232 21.4533710480
43.6880989075 28.7234039307 21.2672863007
43.7019653320 28.7322101593 21.0807876587
43.7137145996 28.7396850586 20.8936882019
43.7226371765 28.7453804016 20.7057723999
43.7279930115 28.7488346100 20.5168190002
43.7293815613 28.7497920990 20.3266983032
43.7271652222 28.7484817505 20.1355133057
43.7226905823 28.7457504272 19.9436511993
43.7179908752 28.7428798676 19.7517108917
43.7151756287 28.7411937714 19.5603199005
43.7158126831 28.7416782379 19.3699474335
43.7204971313 28.7447090149 19.1807804108
43.7288818359 28.7500667572 18.9927234650
43.7401046753 28.7572097778 18.8055267334
43.7533607483 28.7656326294 18.6189537048
43.7681579590 28.7750244141 18.4328613281
43.7841110229 28.7851428986 18.2471351624
43.8006134033 28.7956066132 18.0615921021
43.8165245056 28.8056983948 17.8758907318
43.8299407959 28.8142223358 17.6894493103
43.8382873535 28.8195552826 17.5014724731
43.8392868042 28.8202667236 17.3112525940
43.8325347900 28.8161048889 17.1186504364
43.8202018738 28.8084316254 16.9243164063
43.8060226440 28.7995986938 16.7293891907
43.7935600281 28.7918434143 16.5349674225
43.7850837708 28.7865962982 16.3417568207
43.7812385559 28.7842617035 16.1499691010
43.7812728882 28.7843666077 15.9593763351
43.7836189270 28.7859268188 15.7695016861
43.7866897583 28.7879428864 15.5798521042
43.7893180847 28.7896785736 15.3900632858
43.7907600403 28.7906723022 15.1999015808
43.7905044556 28.7905941010 15.0092000961
43.7882957458 28.7892894745 14.8178777695
43.7847900391 28.7871685028 14.6261358261
43.7823181152 28.7856979370 14.4347114563
43.7847061157 28.7872848511 14.2448253632
43.7955017090 28.7941589355 14.0576181412
43.8158798218 28.8070602417 13.8734855652
43.8441276550 28.8249130249 13.6918992996
43.8768272400 28.8455638885 13.5117797852
43.9104347229 28.8667850494 13.3319959641
43.9423713684 28.8869590759 13.1517190933
43.9713745117 28.9052848816 12.9705343246
43.9969024658 28.9214267731 12.7882633209
44.0180892944 28.9348354340 12.6046142578
44.0330467224 28.9443302155 12.4189643860
44.0393867493 28.9484004974 12.2305192947
44.0355529785 28.9460735321 12.0387516022
44.0218200684 28.9375190735 11.8437271118
43.9999809265 28.9238681793 11.6460142136
43.9722061157 28.9064807892 11.4463090897
43.9403266907 28.8865127563 11.2452030182
43.9062767029 28.8651828766 11.0433273315
43.8728637695 28.8442497253 10.8416061401
43.8435859680 28.8259181976 10.6412038803
43.8214569092 28.8120861053 10.4431352615
43.8080673218 28.8037452698 10.2479429245
43.8035087585 28.8009624481 10.0556821823
43.8064117432 28.8028736115 9.8659114838
43.8130607605 28.8071384430 9.6773977280
43.8164710999 28.8093681335 9.4877986908
43.8073043823 28.8036880493 9.2939548492
43.7772827148 28.7848892212 9.0930395126
43.7234573364 28.7511196136 8.8840036392
43.6502571106 28.7051620483 8.6683006287
43.5674667358 28.6531715393 8.4492177963
43.4855346680 28.6017227173 8.2302999496
43.4118041992 28.5554332733 8.0140600204
43.3496017456 28.5163936615 7.8016557693
43.2995109558 28.4849739075 7.5933141708
43.2612342834 28.4609832764 7.3889589310
43.2349662781 28.4445438385 7.1886839867
43.2218704224 28.4363918304 6.9929189682
43.2236938477 28.4376239777 6.8022980690
43.2420005798 28.4492206573 6.6173968315
43.2773971558 28.4715709686 6.4384655952
43.3287124634 28.5039310455 6.2651329041
43.3921852112 28.5439376831 6.0961179733
43.4614524841 28.5875892639 5.9292230606
43.5290412903 28.6301860809 5.7618374825
43.5889434814 28.6679477692 5.5918445587
43.6386833191 28.6993141174 5.4183535576
43.6791877747 28.7248744965 5.2416706085
43.7126464844 28.7460041046 5.0625505447
43.7402267456 28.7634372711 4.8813905716
43.7613182068 28.7767868042 4.6979598999
43.7742652893 28.7850131989 4.5116548538
43.7777290344 28.7872772217 4.3219819069
43.7717781067 28.7836189270 4.1289396286
43.7579879761 28.7750282288 3.9330754280
43.7387657166 28.7630233765 3.7352347374
43.7166366577 28.7491893768 3.5363147259
43.6940803528 28.7350864410 3.3372018337
43.6736831665 28.7223415375 3.1388304234
43.6581993103 28.7126884460 2.9422039986
43.6500434875 28.7076396942 2.7482063770
43.6501464844 28.7077903748 2.5571963787
43.6570320129 28.7122058868 2.3686521053
43.6670036316 28.7185611725 2.1812396049
43.6758270264 28.7241954803 1.9934169054
43.6810035706 28.7275352478 1.8042660952
43.6832275391 28.7290210724 1.6140336990
43.6862449646 28.7310009003 1.4240903854
43.6952285767 28.7367362976 1.2363481522
43.7143821716 28.7488670349 1.0523716211
43.7448844910 28.7681369781 0.8726221919
43.7846450806 28.7932281494 0.6963484883
43.8299560547 28.8218135834 0.5221931934
43.8775482178 28.8518295288 0.3489488065
43.9252891541 28.8819408417 0.1758271158
43.9715461731 28.9111194611 0.0022161552
-2.4886786938 38.1492614746 77.3351669312
-2.4895257950 38.1622810364 77.1361846924
-2.4907836914 38.1857223511 76.9377059937
-2.4921329021 38.2114753723 76.7393646240
-2.4932959080 38.2325134277 76.5408172607
-2.4941067696 38.2446136475 76.3418502808
-2.4944803715 38.2456207275 76.1423339844
-2.4943578243 38.2340393066 75.9421844482
-2.4936904907 38.2086448669 75.7413024902
-2.4924724102 38.1692695618 75.5396652222
-2.4907810688 38.1178855896 75.3373489380
-2.4887907505 38.0589179993 75.1345672607
-2.4867434502 37.9984931946 74.9316329956
-2.4848895073 37.9429740906 74.7288818359
-2.4834308624 37.8974876404 74.5266036987
-2.4824969769 37.8653068542 74.3250122070
-2.4821605682 37.8482894897 74.1242141724
-2.4824674129 37.8475914001 73.9243087769
-2.4834299088 37.8635292053 73.7253570557
-2.4849741459 37.8942375183 73.5272598267
-2.4868872166 37.9342994690 73.3297424316
-2.4888195992 37.9748573303 73.1323013306
-2.4903688431 38.0056953430 72.9343185425
-2.4912071228 38.0184898376 72.7352905273
-2.4911828041 38.0093917847 72.5349349976
-2.4903435707 37.9796066284 72.3333053589
-2.4888825417 37.9340362549 72.1306533813
-2.4870605469 37.8793106079 71.9273757935
-2.4851517677 37.8223648071 71.7238769531
-2.4834091663 37.7696456909 71.5205841064
-2.4820294380 37.7261352539 71.3178100586
-2.4811062813 37.6942062378 71.1157302856
-2.4806153774 37.6732482910 70.9143218994
-2.4804482460 37.6605148315 70.7134246826
-2.4804623127 37.6523704529 70.5128173828
-2.4805078506 37.6450347900 70.3122406006
-2.4804322720 37.6346206665 70.1114501953
-2.4800777435 37.6171188354 69.9101562500
-2.4792966843 37.5887908936 69.7080841064
-2.4779970646 37.5472946167 69.5050582886
-2.4761939049 37.4930076599 69.3010787964
-2.4740316868 37.4296035767 69.0963821411
-2.4717590809 37.3633918762 68.8914031982
-2.4696631432 37.3016624451 68.6866607666
-2.4679801464 37.2504158020 68.4826049805
-2.4668016434 37.2119789124 68.2794189453
-2.4660186768 37.1835823059 68.0769195557
-2.4653527737 37.1581611633 67.8746032715
-2.4644942284 37.1278419495 67.6718826294
-2.4632835388 37.0885810852 67.4684448242
-2.4618046284 37.0425033569 67.2644348145
-2.4603033066 36.9958572388 67.0603179932
-2.4590194225 36.9547271729 66.8565750122
-2.4580848217 36.9224662781 66.6534652710
-2.4575333595 36.8999366760 66.4510726929
-2.4573531151 36.8868331909 66.2493972778
-2.4575152397 36.8824272156 66.0483856201
-2.4579722881 36.8855056763 65.8479766846
-2.4586441517 36.8940467834 65.6480026245
-2.4594066143 36.9048881531 65.4482192993
-2.4600923061 36.9137802124 65.2482910156
-2.4605093002 36.9158477783 65.0477981567
-2.4604668617 36.9062461853 64.8463287354
-2.4598078728 36.8809776306 64.6435241699
-2.4584643841 36.8383140564 64.4392166138
-2.4565439224 36.7809867859 64.2336044312
-2.4543900490 36.7177352905 64.0274047852
-2.4525187016 36.6616516113 63.8217468262
-2.4514095783 36.6249351501 63.6176986694
-2.4512891769 36.6133346558 63.4158020020
-2.4520578384 36.6243324280 63.2158737183
-2.4533827305 36.6494560242 63.0172119141
-2.4548442364 36.6780509949 62.8188858032
-2.4560532570 36.7002410889 62.6200103760
-2.4567298889 36.7088966370 62.4199295044
-2.4567468166 36.7007865906 62.2183227539
-2.4561226368 36.6763877869 62.0152091980
-2.4549627304 36.6383666992 61.8108024597
-2.4534163475 36.5905265808 61.6054306030
-2.4517090321 36.5385894775 61.3996124268
-2.4501762390 36.4910888672 61.1941452026
-2.4491829872 36.4572944641 60.9899139404
-2.4489448071 36.4426879883 60.7874679565
-2.4494147301 36.4460830688 60.5867233276
-2.4503266811 36.4607200623 60.3870658875
-2.4513163567 36.4773254395 60.1876106262
-2.4520180225 36.4866142273 59.9874534607
-2.4521493912 36.4814033508 59.7858772278
-2.4516072273 36.4590682983 59.5825920105
-2.4505274296 36.4230690002 59.3779144287
-2.4492228031 36.3813514709 59.1726188660
-2.4480216503 36.3422584534 58.9675292969
-2.4471256733 36.3109207153 58.7631721497
-2.4465801716 36.2884979248 58.5596847534
-2.4463357925 36.2737236023 58.3569450378
-2.4463157654 36.2646560669 58.1547737122
-2.4464433193 36.2593421936 57.9529762268
-2.4466326237 36.2555923462 57.7513275146
-2.4467780590 36.2507362366 57.5495529175
-2.4467673302 36.2418975830 57.3473472595
-2.4465079308 36.2267379761 57.1444549561
-2.4459514618 36.2040290833 56.9407310486
-2.4451096058 36.1740531921 56.7361946106
-2.4440743923 36.1391639709 56.5310859680
-2.4430284500 36.1039962769 56.3259010315
-2.4422001839 36.0743637085 56.1212730408
-2.4417812824 36.0551376343 55.9177474976
-2.4418716431 36.0488700867 55.7156181335
-2.4424786568 36.0557365417 55.5149383545
-2.4435355663 36.0740470886 55.3155326843
-2.4449088573 36.1004066467 55.1170501709
-2.4463975430 36.1297073364 54.9189224243
-2.4477488995 36.1555099487 54.7204284668
-2.4486994743 36.1711196899 54.5208015442
-2.4490244389 36.1708145142 54.3193626404
-2.4485754967 36.1508293152 54.1156501770
-2.4473345280 36.1106834412 53.9095764160
-2.4454975128 36.0553779602 53.7016830444
-2.4435331821 35.9968299866 53.4933395386
-2.4420862198 35.9514350891 53.2864685059
-2.4416961670 35.9329376221 53.0827140808
-2.4424695969 35.9440383911 52.8824424744
-2.4439630508 35.9734535217 52.6843681335
-2.4454252720 36.0020790100 52.4862289429
-2.4462516308 36.0145301819 52.2861671448
-2.4462912083 36.0069580078 52.0836906433
-2.4457962513 35.9857788086 51.8795433044
-2.4451668262 35.9611816406 51.6749458313
-2.4447841644 35.9428634644 51.4710845947
-2.4449837208 35.9393577576 51.2690277100
-2.4460160732 35.9570465088 51.0695915222
-2.4479362965 35.9973373413 50.8729896545
-2.4505419731 36.0550613403 50.6786155701
-2.4534389973 36.1202163696 50.4852409363
-2.4562084675 36.1821212769 50.2915267944
-2.4585874081 36.2340927124 50.0966224670
-2.4605858326 36.2763748169 49.9005317688
-2.4624550343 36.3153800964 49.7040710449
-2.4645388126 36.3598403931 49.5083503723
-2.4671113491 36.4167480469 49.3142929077
-2.4702899456 36.4890823364 49.1223030090
-2.4740035534 36.5750389099 48.9321784973
-2.4779953957 36.6680870056 48.7430839539
-2.4818925858 36.7587280273 48.5537757874
-2.4853441715 36.8380279541 48.3630676270
-2.4881522655 36.9009513855 48.1702690125
-2.4903070927 36.9472465515 47.9753150940
-2.4919257164 36.9798889160 47.7785758972
-2.4931583405 37.0027084351 47.5805473328
-2.4941325188 37.0189476013 47.3816490173
-2.4949491024 37.0311775208 47.1822166443
-2.4957175255 37.0421714783 46.9826240540
-2.4965980053 37.0560264587 46.7834358215
-2.4978234768 37.0786705017 46.5854682922
-2.4996583462 37.1168289185 46.3896713257
-2.5022826195 37.1750907898 46.1967124939
-2.5056781769 37.2529983521 46.0065650940
-2.5096075535 37.3445014954 45.8184127808
-2.5136997700 37.4401588440 45.6309509277
-2.5175716877 37.5302047729 45.4428024292
-2.5209362507 37.6073379517 45.2529220581
-2.5236833096 37.6687507629 45.0608863831
-2.5259044170 37.7167663574 44.8669967651
-2.5278325081 37.7573204041 44.6720848083
-2.5297131538 37.7966728210 44.4770431519
-2.5316927433 37.8385429382 44.2824058533
-2.5338013172 37.8837013245 44.0882949829
-2.5360021591 37.9312171936 43.8945770264
-2.5382258892 37.9793090820 43.7009963989
-2.5403783321 38.0255966187 43.5072021484
-2.5423805714 38.0680503845 43.3128890991
-2.5442256927 38.1065101624 43.1180267334
-2.5459864140 38.1428222656 42.9228858948
-2.5477476120 38.1791419983 42.7277832031
-2.5495462418 38.2164154053 42.5328598022
-2.5513942242 38.2549591064 42.3381690979
-2.5533542633 38.2963523865 42.1439552307
-2.5555732250 38.3443412781 41.9507865906
-2.5582418442 38.4037933350 41.7594261169
-2.5615203381 38.4787902832 41.5705146790
-2.5654528141 38.5704574585 41.3842620850
-2.5698916912 38.6750297546 41.2001075745
-2.5744974613 38.7838554382 41.0167388916
-2.5788724422 38.8868141174 40.8325767517
-2.5827517509 38.9771385193 40.6465530396
-2.5860927105 39.0537490845 40.4584808350
-2.5890283585 39.1200408936 40.2688636780
-2.5917689800 39.1813545227 40.0785369873
-2.5945115089 39.2427291870 39.8882827759
-2.5973773003 39.3072395325 39.6986007690
-2.6004090309 39.3759918213 39.5096702576
-2.6036531925 39.4501571655 39.3216857910
-2.6072230339 39.5326232910 39.1351242065
-2.6112504005 39.6267623901 38.9505462646
-2.6157944202 39.7340698242 38.7682189941
-2.6208341122 39.8540229797 38.5880775452
-2.6263382435 39.9858245850 38.4100151062
-2.6323013306 40.1293258667 38.2340316772
-2.6387138367 40.2842903137 38.0601043701
-2.6455111504 40.4490776062 37.8879852295
-2.6525361538 40.6196746826 37.7170219421
-2.6595330238 40.7895622253 37.5461425781
-2.6661961079 40.9509506226 37.3740386963
-2.6722714901 41.0973625183 37.1996040344
-2.6776764393 41.2266845703 37.0224647522
-2.6825747490 41.3431015015 36.8432884216
-2.6873555183 41.4565238953 36.6637382507
-2.6925077438 41.5794219971 36.4859313965
-2.6984443665 41.7223243713 36.3116912842
-2.7053453922 41.8898353577 36.1418380737
-2.7130961418 42.0790176392 35.9759140015
-2.7213377953 42.2807312012 35.8123779297
-2.7295784950 42.4824256897 35.6490745544
-2.7373268604 42.6715774536 35.4838256836
-2.7442553043 42.8398284912 35.3151473999
-2.7503075600 42.9857406616 35.1427574158
-2.7556469440 43.1134796143 34.9673385620
-2.7605104446 43.2290840149 34.7899284363
-2.7651140690 43.3380699158 34.6114807129
-2.7696375847 43.4450149536 34.4327926636
-2.7742216587 43.5535125732 34.2545089722
-2.7789559364 43.6658439636 34.0770339966
-2.7838771343 43.7829513550 33.9005432129
-2.7889728546 43.9045143127 33.7249946594
-2.7941868305 44.0290985107 33.5501289368
-2.7994382381 44.1546516418 33.3755836487
-2.8046731949 44.2797851563 33.2011108398
-2.8099107742 44.4049911499 33.0267944336
-2.8152339458 44.5323905945 32.8530235291
-2.8207228184 44.6640205383 32.6801795959
-2.8263862133 44.8001098633 32.5083045959
-2.8321523666 44.9388313293 32.3370819092
-2.8379247189 45.0777130127 32.1660461426
-2.8436462879 45.2153091431 31.9949340820
-2.8493118286 45.3514823914 31.8237152100
-2.8549077511 45.4858856201 31.6523246765
-2.8603675365 45.6168212891 31.4804382324
-2.8656098843 45.7422103882 31.3076610565
-2.8706226349 45.8617553711 31.1339225769
-2.8754847050 45.9774551392 30.9595928192
-2.8802790642 46.0914306641 30.7850704193
-2.8849802017 46.2030410767 30.6102256775
-2.8894338608 46.3083343506 30.4343032837
-2.8934340477 46.4020576477 30.2562789917
-2.8968219757 46.4801635742 30.0753536224
-2.8995466232 46.5413398743 29.8912448883
-2.9016692638 46.5871543884 29.7042274475
-2.9033350945 46.6213111877 29.5149898529
-2.9047451019 46.6489410400 29.3245162964
-2.9061684608 46.6769104004 29.1341381073
-2.9079563618 46.7141914368 28.9456138611
-2.9104816914 46.7702903748 28.7608356476
-2.9139885902 46.8514556885 28.5810680389
-2.9184474945 46.9569320679 28.4062099457
-2.9235353470 47.0784645081 28.2346611023
-2.9287829399 47.2040824890 28.0640678406
-2.9338002205 47.3238296509 27.8924484253
-2.9384238720 47.4335327148 27.7189521790
-2.9427073002 47.5345497131 27.5438365936
-2.9468011856 47.6307334900 27.3678646088
-2.9508514404 47.7258071899 27.1917762756
-2.9549930096 47.8232231140 27.0162734985
-2.9593777657 47.9268493652 26.8421440125
-2.9641163349 48.0395126343 26.6699810028
-2.9691643715 48.1600914001 26.4995670319
-2.9742846489 48.2825088501 26.3296718597
-2.9791457653 48.3983268738 26.1585578918
-2.9834935665 48.5010375977 25.9848728180
-2.9872784615 48.5893745422 25.8083286285
-2.9906716347 48.6677093506 25.6298084259
-2.9939725399 48.7436981201 25.4508876801
-2.9974865913 48.8251304626 25.2731895447
-3.0014510155 48.9180717468 25.0979976654
-3.0060310364 49.0267372131 24.9262142181
-3.0113322735 49.1538391113 24.7584419250
-3.0173785686 49.2999725342 24.5948410034
-3.0240676403 49.4625320435 24.4348907471
-3.0311589241 49.6353759766 24.2773151398
-3.0382966995 49.8094139099 24.1201992035
-3.0450370312 49.9733085632 23.9611186981
-3.0509061813 50.1149559021 23.7974605560
-3.0555381775 50.2250061035 23.6271781921
-3.0588288307 50.3007850647 23.4496345520
-3.0609610081 50.3469810486 23.2657833099
-3.0622816086 50.3724365234 23.0774879456
-3.0631425381 50.3861465454 22.8866634369
-3.0638253689 50.3953094482 22.6948604584
-3.0645515919 50.4055824280 22.5033054352
-3.0655319691 50.4223518372 22.3131790161
-3.0670177937 50.4520339966 22.1259078979
-3.0693182945 50.5025405884 21.9432544708
-3.0727424622 50.5817565918 21.7670001984
-3.0774548054 50.6939010620 21.5981330872
-3.0833344460 50.8358802795 21.4360237122
-3.0899412632 50.9964447021 21.2782211304
-3.0966174603 51.1587982178 21.1210060120
-3.1026680470 51.3051681519 20.9604015350
-3.1075572968 51.4218635559 20.7933025360
-3.1110541821 51.5029754639 20.6183261871
-3.1132371426 51.5505065918 20.4358615875
-3.1143736839 51.5713043213 20.2473945618
-3.1147964001 51.5738449097 20.0548057556
-3.1148562431 51.5671157837 19.8601036072
-3.1149237156 51.5605850220 19.6654319763
-3.1153657436 51.5636215210 19.4729366302
-3.1164758205 51.5837402344 19.2843589783
-3.1183900833 51.6244087219 19.1005268097
-3.1210420132 51.6839447021 18.9210891724
-3.1241984367 51.7563819885 18.7447013855
-3.1275429726 51.8336296082 18.5695095062
-3.1307568550 51.9075431824 18.3936309814
-3.1335749626 51.9713401794 18.2154788971
-3.1358165741 52.0203971863 18.0339565277
-3.1374082565 52.0528411865 17.8485946655
-3.1384031773 52.0700302124 17.6596851349
-3.1389770508 52.0764503479 17.4682540894
-3.1393890381 52.0787315369 17.2758502960
-3.1399366856 52.0844841003 17.0842647552
-3.1409237385 52.1014671326 16.8953456879
-3.1426179409 52.1365432739 16.7107429504
-3.1451830864 52.1938896179 16.5314903259
-3.1486070156 52.2732009888 16.3575515747
-3.1526904106 52.3693809509 16.1877460480
-3.1571142673 52.4742736816 16.0201435089
-3.1615273952 52.5788993835 15.8525981903
-3.1656095982 52.6750602722 15.6831302643
-3.1691098213 52.7563438416 15.5101709366
-3.1718802452 52.8189659119 15.3327760696
-3.1738932133 52.8622131348 15.1507377625
-3.1752264500 52.8880805969 14.9645080566
-3.1760327816 52.9004669189 14.7750082016
-3.1765131950 52.9045181274 14.5834741592
-3.1769108772 52.9064559937 14.3914213181
-3.1775147915 52.9136657715 14.2006635666
-3.1786382198 52.9341659546 14.0131921768
-3.1805508137 52.9748573303 13.8307352066
-3.1833724976 53.0388107300 13.6540946960
-3.1869916916 53.1231689453 13.4826002121
-3.1910681725 53.2192268372 13.3141193390
-3.1951406002 53.3151855469 13.1457252502
-3.1987900734 53.4003334045 12.9747323990
-3.2017691135 53.4683303833 12.7995300293
-3.2040314674 53.5179862976 12.6197881699
-3.2056555748 53.5513191223 12.4359807968
-3.2067298889 53.5705871582 12.2486505508
-3.2072894573 53.5766754150 12.0579977036
-3.2073514462 53.5700378418 11.8641128540
-3.2069945335 53.5526733398 11.6674814224
-3.2063827515 53.5287895203 11.4691600800
-3.2057375908 53.5040473938 11.2705841064
-3.2053151131 53.4850044250 11.0734338760
-3.2054052353 53.4790763855 10.8796300888
-3.2062842846 53.4933471680 10.6910190582
-3.2080960274 53.5314865112 10.5085878372
-3.2107331753 53.5907554626 10.3316679001
-3.2138295174 53.6617774963 10.1578655243
-3.2168886662 53.7318534851 9.9838972092
-3.2194769382 53.7898788452 9.8068666458
-3.2213590145 53.8298301697 9.6251754761
-3.2225182056 53.8512763977 9.4386796951
-3.2230925560 53.8577499390 9.2482719421
-3.2232940197 53.8546829224 9.0553560257
-3.2233536243 53.8479804993 8.8614721298
-3.2234873772 53.8431816101 8.6680774689
-3.2238767147 53.8449211121 8.4764051437
-3.2246489525 53.8564605713 8.2873325348
-3.2258455753 53.8788719177 8.1011629105
-3.2273881435 53.9101409912 7.9173784256
-3.2290863991 53.9453964233 7.7346920967
-3.2307147980 53.9788627625 7.5515632629
-3.2321088314 54.0063323975 7.3668594360
-3.2331974506 54.0259780884 7.1800761223
-3.2339534760 54.0371093750 6.9910144806
-3.2343392372 54.0387611389 6.7993969917
-3.2343029976 54.0296096802 6.6048479080
-3.2338263988 54.0091743469 6.4072165489
-3.2329916954 53.9795684814 6.2070579529
-3.2320384979 53.9469299316 6.0060319901
-3.2313544750 53.9211769104 5.8068442345
-3.2313659191 53.9132385254 5.6125016212
-3.2323839664 53.9310760498 5.4252243042
-3.2344882488 53.9767417908 5.2456235886
-3.2375028133 54.0457267761 5.0725073814
-3.2410697937 54.1288642883 4.9033808708
-3.2447822094 54.2157287598 4.7353825569
-3.2483015060 54.2976493835 4.5661110878
-3.2514033318 54.3688850403 4.3939599991
-3.2539649010 54.4262809753 4.2180294991
-3.2559335232 54.4684867859 4.0379176140
-3.2573108673 54.4955520630 3.8536095619
-3.2581579685 54.5090293884 3.6655147076
-3.2586090565 54.5123634338 3.4745769501
-3.2588813305 54.5111198425 3.2823476791
-3.2592628002 54.5126686096 3.0909004211
-3.2600688934 54.5251007080 2.9025309086
-3.2615680695 54.5552864075 2.7192094326
-3.2638878822 54.6065025330 2.5418984890
-3.2669525146 54.6768074036 2.3700833321
-3.2705080509 54.7596969604 2.2019412518
-3.2742252350 54.8467292786 2.0350806713
-3.2777912617 54.9298973083 1.8672106266
-3.2809388638 55.0023384094 1.6963541508
-3.2834742069 55.0591011047 1.5210645199
-3.2853801250 55.0997352600 1.3411834240
-3.2869398594 55.1314926147 1.1587793827
-3.2887444496 55.1695327759 0.9782289863
-3.2915170193 55.2323799133 0.8049234152
-3.2958338261 55.3348121643 0.6432070732
-3.3018925190 55.4818954468 0.4946304858
-3.3094284534 55.6668510437 0.3572920859
-3.3178288937 55.8739776611 0.2266651988
-3.3263957500 56.0853805542 0.0975363478
49.9822311401 16.5223827362 79.3597869873
49.9762153625 16.5205974579 79.1706466675
49.9632301331 16.5166587830 78.9810867310
49.9470214844 16.5117225647 78.7913208008
49.9303627014 16.5066490173 78.6015014648
49.9129028320 16.5013256073 78.4116058350
49.8916244507 16.4948234558 78.2214508057
49.8631591797 16.4861011505 78.0308227539
49.8253211975 16.4744815826 77.8395690918
49.7774658203 16.4597644806 77.6476440430
49.7209892273 16.4423847198 77.4551010132
49.6601715088 16.4236621857 77.2622070313
49.6022148132 16.4058246613 77.0694046021
49.5558433533 16.3915672302 76.8772811890
49.5287971497 16.3832836151 76.6863632202
49.5252761841 16.3822708130 76.4969711304
49.5442161560 16.3881969452 76.3090667725
49.5790176392 16.3990268707 76.1222610474
49.6191673279 16.4115085602 75.9358596802
49.6534614563 16.4221801758 75.7491073608
49.6731872559 16.4283504486 75.5613708496
49.6737480164 16.4285984039 75.3723144531
49.6547737122 16.4228076935 75.1818618774
49.6198463440 16.4120883942 74.9902420044
49.5759963989 16.3986110687 74.7979202271
49.5320968628 16.3851184845 74.6055374146
49.4960784912 16.3740596771 74.4136734009
49.4723587036 16.3668041229 74.2226715088
49.4612693787 16.3634510040 74.0325775146
49.4604072571 16.3632583618 73.8432312012
49.4665031433 16.3652172089 73.6544189453
49.4764862061 16.3683757782 73.4658966064
49.4877166748 16.3719196320 73.2774887085
49.4979667664 16.3751621246 73.0890121460
49.5054244995 16.3775405884 72.9003219604
49.5087814331 16.3786525726 72.7113113403
49.5074386597 16.3783111572 72.5219268799
49.5016403198 16.3765945435 72.3321685791
49.4924468994 16.3738269806 72.1421279907
49.4815864563 16.3705444336 71.9519348145
49.4713745117 16.3674621582 71.7617721558
49.4647865295 16.3655014038 71.5718917847
49.4651603699 16.3656902313 71.3825836182
49.4748611450 16.3687629700 71.1940612793
49.4934005737 16.3745651245 71.0063018799
49.5166702271 16.3818321228 70.8189697266
49.5382308960 16.3885688782 70.6315155029
49.5517692566 16.3928260803 70.4433822632
49.5531692505 16.3933334351 70.2541961670
49.5414390564 16.3897819519 70.0638427734
49.5185546875 16.3827838898 69.8724670410
49.4885215759 16.3735771179 69.6804199219
49.4561729431 16.3636531830 69.4881134033
49.4262123108 16.3544692993 69.2959823608
49.4024581909 16.3472023010 69.1043777466
49.3870697021 16.3425216675 68.9135131836
49.3802223206 16.3404769897 68.7234115601
49.3804321289 16.3406181335 68.5339660645
49.3853530884 16.3422126770 68.3449554443
49.3924522400 16.3444805145 68.1561584473
49.3995742798 16.3467540741 67.9673690796
49.4053077698 16.3486022949 67.7784500122
49.4091567993 16.3498649597 67.5893478394
49.4113349915 16.3506126404 67.4000778198
49.4124526978 16.3510322571 67.2107086182
49.4132575989 16.3513545990 67.0213012695
49.4144859314 16.3518085480 66.8319320679
49.4167556763 16.3525848389 66.6426620483
49.4205513000 16.3538322449 66.4535522461
49.4262390137 16.3556632996 66.2646255493
49.4340095520 16.3581371307 66.0759201050
49.4436798096 16.3612003326 65.8874206543
49.4544677734 16.3646087646 65.6990356445
49.4649887085 16.3679332733 65.5106353760
49.4736480713 16.3706836700 65.3220520020
49.4791908264 16.3724727631 65.1331405640
49.4811592102 16.3731555939 64.9438552856
49.4800643921 16.3728904724 64.7542343140
49.4771842957 16.3720741272 64.5644149780
49.4740600586 16.3711833954 64.3745651245
49.4719467163 16.3706035614 64.1848144531
49.4716072083 16.3705730438 63.9952507019
49.4733772278 16.3711948395 63.8059158325
49.4772758484 16.3724727631 63.6168136597
49.4830970764 16.3743457794 63.4279251099
49.4904594421 16.3766956329 63.2392120361
49.4987945557 16.3793468475 63.0506134033
49.5072631836 16.3820362091 62.8620376587
49.5146942139 16.3844070435 62.6733474731
49.5197181702 16.3860340118 62.4843864441
49.5210418701 16.3865165710 62.2949981689
49.5178794861 16.3856143951 62.1050872803
49.5104446411 16.3833904266 61.9146690369
49.5005645752 16.3804111481 61.7239494324
49.4917793274 16.3777713776 61.5333366394
49.4884109497 16.3768043518 61.3433570862
49.4937705994 16.3785343170 61.1544075012
49.5084342957 16.3831405640 60.9665756226
49.5297164917 16.3897914886 60.7795600891
49.5528068542 16.3970012665 60.5927848816
49.5730857849 16.4033412933 60.4056930542
49.5880165100 16.4080314636 60.2179641724
49.5974884033 16.4110317230 60.0295791626
49.6027565002 16.4127330780 59.8406791687
49.6051864624 16.4135589600 59.6514282227
49.6055030823 16.4137306213 59.4619102478
49.6036415100 16.4132289886 59.2721138000
49.5992355347 16.4119415283 59.0819854736
49.5926475525 16.4099807739 58.8915710449
49.5857315063 16.4079170227 58.7010993958
49.5813140869 16.4066257477 58.5109367371
49.5814743042 16.4067497253 58.3213539124
49.5860176086 16.4082279205 58.1323356628
49.5925903320 16.4103336334 57.9435844421
49.5981483459 16.4121265411 57.7547035217
49.6002311707 16.4128437042 57.5653648376
49.5969352722 16.4118995667 57.3753128052
49.5862274170 16.4086647034 57.1842651367
49.5660018921 16.4024887085 56.9919204712
49.5355453491 16.3931503296 56.7981719971
49.4973449707 16.3814201355 56.6033325195
49.4570808411 16.3690528870 56.4081535339
49.4212036133 16.3580398560 56.2135162354
49.3937950134 16.3496437073 56.0199928284
49.3749656677 16.3438987732 55.8276062012
49.3612937927 16.3397483826 55.6359062195
49.3477668762 16.3356418610 55.4442024231
49.3302154541 16.3302936554 55.2519149780
49.3071937561 16.3232536316 55.0588264465
49.2801971436 16.3149852753 54.8651466370
49.2525405884 16.3065128326 54.6713333130
49.2277488708 16.2989253998 54.4778823853
49.2084655762 16.2930412292 54.2851867676
49.1961975098 16.2893238068 54.0934677124
49.1915321350 16.2879581451 53.9028244019
49.1943092346 16.2888908386 53.7132492065
49.2035217285 16.2918109894 53.5246086121
49.2171249390 16.2960891724 53.3366203308
49.2320747375 16.3007831573 53.1488418579
49.2445564270 16.3047142029 52.9607124329
49.2505569458 16.3066425323 52.7716331482
49.2468986511 16.3055858612 52.5811195374
49.2323684692 16.3011722565 52.3889694214
49.2080802917 16.2937393188 52.1953315735
49.1765632629 16.2840747833 52.0005607605
49.1406784058 16.2730598450 51.8050842285
49.1036148071 16.2616825104 51.6093788147
49.0694236755 16.2511901855 51.4140548706
49.0426826477 16.2430019379 51.2198257446
49.0271034241 16.2382621765 51.0272789001
49.0240745544 16.2374000549 50.8366508484
49.0318222046 16.2398681641 50.6476860046
49.0456466675 16.2442150116 50.4596786499
49.0596389771 16.2486133575 50.2717094421
49.0688400269 16.2515296936 50.0830001831
49.0702629089 16.2520446777 49.8930664063
49.0626106262 16.2497539520 49.7016906738
49.0459632874 16.2446842194 49.5088653564
49.0220413208 16.2373676300 49.3148460388
48.9944572449 16.2289180756 49.1202049255
48.9682083130 16.2208805084 48.9257354736
48.9485435486 16.2148780823 48.7322959900
48.9395942688 16.2121887207 48.5405654907
48.9431419373 16.2133579254 48.3508644104
48.9579048157 16.2179946899 48.1630020142
48.9799537659 16.2248821259 47.9763526917
49.0041313171 16.2324275970 47.7900772095
49.0255355835 16.2391166687 47.6033744812
49.0403137207 16.2437572479 47.4155845642
49.0456542969 16.2454814911 47.2262306213
49.0397644043 16.2437362671 47.0349960327
49.0222206116 16.2383899689 46.8417816162
48.9946708679 16.2299499512 46.6468429565
48.9614143372 16.2197494507 46.4508972168
48.9289665222 16.2097969055 46.2550354004
48.9038696289 16.2021160126 46.0603904724
48.8898391724 16.1978549957 45.8676071167
48.8863410950 16.1968479156 45.6766166687
48.8894233704 16.1978759766 45.4867591858
48.8936729431 16.1992626190 45.2971038818
48.8939933777 16.1994361877 45.1067619324
48.8868026733 16.1972885132 44.9151000977
48.8706359863 16.1923675537 44.7218475342
48.8463134766 16.1849269867 44.5271263123
48.8166236877 16.1758270264 44.3314170837
48.7855606079 16.1663017273 44.1354217529
48.7572402954 16.1576271057 43.9398689270
48.7348175049 16.1507720947 43.7453269958
48.7196655273 16.1461639404 43.5520629883
48.7111015320 16.1435928345 43.3599624634
48.7067642212 16.1423263550 43.1686096191
48.7036285400 16.1414318085 42.9774627686
48.6991882324 16.1401348114 42.7860717773
48.6922912598 16.1380786896 42.5942192078
48.6830902100 16.1353092194 42.4019279480
48.6721839905 16.1320152283 42.2093086243
48.6597023010 16.1282329559 42.0163764954
48.6452941895 16.1238555908 41.8230628967
48.6288681030 16.1188526154 41.6293525696
48.6111412048 16.1134510040 41.4353713989
48.5937919617 16.1081638336 41.2414321899
48.5793342590 16.1037712097 41.0480117798
48.5704002380 16.1010856628 40.8556098938
48.5683288574 16.1005191803 40.6644897461
48.5721969604 16.1017894745 40.4744987488
48.5794219971 16.1040973663 40.2851448059
48.5873184204 16.1066112518 40.0959243774
48.5941810608 16.1088066101 39.9065093994
48.5994262695 16.1105022430 39.7167892456
48.6031799316 16.1117362976 39.5267829895
48.6059417725 16.1126651764 39.3365821838
48.6082763672 16.1134605408 39.1462936401
48.6105918884 16.1142501831 38.9560050964
48.6130027771 16.1150703430 38.7657279968
48.6154136658 16.1158905029 38.5754547119
48.6178665161 16.1167221069 38.3851814270
48.6209869385 16.1177616119 38.1950454712
48.6259155273 16.1193580627 38.0052642822
48.6330184937 16.1216278076 37.8159179688
48.6403045654 16.1239547729 37.6266136169
48.6431579590 16.1249103546 37.4364242554
48.6359100342 16.1227455139 37.2441978455
48.6143226624 16.1161499023 37.0490570068
48.5777168274 16.1049137115 36.8508377075
48.5297584534 16.0901699066 36.6502571106
48.4771537781 16.0739898682 36.4486579895
48.4269256592 16.0585441589 36.2474708557
48.3842430115 16.0454292297 36.0477638245
48.3518981934 16.0355091095 35.8501243591
48.3306350708 16.0290145874 35.6547317505
48.3195190430 16.0256538391 35.4614105225
48.3161582947 16.0246906281 35.2696800232
48.3170242310 16.0250320435 35.0788230896
48.3181114197 16.0254440308 34.8880119324
48.3159980774 16.0248641968 34.6965217590
48.3092231750 16.0228462219 34.5040435791
48.2991256714 16.0198020935 34.3108482361
48.2892494202 16.0168247223 34.1176834106
48.2835845947 16.0151481628 33.9253959656
48.2848777771 16.0156230927 33.7345771790
48.2937355042 16.0184345245 33.5453758240
48.3086814880 16.0231266022 33.3574905396
48.3270912170 16.0288906097 33.1703605652
48.3464355469 16.0349426270 32.9834556580
48.3646965027 16.0406608582 32.7963371277
48.3796119690 16.0453433990 32.6085090637
48.3879776001 16.0480022430 32.4192657471
48.3863182068 16.0475654602 32.2278404236
48.3727760315 16.0434551239 32.0338020325
48.3484878540 16.0360260010 31.8373756409
48.3173255920 16.0264701843 31.6393966675
48.2844924927 16.0164012909 31.4410018921
48.2551879883 16.0074214935 31.2433433533
48.2335968018 16.0008258820 31.0473575592
48.2220382690 15.9973278046 30.8535766602
48.2206573486 15.9969768524 30.6620540619
48.2278289795 15.9992666245 30.4724464417
48.2407226563 16.0033264160 30.2841300964
48.2558059692 16.0080604553 30.0963211060
48.2693786621 16.0123291016 29.9081840515
48.2784004211 16.0151920319 29.7190265656
48.2812843323 16.0161571503 29.5284767151
48.2783088684 16.0153141022 29.3365879059
48.2715377808 16.0132961273 29.1438217163
48.2642936707 16.0111331940 28.9509315491
48.2603454590 16.0099868774 28.7587852478
48.2627525330 16.0108051300 28.5680999756
48.2726707458 16.0139446259 28.3791522980
48.2887229919 16.0189800262 28.1916389465
48.3077011108 16.0249195099 28.0048217773
48.3261947632 16.0307083130 27.8179130554
48.3419990540 16.0356655121 27.6303939819
48.3545761108 16.0396270752 27.4421310425
48.3648147583 16.0428657532 27.2533283234
48.3745765686 16.0459556580 27.0644207001
48.3862190247 16.0496273041 26.8759689331
48.4021148682 16.0546150208 26.6885356903
48.4242324829 16.0615234375 26.5026035309
48.4536094666 16.0706748962 26.3184299469
48.4898567200 16.0819492340 26.1359367371
48.5313110352 16.0948333740 25.9547386169
48.5759277344 16.1086940765 25.7743511200
48.6219444275 16.1229877472 25.5943546295
48.6674537659 16.1371231079 25.4142932892
48.7095642090 16.1502094269 25.2334594727
48.7443542480 16.1610336304 25.0508937836
48.7680511475 16.1684303284 24.8656578064
48.7785835266 16.1717586517 24.6772232056
48.7764396667 16.1711711884 24.4856853485
48.7647666931 16.1676387787 24.2917919159
48.7490844727 16.1628684998 24.0968894958
48.7361755371 16.1589546204 23.9026470184
48.7319145203 16.1577129364 23.7105293274
48.7392120361 16.1600437164 23.5212802887
48.7578582764 16.1658782959 23.3348655701
48.7860183716 16.1746540070 23.1508502960
48.8214035034 16.1856613159 22.9686813354
48.8610725403 16.1979942322 22.7876300812
48.9008216858 16.2103500366 22.6066474915
48.9352035522 16.2210483551 22.4243545532
48.9584960938 16.2283191681 22.2392902374
48.9662742615 16.2307987213 22.0503101349
48.9569549561 16.2279930115 21.8569755554
48.9323997498 16.2204799652 21.6597347260
48.8973846436 16.2097358704 21.4597759247
48.8583755493 16.1977577209 21.2587394714
48.8221168518 16.1866302490 21.0583553314
48.7940979004 16.1780471802 20.8600444794
48.7771568298 16.1728878021 20.6645584106
48.7707710266 16.1709899902 20.4717845917
48.7713088989 16.1712303162 20.2807979584
48.7730979919 16.1718578339 20.0901317596
48.7701225281 16.1710147858 19.8982200623
48.7579650879 16.1673316956 19.7038898468
48.7353553772 16.1604213715 19.5067958832
48.7045822144 16.1509876251 19.3075141907
48.6702919006 16.1404685974 19.1072597504
48.6373519897 16.1303653717 18.9073123932
48.6089744568 16.1216716766 18.7085266113
48.5860633850 16.1146697998 18.5111541748
48.5678367615 16.1091117859 18.3149929047
48.5529594421 16.1045894623 18.1197013855
48.5404853821 16.1008110046 17.9250278473
48.5301284790 16.0976848602 17.7308998108
48.5221061707 16.0952816010 17.5373840332
48.5167846680 16.0937118530 17.3445816040
48.5141906738 16.0929851532 17.1525039673
48.5135688782 16.0928688049 16.9609546661
48.5132369995 16.0928401947 16.7694778442
48.5111045837 16.0922565460 16.5775051117
48.5058364868 16.0907039642 16.3846664429
48.4980163574 16.0883617401 16.1911182404
48.4902954102 16.0860519409 15.9975805283
48.4861183167 16.0848369598 15.8050041199
48.4878273010 16.0854396820 15.6140403748
48.4954719543 16.0878753662 15.4247159958
48.5069770813 16.0915050507 15.2364673615
48.5191688538 16.0953483582 15.0484199524
48.5287933350 16.0983963013 14.8596668243
48.5330581665 16.0997886658 14.6694269180
48.5298690796 16.0988769531 14.4770994186
48.5179824829 16.0952796936 14.2823238373
48.4973526001 16.0889816284 14.0850687027
48.4695167542 16.0804557800 13.8857507706
48.4377784729 16.0707244873 13.6852884293
48.4067726135 16.0612201691 13.4849863052
48.3812980652 16.0534248352 13.2862081528
48.3648796082 16.0484256744 13.0899677277
48.3587684631 16.0466136932 12.8966407776
48.3617248535 16.0476016998 12.7058916092
48.3704299927 16.0503654480 12.5167884827
48.3803749084 16.0535144806 12.3280477524
48.3866539001 16.0555286407 12.1382598877
48.3842315674 16.0548553467 11.9459648132
48.3682746887 16.0500011444 11.7497501373
48.3354873657 16.0399456024 11.5486307144
48.2855720520 16.0245990753 11.3424892426
48.2207756042 16.0046539307 11.1319446564
48.1437797546 15.9809398651 10.9177503586
48.0570106506 15.9542064667 10.7005910873
47.9640197754 15.9255504608 10.4814891815
47.8701782227 15.8966331482 10.2620105743
47.7811737061 15.8692092896 10.0438261032
47.7011566162 15.8445625305 9.8281717300
47.6324768066 15.8234186172 9.6157588959
47.5762443542 15.8061189651 9.4069375992
47.5327682495 15.7927627563 9.2018289566
47.5021514893 15.7833776474 9.0004844666
47.4851036072 15.7781867981 8.8031435013
47.4832534790 15.7776899338 8.6103181839
47.4983749390 15.7824373245 8.4225730896
47.5312347412 15.7926645279 8.2401695251
47.5809860229 15.8081102371 8.0628871918
47.6456718445 15.8281707764 7.8901724815
47.7231445313 15.8521814346 7.7214031219
47.8111267090 15.8794403076 7.5559153557
47.9061965942 15.9088878632 7.3926906586
48.0029144287 15.9388446808 7.2300887108
48.0942268372 15.9671306610 7.0659599304
48.1728706360 15.9915037155 6.8980751038
48.2329406738 16.0101375580 6.7246012688
48.2708587646 16.0219287872 6.5444021225
48.2854118347 16.0264987946 6.3570604324
48.2771339417 16.0240173340 6.1626958847
48.2479858398 16.0150871277 5.9618673325
48.2016525269 16.0008468628 5.7556757927
48.1437759399 15.9830408096 5.5458359718
48.0812950134 15.9638109207 5.3344831467
48.0214729309 15.9454050064 5.1238722801
47.9710922241 15.9299154282 4.9161248207
47.9355888367 15.9190206528 4.7129602432
47.9180793762 15.9136857986 4.5153851509
47.9187278748 15.9139623642 4.3234882355
47.9345092773 15.9189128876 4.1363515854
47.9592933655 15.9266452789 3.9520711899
47.9848251343 15.9346084595 3.7680542469
48.0029487610 15.9402828217 3.5817191601
48.0082321167 15.9419908524 3.3913271427
47.9994125366 15.9393396378 3.1964480877
47.9790458679 15.9331235886 2.9978728294
47.9520111084 15.9248466492 2.7971341610
47.9234809875 15.9161071777 2.5958759785
47.8971977234 15.9080610275 2.3952953815
47.8748817444 15.9012432098 2.1959521770
47.8573341370 15.8958959579 1.9981086254
47.8459358215 15.8924503326 1.8022227287
47.8427810669 15.8915500641 1.6089824438
47.8490104675 15.8935508728 1.4187756777
47.8631019592 15.8979797363 1.2311247587
47.8806495667 15.9034767151 1.0446125269
47.8955650330 15.9081592560 0.8572596312
47.9015655518 15.9100875854 0.6670079231
47.8938980103 15.9077939987 0.4722846448
47.8714561462 15.9009361267 0.2726993263
47.8378219604 15.8906202316 0.0693993568
8.0724258423 40.1535263062 78.0551528931
8.0807762146 40.1919555664 77.8589782715
8.0946025848 40.2545967102 77.6639785767
8.1088199615 40.3189659119 77.4691314697
8.1197900772 40.3689765930 77.2736663818
8.1261453629 40.3985786438 77.0772628784
8.1279783249 40.4081840515 76.8799057007
8.1258049011 40.4000740051 76.6816787720
8.1201105118 40.3763923645 76.4826431274
8.1112794876 40.3388366699 76.2828674316
8.0995960236 40.2886734009 76.0823822021
8.0853033066 40.2269706726 75.8812332153
8.0688762665 40.1558341980 75.6794967651
8.0514383316 40.0802230835 75.4774322510
8.0348787308 40.0084991455 75.2754821777
8.0214042664 39.9504165649 75.0741806030
8.0126619339 39.9132652283 74.8739700317
8.0090055466 39.8985977173 74.6749572754
8.0093364716 39.9015617371 74.4769287109
8.0116281509 39.9131965637 74.2793884277
8.0139045715 39.9247665405 74.0818481445
8.0151386261 39.9317207336 73.8840560913
8.0153827667 39.9343032837 73.6860046387
8.0150718689 39.9344329834 73.4878005981
8.0143384933 39.9326896667 73.2894821167
8.0130729675 39.9285964966 73.0910110474
8.0114011765 39.9227066040 72.8924255371
8.0099382401 39.9177398682 72.6938781738
8.0097112656 39.9182395935 72.4956665039
8.0117645264 39.9288177490 72.2980804443
8.0164136887 39.9508781433 72.1012420654
8.0227155685 39.9802436829 71.9048995972
8.0287580490 40.0084609985 71.7085037231
8.0325031281 40.0265274048 71.5114746094
8.0323877335 40.0275154114 71.3133316040
8.0274553299 40.0072059631 71.1137466431
8.0174207687 39.9643440247 70.9126129150
8.0028333664 39.9013481140 70.7100448608
7.9851479530 39.8246574402 70.5064544678
7.9665508270 39.7439346313 70.3024826050
7.9496083260 39.6705284119 70.0989151001
7.9368028641 39.6154136658 69.8965530396
7.9298958778 39.5863800049 69.6959686279
7.9292087555 39.5848464966 69.4973297119
7.9333701134 39.6047477722 69.3002319336
7.9399409294 39.6353034973 69.1039352417
7.9465556145 39.6660537720 68.9076843262
7.9517025948 39.6903152466 68.7109756470
7.9547939301 39.7054862976 68.5136184692
7.9558444023 39.7116317749 68.3155899048
7.9551992416 39.7102851868 68.1169891357
7.9534311295 39.7039718628 67.9180068970
7.9513468742 39.6962585449 67.7188949585
7.9499721527 39.6916885376 67.5200195313
7.9503521919 39.6948699951 67.3217391968
7.9530925751 39.7084922791 67.1242828369
7.9578666687 39.7311019897 66.9275588989
7.9632830620 39.7565498352 66.7310867310
7.9673881531 39.7762031555 66.5341644287
7.9686045647 39.7830848694 66.3362274170
7.9665088654 39.7753257751 66.1370773315
7.9619193077 39.7565383911 65.9370040894
7.9562463760 39.7329597473 65.7364959717
7.9506793022 39.7098541260 65.5359954834
7.9458374977 39.6899528503 65.3357315063
7.9419379234 39.6742210388 65.1357955933
7.9390735626 39.6630592346 64.9362258911
7.9373006821 39.6567268372 64.7370605469
7.9365715981 39.6550102234 64.5382766724
7.9366531372 39.6568756104 64.3398056030
7.9371190071 39.6604385376 64.1414794922
7.9374289513 39.6633148193 63.9430923462
7.9370622635 39.6632003784 63.7444305420
7.9356718063 39.6585540771 63.5453567505
7.9332041740 39.6491546631 63.3458404541
7.9299635887 39.6363296509 63.1459922791
7.9265937805 39.6229400635 62.9460716248
7.9239954948 39.6129570007 62.7464447021
7.9231448174 39.6107025146 62.5475196838
7.9247961044 39.6195106506 62.3496284485
7.9291028976 39.6400527954 62.1528511047
7.9353275299 39.6690750122 61.9569015503
7.9418983459 39.6996269226 61.7611312866
7.9469666481 39.7235336304 61.5647506714
7.9492764473 39.7352523804 61.3672065735
7.9487376213 39.7343750000 61.1684455872
7.9462232590 39.7247657776 60.9688186646
7.9429454803 39.7117805481 60.7688369751
7.9401388168 39.7008781433 60.5690460205
7.9390430450 39.6975402832 60.3699913025
7.9406208992 39.7060203552 60.1721153259
7.9450826645 39.7272491455 59.9755401611
7.9518966675 39.7588729858 59.7800445557
7.9602990150 39.7975196838 59.5853004456
7.9695620537 39.8399696350 59.3909950256
7.9787702560 39.8821754456 59.1967086792
7.9866561890 39.9185371399 59.0018577576
7.9918985367 39.9432144165 58.8058204651
7.9935560226 39.9520454407 58.6081314087
7.9912729263 39.9434585571 58.4085960388
7.9853901863 39.9189605713 58.2073402405
7.9770841599 39.8837509155 58.0049018860
7.9682254791 39.8460998535 57.8021507263
7.9607381821 39.8145103455 57.6000061035
7.9559144974 39.7946968079 57.3991012573
7.9542007446 39.7886276245 57.1996803284
7.9553213120 39.7950820923 57.0016326904
7.9583292007 39.8098831177 56.8045158386
7.9616851807 39.8262252808 56.6075820923
7.9637508392 39.8368568420 56.4100227356
7.9636292458 39.8378295898 56.2113761902
7.9618101120 39.8312911987 56.0118751526
7.9600982666 39.8252296448 55.8124122620
7.9607338905 39.8295478821 55.6141281128
7.9651403427 39.8505287170 55.4177703857
7.9731845856 39.8875885010 55.2233009338
7.9834327698 39.9343872070 55.0300064087
7.9939398766 39.9823303223 54.8368988037
8.0028343201 40.0231475830 54.6430015564
8.0085468292 40.0499038696 54.4474830627
8.0101079941 40.0583038330 54.2498054504
8.0076236725 40.0488319397 54.0499916077
8.0024356842 40.0274047852 53.8487167358
7.9965634346 40.0029563904 53.6470489502
7.9918351173 39.9835662842 53.4459571838
7.9894547462 39.9745521545 53.2461051941
7.9901676178 39.9792060852 53.0479202271
7.9944987297 39.9998550415 52.8517074585
8.0026626587 40.0374374390 52.6576156616
8.0143175125 40.0904502869 52.4654884338
8.0284967422 40.1546211243 52.2748222351
8.0436687469 40.2231826782 52.0847778320
8.0579090118 40.2876205444 51.8942947388
