5.1977367401 37.1669044495 40.8341445923
5.2058267593 37.1999130249 40.6404838562
5.2160816193 37.2452011108 40.4491844177
5.2280449867 37.3001861572 40.2597770691
5.2413616180 37.3628578186 40.0718955994
5.2555999756 37.4307594299 39.8850860596
5.2697401047 37.4981117249 39.6982460022
5.2822189331 37.5560379028 39.5096549988
5.2918300629 37.5976943970 39.3179779053
5.2985444069 37.6229133606 39.1231422424
5.3033123016 37.6370887756 38.9261741638
5.3072276115 37.6464195251 38.7282638550
5.3109941483 37.6549110413 38.5301895142
5.3149709702 37.6645927429 38.3323440552
5.3194379807 37.6770591736 38.1350479126
5.3247342110 37.6942329407 37.9386901855
5.3311405182 37.7177085876 37.7435913086
5.3385686874 37.7469825745 37.5496711731
5.3463525772 37.7782859802 37.3561744690
5.3534321785 37.8055877686 37.1619071960
5.3588552475 37.8234863281 36.9657669067
5.3622112274 37.8296470642 36.7672615051
5.3637313843 37.8253822327 36.5666389465
5.3640947342 37.8145446777 36.3646621704
5.3641214371 37.8017997742 36.1622657776
5.3644862175 37.7909698486 35.9602355957
5.3655099869 37.7838783264 35.7589454651
5.3670449257 37.7796897888 35.5582275391
5.3685178757 37.7751502991 35.3574218750
5.3691883087 37.7660522461 35.1556472778
5.3685674667 37.7496109009 34.9523277283
5.3667788506 37.7265396118 34.7475891113
5.3646039963 37.7012710571 34.5423431396
5.3631105423 37.6798667908 34.3378677368
5.3631696701 37.6672821045 34.1352081299
5.3653006554 37.6664695740 33.9350013733
5.3698720932 37.6795234680 33.7377166748
5.3772001266 37.7082366943 33.5437583923
5.3872308731 37.7523078918 33.3530998230
5.3991160393 37.8069267273 33.1647377014
5.4112820625 37.8631401062 32.9767723083
5.4221186638 37.9118041992 32.7872467041
5.4307327271 37.9478378296 32.5950469971
5.4371800423 37.9715614319 32.4002151489
5.4421758652 37.9870338440 32.2036132813
5.4466490746 37.9995384216 32.0063743591
5.4513649940 38.0134201050 31.8094348907
5.4566493034 38.0305328369 31.6132087708
5.4623236656 38.0498695374 31.4174785614
5.4679665565 38.0690231323 31.2217216492
5.4733099937 38.0864753723 31.0256004333
5.4784231186 38.1026191711 30.8291969299
5.4836239815 38.1192626953 30.6329135895
5.4893870354 38.1391029358 30.4373493195
5.4963197708 38.1655960083 30.2432842255
5.5049214363 38.2015762329 30.0513648987
5.5150332451 38.2461509705 29.8614082336
5.5255260468 38.2928962708 29.6719837189
5.5348329544 38.3328971863 29.4810848236
5.5419650078 38.3605308533 29.2874221802
5.5469884872 38.3761749268 29.0910568237
5.5506186485 38.3838920593 28.8928928375
5.5535702705 38.3877525330 28.6938438416
5.5562596321 38.3901214600 28.4944458008
5.5588459969 38.3918991089 28.2949008942
5.5613737106 38.3933486938 28.0952682495
5.5638751984 38.3946418762 27.8955898285
5.5664234161 38.3962059021 27.6959609985
5.5691485405 38.3987731934 27.4965553284
5.5722079277 38.4032402039 27.2975826263
5.5757293701 38.4103393555 27.0992145538
5.5797562599 38.4203109741 26.9015178680
5.5842256546 38.4328002930 26.7044124603
5.5889587402 38.4467926025 26.5076637268
5.5936455727 38.4605216980 26.3108577728
5.5978374481 38.4714355469 26.1133880615
5.6010174751 38.4765892029 25.9145526886
5.6028537750 38.4740943909 25.7138881683
5.6036152840 38.4654769897 25.5117454529
5.6044363976 38.4572029114 25.3096580505
5.6069974899 38.4588279724 25.1099262238
5.6126289368 38.4779357910 24.9143905640
5.6215481758 38.5157546997 24.7233867645
5.6329536438 38.5677337646 24.5358428955
5.6458797455 38.6283760071 24.3504581451
5.6598620415 38.6950302124 24.1666011810
5.6746878624 38.7664947510 23.9839897156
5.6896753311 38.8388862610 23.8016853333
5.7035374641 38.9048728943 23.6178894043
5.7150926590 38.9577293396 23.4309349060
5.7239413261 38.9951744080 23.2402381897
5.7304344177 39.0192070007 23.0462589264
5.7352457047 39.0336608887 22.8499221802
5.7390575409 39.0424232483 22.6521778107
5.7424330711 39.0487060547 22.4538116455
5.7457642555 39.0547332764 22.2553787231
5.7492728233 39.0617675781 22.0571918488
5.7530422211 39.0702896118 21.8593730927
5.7570228577 39.0800170898 21.6618556976
5.7610173225 39.0898208618 21.4643573761
5.7647333145 39.0980339050 21.2664566040
5.7679996490 39.1036911011 21.0679054260
5.7710986137 39.1083908081 20.8691024780
5.7748484612 39.1168022156 20.6712398529
5.7801733017 39.1341857910 20.4756679535
5.7874565125 39.1627273560 20.2829666138
5.7963089943 39.2002182007 20.0925865173
5.8058557510 39.2416648865 19.9032611847
5.8151392937 39.2816123962 19.7135906219
5.8234443665 39.3159866333 19.5225143433
5.8305616379 39.3435935974 19.3297138214
5.8368926048 39.3667182922 19.1357688904
5.8432731628 39.3901290894 18.9419155121
5.8505783081 39.4188117981 18.7494564056
5.8593025208 39.4555854797 18.5591430664
5.8693518639 39.4999122620 18.3708496094
5.8801970482 39.5487823486 18.1837959290
5.8912143707 39.5986366272 17.9970512390
5.9018912315 39.6465530396 17.8098468781
5.9118537903 39.6903991699 17.6216106415
5.9209032059 39.7290420532 17.4320335388
5.9291300774 39.7629928589 17.2412414551
5.9369521141 39.7946434021 17.0498657227
5.9449219704 39.8271369934 16.8587436676
5.9533681870 39.8623466492 16.6683807373
5.9621205330 39.8993072510 16.4785194397
5.9705629349 39.9345016479 16.2882175446
5.9780488014 39.9642410278 16.0964736938
5.9843845367 39.9874229431 15.9029741287
5.9899811745 40.0063896179 15.7083463669
5.9956197739 40.0256004333 15.5137958527
6.0020494461 40.0493164063 15.3204889297
6.0096321106 40.0796165466 15.1290006638
6.0182080269 40.1155853271 14.9390945435
6.0273189545 40.1546096802 14.7500619888
6.0366168022 40.1946983337 14.5613613129
6.0460271835 40.2354354858 14.3728771210
6.0555086136 40.2765769958 14.1845464706
6.0648188591 40.3167495728 13.9959850311
6.0736713409 40.3543052673 13.8067350388
6.0820155144 40.3889694214 13.6167135239
6.0899567604 40.4213333130 13.4260807037
6.0974020958 40.4508666992 13.2346830368
6.1039919853 40.4755210876 13.0419397354
6.1094279289 40.4935874939 12.8473606110
6.1137461662 40.5052795410 12.6509914398
6.1172928810 40.5125656128 12.4533786774
6.1205754280 40.5183486938 12.2553348541
6.1242041588 40.5261001587 12.0578470230
6.1288423538 40.5396156311 11.8619956970
6.1350002289 40.5618095398 11.6686267853
6.1427102089 40.5928649902 11.4778079987
6.1513838768 40.6294288635 11.2885961533
6.1601061821 40.6662673950 11.0994977951
6.1681590080 40.6992835999 10.9093332291
6.1753182411 40.7272033691 10.7177267075
6.1817674637 40.7510681152 10.5249691010
6.1878724098 40.7729682922 10.3316602707
6.1940350533 40.7952003479 10.1384620667
6.2005624771 40.8195152283 9.9458875656
6.2074685097 40.8459930420 9.7539625168
6.2143678665 40.8724365234 9.5620470047
6.2207031250 40.8956565857 9.3692092896
6.2262043953 40.9141159058 9.1749877930
6.2312006950 40.9296875000 8.9799270630
6.2365813255 40.9474601746 8.7855224609
6.2434844971 40.9739303589 8.5937013626
6.2528619766 41.0145378113 8.4060926437
6.2650675774 41.0713043213 8.2233257294
6.2796440125 41.1416206360 8.0446557999
6.2954711914 41.2190895081 7.8681979179
6.3112788200 41.2964553833 7.6917963028
6.3262867928 41.3692512512 7.5141129494
6.3404235840 41.4370803833 7.3350176811
6.3539195061 41.5012474060 7.1548957825
6.3667950630 41.5618782043 6.9737763405
6.3788046837 41.6175575256 6.7912263870
6.3896188736 41.6664123535 6.6066665649
6.3988542557 41.7062454224 6.4194173813
6.4060916901 41.7346611023 6.2287330627
6.4111490250 41.7506141663 6.0342712402
6.4143953323 41.7562179565 5.8366537094
6.4167242050 41.7565765381 5.6374230385
6.4191155434 41.7572898865 5.4382896423
6.4221653938 41.7617683411 5.2403016090
6.4259796143 41.7706146240 5.0436520576
6.4304690361 41.7833251953 4.8481945992
6.4357337952 41.8004646301 4.6541113853
6.4422101974 41.8245353699 4.4621877670
6.4504699707 41.8588066101 4.2734513283
6.4607224464 41.9044723511 4.0882959366
6.4723711014 41.9581260681 3.9056804180
6.4840846062 42.0121612549 3.7232396603
6.4944620132 42.0585517883 3.5384604931
6.5027656555 42.0930824280 3.3500041962
6.5091776848 42.1167984009 3.1581754684
6.5145177841 42.1343879700 2.9644308090
6.5197153091 42.1511573792 2.7704381943
6.5253276825 42.1702995300 2.5772056580
6.5313558578 42.1918258667 2.3847396374
6.5374979973 42.2140007019 2.1924962997
6.5436277390 42.2361106873 2.0002465248
6.5500826836 42.2600746155 1.8086060286
6.5575828552 42.2900276184 1.6188981533
6.5668811798 42.3302688599 1.4325146675
6.5782613754 42.3824272156 1.2499984503
6.5911588669 42.4432678223 1.0703325272
6.6043057442 42.5055427551 0.8911948800
6.6164507866 42.5620880127 0.7102730274
6.6270809174 42.6099700928 0.5266055465
6.6365828514 42.6513938904 0.3408923447
6.6458706856 42.6915969849 0.1548228115
15.4101514816 32.7724075317 80.2775192261
15.4182929993 32.7829589844 80.0802154541
15.4309110641 32.8019027710 79.8835067749
15.4451885223 32.8239593506 79.6870346069
15.4589271545 32.8450050354 79.4905014038
15.4711103439 32.8631362915 79.2937850952
15.4818925858 32.8786392212 79.0968856812
15.4923372269 32.8935089111 78.8999481201
15.5036659241 32.9100379944 78.7031478882
15.5161838531 32.9287986755 78.5065231323
15.5286703110 32.9474983215 78.3099136353
15.5388813019 32.9619293213 78.1129837036
15.5446777344 32.9680900574 77.9154281616
15.5446310043 32.9632873535 77.7170181274
15.5379714966 32.9460868835 77.5176162720
15.5249700546 32.9169960022 77.3172302246
15.5079584122 32.8803825378 77.1161956787
15.4915971756 32.8449859619 76.9151916504
15.4813909531 32.8211288452 76.7150650024
15.4814624786 32.8165473938 76.5164718628
15.4931859970 32.8338165283 76.3196716309
15.5151319504 32.8702545166 76.1244812012
15.5438489914 32.9193916321 75.9304046631
15.5748376846 32.9727897644 75.7367477417
15.6032428741 33.0213470459 75.5427398682
15.6243963242 33.0563049316 75.3476104736
15.6348581314 33.0712089539 75.1507720947
15.6340055466 33.0648918152 74.9520874023
15.6249504089 33.0431938171 74.7520141602
15.6134920120 33.0169868469 74.5515060425
15.6054105759 32.9971122742 74.3515090942
15.6039428711 32.9896392822 74.1525955200
15.6089229584 32.9942588806 73.9547653198
15.6177711487 33.0061378479 73.7575988770
15.6274871826 33.0196456909 73.5605850220
15.6364259720 33.0316925049 73.3634414673
15.6447458267 33.0425796509 73.1661987305
15.6533994675 33.0540924072 72.9690170288
15.6625795364 33.0665931702 72.7719345093
15.6709136963 33.0775070190 72.5746994019
15.6760902405 33.0824966431 72.3768997192
15.6764335632 33.0784187317 72.1782073975
15.6721830368 33.0657272339 71.9786453247
15.6654815674 33.0484313965 71.7786026001
15.6591148376 33.0317649841 71.5785827637
15.6550846100 33.0194816589 71.3789672852
15.6541194916 33.0129470825 71.1799087524
15.6562414169 33.0122032166 70.9814147949
15.6614933014 33.0173301697 70.7835083008
15.6699705124 33.0285148621 70.5862274170
15.6811866760 33.0448303223 70.3894882202
15.6936473846 33.0634880066 70.1930007935
15.7054672241 33.0809402466 69.9963989258
15.7156248093 33.0952758789 69.7994766235
15.7245845795 33.1073608398 69.6023254395
15.7335510254 33.1194610596 69.4051818848
15.7429838181 33.1324348450 69.2081375122
15.7516832352 33.1440315247 69.0109481812
15.7573375702 33.1499176025 68.8131408691
15.7581367493 33.1466903687 68.6143188477
15.7540369034 33.1342735291 68.4144592285
15.7466211319 33.1156272888 68.2138748169
15.7377653122 33.0942802429 68.0129470825
15.7285261154 33.0722160339 67.8118896484
15.7193746567 33.0503120422 67.6108169556
15.7111968994 33.0302314758 67.4099044800
15.7054862976 33.0147819519 67.2094879150
15.7035388947 33.0063972473 67.0098571777
15.7058391571 33.0059852600 66.8111343384
15.7121324539 33.0130615234 66.6132736206
15.7215261459 33.0259628296 66.4161071777
15.7325191498 33.0418624878 66.2192993164
15.7435712814 33.0578727722 66.0225143433
15.7541055679 33.0729141235 65.8256301880
15.7648344040 33.0883178711 65.6287918091
15.7768192291 33.1060791016 65.4322586060
15.7900514603 33.1261863708 65.2360153198
15.8028755188 33.1455268860 65.0397033691
15.8128986359 33.1596069336 64.8427505493
15.8187837601 33.1659202576 64.6448364258
15.8214511871 33.1661949158 64.4461593628
15.8235406876 33.1653823853 64.2473373413
15.8273372650 33.1677742004 64.0489120483
15.8328933716 33.1734733582 63.8508949280
15.8381338120 33.1785736084 63.6527976990
15.8406152725 33.1784973145 63.4540290833
15.8389968872 33.1707229614 63.2542495728
15.8333358765 33.1553611755 63.0534591675
15.8248882294 33.1347618103 62.8519477844
15.8158130646 33.1129875183 62.6502380371
15.8084259033 33.0943794250 62.4489059448
15.8042335510 33.0817680359 62.2483367920
15.8036861420 33.0760040283 62.0486488342
15.8067731857 33.0770568848 61.8498611450
15.8134450912 33.0848464966 61.6519775391
15.8232555389 33.0985260010 61.4548912048
15.8348865509 33.1156272888 61.2582778931
15.8465375900 33.1327629089 61.0616836548
15.8569917679 33.1476516724 60.8647918701
15.8662509918 33.1602973938 60.6675987244
15.8752985001 33.1725463867 60.4703559875
15.8854799271 33.1869239807 60.2734146118
15.8978452682 33.2054061890 60.0770606995
15.9124403000 33.2280731201 59.8813171387
15.9279108047 33.2523841858 59.6858253479
15.9420509338 33.2741966248 59.4899978638
15.9530601501 33.2901344299 59.2933464050
15.9604253769 33.2992248535 59.0957145691
15.9647560120 33.3026161194 58.8972549438
15.9669818878 33.3020515442 58.6982078552
15.9676465988 33.2985610962 58.4987220764
15.9666423798 33.2919311523 58.2987556458
15.9633226395 33.2809524536 58.0981216431
15.9570569992 33.2644386292 57.8966369629
15.9480829239 33.2428398132 57.6943550110
15.9379529953 33.2190666199 57.4917068481
15.9288501740 33.1972236633 57.2892990112
15.9223184586 33.1802062988 57.0875854492
15.9186391830 33.1685485840 56.8866462708
15.9172592163 33.1612091064 56.6863441467
15.9175710678 33.1570434570 56.4865074158
15.9194412231 33.1558113098 56.2871055603
15.9235219955 33.1587257385 56.0883331299
15.9313173294 33.1686210632 55.8906402588
15.9447078705 33.1890258789 55.6945991516
15.9649066925 33.2222213745 55.5005874634
15.9916172028 33.2676544189 55.3085441589
16.0229320526 33.3217353821 55.1179313660
16.0555324554 33.3782348633 54.9277648926
16.0849514008 33.4287567139 54.7367134094
16.1067028046 33.4648780823 54.5433998108
16.1182384491 33.4818038940 54.3470230103
16.1197280884 33.4798545837 54.1475944519
16.1128368378 33.4621582031 53.9455795288
16.0992927551 33.4319610596 53.7414779663
16.0807590485 33.3923873901 53.5357818604
16.0592689514 33.3472595215 53.3290939331
16.0372734070 33.3011741638 53.1221733093
16.0173053741 33.2589035034 52.9158134460
16.0014705658 33.2243919373 52.7106742859
15.9908761978 33.1997299194 52.5071334839
15.9856214523 33.1851005554 52.3052406311
15.9854316711 33.1799888611 52.1049232483
15.9901304245 33.1840629578 51.9061546326
15.9993553162 33.1966400146 51.7088317871
16.0121173859 33.2158660889 51.5126571655
16.0271377563 33.2393379211 51.3172302246
16.0438861847 33.2660560608 51.1223869324
16.0632438660 33.2976799011 50.9284210205
16.0871295929 33.3378143311 50.7359733582
16.1170711517 33.3893318176 50.5455665588
16.1524753571 33.4511146545 50.3570289612
16.1898326874 33.5165748596 50.1692161560
16.2238750458 33.5758056641 49.9803810120
16.2499446869 33.6200485229 49.7889442444
16.2657089233 33.6449241638 49.5940971375
16.2712860107 33.6506538391 49.3958396912
16.2687053680 33.6410484314 49.1948089600
16.2613868713 33.6225357056 48.9921417236
16.2532386780 33.6024703979 48.7891540527
16.2473163605 33.5865783691 48.5868835449
16.2449359894 33.5773468018 48.3858032227
16.2458629608 33.5743331909 48.1858367920
16.2490596771 33.5755844116 47.9866409302
16.2534370422 33.5790596008 47.7878494263
16.2584018707 33.5836296082 47.5892524719
16.2640781403 33.5895423889 47.3908996582
16.2709865570 33.5977745056 47.1929817200
16.2792091370 33.6084747314 46.9955215454
16.2878036499 33.6198730469 46.7982025146
16.2952957153 33.6291999817 46.6004905701
16.3008213043 33.6348304749 46.4020767212
16.3046436310 33.6372566223 46.2030487061
16.3076076508 33.6380691528 46.0037040710
16.3103446960 33.6384544373 45.8042640686
16.3129024506 33.6385002136 45.6047439575
16.3147735596 33.6372566223 45.4049644470
16.3149585724 33.6328468323 45.2045555115
16.3121452332 33.6227951050 45.0030250549
16.3053855896 33.6053199768 44.8000144958
16.2953357697 33.5816612244 44.5957489014
16.2849292755 33.5573272705 44.3913040161
16.2783546448 33.5401992798 44.1882400513
16.2790451050 33.5367317200 43.9878578186
16.2885513306 33.5498428345 43.7907676697
16.3066616058 33.5791358948 43.5969200134
16.3316230774 33.6213111877 43.4056968689
16.3600177765 33.6699485779 43.2158241272
16.3871383667 33.7161827087 43.0255203247
16.4083328247 33.7512817383 42.8330078125
16.4205551147 33.7695007324 42.6370964050
16.4231166840 33.7695579529 42.4374771118
16.4177818298 33.7547569275 42.2348022461
16.4084053040 33.7323570251 42.0305213928
16.3995952606 33.7110176086 41.8264198303
16.3945121765 33.6966896057 41.6237297058
16.3937244415 33.6904411316 41.4226875305
16.3961582184 33.6902542114 41.2228889465
16.4008197784 33.6942520142 41.0239562988
16.4075336456 33.7021102905 40.8258323669
16.4167003632 33.7145881653 40.6286773682
16.4287471771 33.7324790955 40.4326782227
16.4435596466 33.7555732727 40.2377967834
16.4599647522 33.7816619873 40.0435714722
16.4757537842 33.8065986633 39.8491287231
16.4887008667 33.8261871338 39.6535606384
16.4979133606 33.8387451172 39.4564933777
16.5043067932 33.8460044861 39.2582893372
16.5098934174 33.8517456055 39.0597534180
16.5167617798 33.8598976135 38.8617362976
16.5266208649 33.8736763000 38.6649475098
16.5408630371 33.8956985474 38.4699707031
16.5604209900 33.9277267456 38.2772102356
16.5849418640 33.9690933228 38.0865440369
16.6118602753 34.0149688721 37.8969192505
16.6368103027 34.0571441650 37.7065277100
16.6557617188 34.0880317688 37.5136718750
16.6671791077 34.1047477722 37.3176879883
16.6725463867 34.1100769043 37.1191635132
16.6753005981 34.1104927063 36.9195289612
16.6793632507 34.1133689880 36.7204399109
16.6876602173 34.1242103577 36.5231437683
16.7007904053 34.1441459656 36.3279113770
16.7166309357 34.1691856384 36.1338577271
16.7315673828 34.1925201416 35.9394416809
16.7425251007 34.2083740234 35.7433280945
16.7481460571 34.2141838074 35.5449218750
16.7487754822 34.2105979919 35.3443489075
16.7461872101 34.2009544373 35.1423530579
16.7434329987 34.1910018921 34.9402618408
16.7441444397 34.1875686646 34.7396621704
16.7511653900 34.1960067749 34.5418128967
16.7653312683 34.2178955078 34.3471107483
16.7851200104 34.2503700256 34.1549148560
16.8070964813 34.2869606018 33.9637184143
16.8269634247 34.3195800781 33.7716255188
16.8409290314 34.3410949707 33.5769386292
16.8469295502 34.3476181030 33.3787078857
16.8452301025 34.3396492004 33.1770210266
16.8383159637 34.3218574524 32.9729614258
16.8303031921 34.3020019531 32.7683715820
16.8259658813 34.2890625000 32.5654029846
16.8294124603 34.2907752991 32.3659362793
16.8427848816 34.3111763000 32.1709785461
16.8656234741 34.3493919373 31.9803638458
16.8954639435 34.4007949829 31.7929973602
16.9291858673 34.4594993591 31.6074771881
16.9637794495 34.5198516846 31.4224300385
16.9962673187 34.5762405396 31.2364845276
17.0237636566 34.6232337952 31.0482959747
17.0442142487 34.6569633484 30.8568878174
17.0571212769 34.6764907837 30.6619987488
17.0635776520 34.6838760376 30.4641094208
17.0659694672 34.6836051941 30.2643108368
17.0677700043 34.6822242737 30.0642223358
17.0727977753 34.6869163513 29.8656425476
17.0832195282 34.7017669678 29.6696090698
17.0977993011 34.7244491577 29.4755554199
17.1127910614 34.7479019165 29.2817192078
17.1249065399 34.7659416199 29.0865325928
17.1332569122 34.7768898010 28.8895587921
17.1387996674 34.7825546265 28.6912403107
17.1428318024 34.7853736877 28.4921913147
17.1461563110 34.7868614197 28.2927913666
17.1490631104 34.7875595093 28.0931797028
17.1515159607 34.7874031067 27.8933372498
17.1532573700 34.7859077454 27.6931343079
17.1539306641 34.7824020386 27.4923973083
17.1533451080 34.7765235901 27.2910270691
17.1517677307 34.7687759399 27.0891475677
17.1499061584 34.7604904175 26.8871059418
17.1486282349 34.7533111572 26.6853294373
17.1489009857 34.7490463257 26.4842948914
17.1519622803 34.7500305176 26.2846260071
17.1592292786 34.7589378357 26.0870380402
17.1717815399 34.7778015137 25.8920898438
17.1898956299 34.8071403503 25.6999378204
17.2130870819 34.8460426331 25.5103626251
17.2406768799 34.8932304382 25.3230438232
17.2721920013 34.9478149414 25.1377620697
17.3069972992 35.0085983276 24.9542102814
17.3435592651 35.0726928711 24.7716255188
17.3792419434 35.1351318359 24.5886745453
17.4108924866 35.1899757385 24.4037456512
17.4358367920 35.2321929932 24.2154541016
17.4528446198 35.2594528198 24.0231456757
17.4625778198 35.2730140686 23.8271236420
17.4672183990 35.2769813538 23.6284866333
17.4694461823 35.2764053345 23.4285945892
17.4714813232 35.2754669189 23.2285919189
17.4746398926 35.2766380310 23.0291576385
17.4793720245 35.2807769775 22.8305320740
17.4855422974 35.2876281738 22.6326503754
17.4926853180 35.2963066101 22.4352760315
17.5001354218 35.3055686951 22.2380638123
17.5071048737 35.3139228821 22.0405998230
17.5128650665 35.3199958801 21.8424968719
17.5170650482 35.3231353760 21.6435661316
17.5201148987 35.3241043091 21.4440155029
17.5233078003 35.3253402710 21.2445316315
17.5284881592 35.3303260803 21.0460968018
17.5371761322 35.3419151306 20.8495311737
17.5495471954 35.3604469299 20.6549434662
17.5641098022 35.3831100464 20.4615459442
17.5786190033 35.4056701660 20.2681407928
17.5916099548 35.4253730774 20.0739383698
17.6033210754 35.4426651001 19.8790588379
17.6154594421 35.4607582092 19.6844215393
17.6303348541 35.4840126038 19.4912891388
17.6498622894 35.5160331726 19.3007144928
17.6746063232 35.5578918457 19.1130275726
17.7031917572 35.6069831848 18.9274940491
17.7324371338 35.6573219299 18.7423820496
17.7582817078 35.7012557983 18.5554561615
17.7770557404 35.7318572998 18.3646774292
17.7866744995 35.7452125549 18.1688652039
17.7873649597 35.7417373657 17.9681015015
17.7814960480 35.7258987427 17.7636737823
17.7726726532 35.7044906616 17.5575618744
17.7647075653 35.6846961975 17.3518867493
17.7608699799 35.6726837158 17.1484832764
17.7634010315 35.6726722717 16.9486274719
17.7732601166 35.6864776611 16.7528877258
17.7901210785 35.7134780884 16.5611076355
17.8126583099 35.7511787415 16.3725681305
17.8392562866 35.7965393066 16.1863727570
17.8686847687 35.8472366333 16.0018424988
17.9001598358 35.9017906189 15.8185396194
17.9329872131 35.9588966370 15.6360750198
17.9664897919 36.0172805786 15.4540700912
18.0001754761 36.0760078430 15.2722406387
18.0333900452 36.1338462830 15.0902137756
18.0645503998 36.1878204346 14.9070749283
18.0912284851 36.2333412170 14.7214097977
18.1116218567 36.2670135498 14.5321550369
18.1259708405 36.2892913818 14.3394250870
18.1363105774 36.3040122986 14.1443805695
18.1449661255 36.3155555725 13.9483623505
18.1533679962 36.3266220093 13.7521991730
18.1619606018 36.3380470276 13.5561523438
18.1708869934 36.3501014709 13.3603057861
18.1807670593 36.3639564514 13.1650266647
18.1930656433 36.3823699951 12.9711837769
18.2096633911 36.4088897705 12.7798995972
18.2315540314 36.4453964233 12.5917835236
18.2574596405 36.4894714355 12.4060955048
18.2837448120 36.5342636108 12.2206850052
18.3060588837 36.5715675354 12.0329551697
18.3213100433 36.5955505371 11.8410377502
18.3284683228 36.6042785645 11.6442861557
18.3283691406 36.5993156433 11.4431667328
18.3234386444 36.5852394104 11.2391157150
18.3174533844 36.5691757202 11.0343952179
18.3147048950 36.5592193604 10.8315982819
18.3187446594 36.5620574951 10.6328954697
18.3315734863 36.5814743042 10.4395332336
18.3535594940 36.6181640625 10.2517709732
18.3835372925 36.6699295044 10.0689344406
18.4188156128 36.7316970825 9.8894100189
18.4553985596 36.7959213257 9.7107620239
18.4889125824 36.8543624878 9.5303077698
18.5163211823 36.9012832642 9.3461599350
18.5373687744 36.9362106323 9.1581373215
18.5544776917 36.9637107849 8.9677143097
18.5709075928 36.9899291992 8.7768955231
18.5884876251 37.0183143616 8.5868186951
18.6066246033 37.0477600098 8.3971195221
18.6232051849 37.0742607117 8.2064771652
18.6363639832 37.0943107605 8.0137176514
18.6456298828 37.1070175171 7.8185329437
18.6519241333 37.1141204834 7.6214838028
18.6570148468 37.1189498901 7.4236731529
18.6629524231 37.1253776550 7.2263927460
18.6714210510 37.1365776062 7.0307121277
18.6829719543 37.1535949707 6.8369913101
18.6966819763 37.1746902466 6.6446571350
18.7107963562 37.1965446472 6.4525985718
18.7239112854 37.2165107727 6.2599201202
18.7356548309 37.2338943481 6.0663824081
18.7465133667 37.2496109009 5.8722891808
18.7574310303 37.2654342651 5.6782445908
18.7697887421 37.2839775085 5.4851379395
18.7853946686 37.3086471558 5.2941431999
18.8057556152 37.3422927856 5.1062493324
18.8306884766 37.3845672607 4.9213566780
18.8575973511 37.4305686951 4.7377967834
18.8826675415 37.4731063843 4.5530953407
18.9032115936 37.5070991516 4.3654890060
18.9189739227 37.5320701599 4.1747946739
18.9315986633 37.5511245728 3.9820675850
18.9432983398 37.5684280396 3.7887482643
18.9559440613 37.5875205994 3.5960650444
18.9706115723 37.6104278564 3.4047300816
18.9871997833 37.6369628906 3.2146856785
19.0043811798 37.6646156311 3.0250599384
19.0203781128 37.6900329590 2.8346765041
19.0342254639 37.7113914490 2.6428885460
19.0464801788 37.7297477722 2.4500584602
19.0589084625 37.7484321594 2.2573585510
19.0734939575 37.7711906433 2.0661170483
19.0913467407 37.8001136780 1.8770872355
19.1121635437 37.8346328735 1.6900781393
19.1346054077 37.8722229004 1.5042027235
19.1570949554 37.9099006653 1.3184005022
19.1782608032 37.9450836182 1.1317477226
19.1973266602 37.9762992859 0.9437096715
19.2147159576 38.0043525696 0.7545683384
19.2322769165 38.0327339172 0.5655724406
19.2524013519 38.0659484863 0.3783513904
19.2766971588 38.1070480347 0.1940170825
19.3053836823 38.1564292908 0.0127343321
24.7844791412 26.4107666016 80.4758453369
24.7972126007 26.4199504852 80.2787017822
24.8182888031 26.4371719360 80.0822677612
24.8418273926 26.4567661285 79.8860626221
24.8621234894 26.4732341766 79.6896057129
24.8767948151 26.4842872620 79.4926757813
24.8877944946 26.4918041229 79.2954330444
24.8994941711 26.4999942780 79.0982513428
24.9155559540 26.5123882294 78.9014663696
24.9366474152 26.5296249390 78.7051544189
24.9601745605 26.5492076874 78.5090789795
24.9822196960 26.5673637390 78.3128967285
25.0002689362 26.5816726685 78.1163635254
25.0144939423 26.5922966003 77.9194869995
25.0265312195 26.6008129120 77.7224044800
25.0371074677 26.6079235077 77.5251846313
25.0449810028 26.6124286652 77.3277130127
25.0484390259 26.6126804352 77.1297988892
25.0475807190 26.6087741852 76.9314498901
25.0445671082 26.6027927399 76.7328643799
25.0417613983 26.5970115662 76.5342864990
25.0401992798 26.5924263000 76.3358078003
25.0397434235 26.5889072418 76.1374282837
25.0400333405 26.5861053467 75.9391021729
25.0409793854 26.5839366913 75.7408294678
25.0426769257 26.5824909210 75.5426254272
25.0452079773 26.5818481445 75.3444976807
25.0486965179 26.5821285248 75.1464538574
25.0535964966 26.5837688446 74.9485549927
25.0608844757 26.5877075195 74.7509078979
25.0718498230 26.5951919556 74.5536575317
25.0872268677 26.6069259644 74.3568954468
25.1059856415 26.6219177246 74.1605224609
25.1249256134 26.6370868683 73.9641799927
25.1399059296 26.6484394073 73.7674102783
25.1477603912 26.6529254913 73.5698471069
25.1472492218 26.6493492126 73.3713150024
25.1388912201 26.6382141113 73.1718673706
25.1247787476 26.6215324402 72.9717178345
25.1084060669 26.6026725769 72.7712631226
25.0936565399 26.5853748322 72.5709533691
25.0831184387 26.5721359253 72.3711013794
25.0772838593 26.5634288788 72.1717758179
25.0751914978 26.5583267212 71.9728775024
25.0757331848 26.5557651520 71.7742843628
25.0786991119 26.5555381775 71.5759658813
25.0851440430 26.5586624146 71.3780670166
25.0967502594 26.5667629242 71.1808013916
25.1143798828 26.5806674957 70.9842987061
25.1370372772 26.5994186401 70.7884368896
25.1623039246 26.6206836700 70.5929336548
25.1874122620 26.6417961121 70.3974304199
25.2097473145 26.6602382660 70.2016067505
25.2270450592 26.6738243103 70.0051498413
25.2379798889 26.6812763214 69.8078765869
25.2427463531 26.6827850342 69.6098022461
25.2428989410 26.6798477173 69.4111099243
25.2404747009 26.6744251251 69.2120590210
25.2371177673 26.6681022644 69.0128631592
25.2338562012 26.6618709564 68.8136596680
25.2312793732 26.6563014984 68.6145248413
25.2293453217 26.6513481140 68.4154586792
25.2268886566 26.6458930969 68.2162933350
25.2218170166 26.6379165649 68.0167541504
25.2123184204 26.6256732941 67.8165740967
25.1984443665 26.6092090607 67.6157531738
25.1827201843 26.5909614563 67.4146270752
25.1688556671 26.5745067596 67.2137222290
25.1595096588 26.5624084473 67.0134201050
25.1551876068 26.5551509857 66.8137969971
25.1548843384 26.5517692566 66.6147384644
25.1572475433 26.5509567261 66.4160461426
25.1612319946 26.5517063141 66.2175827026
25.1663551331 26.5535526276 66.0192718506
25.1728935242 26.5567646027 65.8211669922
25.1819782257 26.5624332428 65.6234283447
25.1952877045 26.5721721649 65.4263229370
25.2140617371 26.5871829987 65.2300491333
25.2375411987 26.6067276001 65.0345001221
25.2619171143 26.6271381378 64.8391113281
25.2815132141 26.6429405212 64.6430206299
25.2921791077 26.6501331329 64.4455718994
25.2943744659 26.6491584778 64.2468185425
25.2930850983 26.6448230743 64.0475082397
25.2945117950 26.6431045532 63.8486099243
25.3022212982 26.6474475861 63.6506805420
25.3155326843 26.6571903229 63.4536323547
25.3307380676 26.6687602997 63.2568969727
25.3433799744 26.6778564453 63.0597572327
25.3496208191 26.6807823181 62.8615989685
25.3467292786 26.6749000549 62.6619567871
25.3339920044 26.6595249176 62.4606933594
25.3139820099 26.6371345520 62.2582054138
25.2926425934 26.6134605408 62.0554466248
25.2774257660 26.5956935883 61.8536453247
25.2743167877 26.5895977020 61.6538124084
25.2851753235 26.5969734192 61.4562835693
25.3068351746 26.6147670746 61.2605705261
25.3324832916 26.6364078522 61.0655517578
25.3546237946 26.6546649933 60.8699684143
25.3683471680 26.6648063660 60.6729736328
25.3735809326 26.6667575836 60.4745292664
25.3749065399 26.6649398804 60.2754096985
25.3789367676 26.6657314301 60.0767402649
25.3913097382 26.6745681763 59.8795166016
25.4151363373 26.6944541931 59.6842956543
25.4508476257 26.7258014679 59.4911842346
25.4969120026 26.7671356201 59.2999496460
25.5509662628 26.8161792755 59.1101951599
25.6098709106 26.8699016571 58.9213829041
25.6677761078 26.9226627350 58.7324790955
25.7147197723 26.9648494720 58.5416870117
25.7390422821 26.9852180481 58.3468742371
25.7328243256 26.9761257172 58.1465339661
25.6960411072 26.9375495911 57.9405860901
25.6364154816 26.8769378662 57.7303657532
25.5655612946 26.8054904938 57.5179557800
25.4946594238 26.7339954376 57.3053970337
25.4322967529 26.6707382202 57.0942878723
25.3837604523 26.6208152771 56.8856353760
25.3504829407 26.5856113434 56.6797485352
25.3307590485 26.5634822845 56.4763450623
25.3223743439 26.5522918701 56.2750434875
25.3246574402 26.5513916016 56.0757369995
25.3376312256 26.5608081818 55.8784675598
25.3597278595 26.5790233612 55.6829566956
25.3871402740 26.6023693085 55.4884948730
25.4154663086 26.6265964508 55.2942428589
25.4416122437 26.6487216949 55.0995979309
25.4642353058 26.6674461365 54.9042930603
25.4830837250 26.6825313568 54.7082710266
25.4984741211 26.6942787170 54.5115814209
25.5111846924 26.7034416199 54.3143692017
25.5221252441 26.7108974457 54.1168136597
25.5315418243 26.7168788910 53.9189529419
25.5385093689 26.7205009460 53.7206001282
25.5417633057 26.7205390930 53.5214958191
25.5413856506 26.7170734406 53.3216438293
25.5393428802 26.7119979858 53.1214332581
25.5379772186 26.7075767517 52.9213447571
25.5384674072 26.7049484253 52.7216148376
25.5412120819 26.7044925690 52.5223350525
25.5470314026 26.7070045471 52.3236846924
25.5571193695 26.7136363983 52.1259117126
25.5717582703 26.7246589661 51.9290924072
25.5894660950 26.7386455536 51.7329254150
25.6078586578 26.7532901764 51.5369186401
25.6256599426 26.7673664093 51.3408012390
25.6440067291 26.7819690704 51.1448135376
25.6652183533 26.7993354797 50.9494552612
25.6898670197 26.8200225830 50.7548522949
25.7152976990 26.8414611816 50.5604438782
25.7372531891 26.8595485687 50.3653144836
25.7527580261 26.8714103699 50.1688079834
25.7616081238 26.8768463135 49.9708633423
25.7657718658 26.8777637482 49.7718963623
25.7678241730 26.8766384125 49.5724525452
25.7697715759 26.8754138947 49.3729782104
25.7730178833 26.8754425049 49.1737747192
25.7786064148 26.8777332306 48.9750785828
25.7868556976 26.8825893402 48.7769737244
25.7968578339 26.8891391754 48.5792579651
25.8067531586 26.8955860138 48.3815155029
25.8148517609 26.9002990723 48.1833724976
25.8210048676 26.9031314850 47.9847869873
25.8266963959 26.9055213928 47.7860870361
25.8334751129 26.9089584351 47.5876312256
25.8415927887 26.9136886597 47.3894805908
25.8506240845 26.9193019867 47.1915321350
25.8609600067 26.9261741638 46.9938888550
25.8741340637 26.9357852936 46.7969017029
25.8916778564 26.9496154785 46.6009407043
25.9135189056 26.9675941467 46.4059982300
25.9371490479 26.9873008728 46.2114944458
25.9584808350 27.0047912598 46.0164756775
25.9738521576 27.0165252686 45.8200683594
25.9813938141 27.0207004547 45.6218185425
25.9808406830 27.0170593262 45.4216384888
25.9727802277 27.0061683655 45.2196502686
25.9587535858 26.9895191193 45.0162010193
25.9422893524 26.9705162048 44.8121223450
25.9295005798 26.9550590515 44.6088867188
25.9278564453 26.9503612518 44.4083137512
25.9430522919 26.9619255066 44.2118148804
25.9757671356 26.9904060364 44.0195999146
26.0208969116 27.0308761597 43.8304710388
26.0702304840 27.0754051208 43.6424369812
26.1162090302 27.1166954041 43.4536476135
26.1537075043 27.1497974396 43.2628211975
26.1797924042 27.1718788147 43.0692100525
26.1933288574 27.1818428040 42.8724975586
26.1949062347 27.1802597046 42.6728019714
26.1867790222 27.1693019867 42.4706535339
26.1729412079 27.1528320313 42.2670364380
26.1588649750 27.1361293793 42.0633163452
26.1497268677 27.1241950989 41.8608093262
26.1478767395 27.1193008423 41.6601257324
26.1523113251 27.1204738617 41.4610252380
26.1609916687 27.1257457733 41.2630081177
26.1731033325 27.1343345642 41.0658721924
26.1885948181 27.1461868286 40.8696136475
26.2064628601 27.1603336334 40.6739807129
26.2245635986 27.1747055054 40.4784240723
26.2407703400 27.1872501373 40.2823905945
26.2536277771 27.1965599060 40.0854911804
26.2622833252 27.2018089294 39.8874931335
26.2665004730 27.2027721405 39.6883239746
26.2669067383 27.2000522614 39.4881401062
26.2649784088 27.1950798035 39.2873229980
26.2626457214 27.1897163391 39.0863761902
26.2617053986 27.1856975555 38.8857803345
26.2632923126 27.1841201782 38.6858444214
26.2677688599 27.1853313446 38.4866676331
26.2751178741 27.1893177032 38.2882614136
26.2854042053 27.1961421967 38.0906448364
26.2983779907 27.2055625916 37.8937606812
26.3122901917 27.2158908844 37.6971359253
26.3236408234 27.2237434387 37.4998207092
26.3292770386 27.2260761261 37.3009414673
26.3290710449 27.2227630615 37.1004524231
26.3259639740 27.2166500092 36.8991432190
26.3233394623 27.2110004425 36.6979446411
26.3230628967 27.2076206207 36.4973793030
26.3260326385 27.2073745728 36.2976989746
26.3338279724 27.2117938995 36.0993576050
26.3492279053 27.2235584259 35.9031448364
26.3745136261 27.2448749542 35.7097206116
26.4085559845 27.2746505737 35.5187950134
26.4455394745 27.3072700500 35.3287429810
26.4776439667 27.3351764679 35.1373596191
26.5000934601 27.3537559509 34.9432640076
26.5141220093 27.3641948700 34.7467880249
26.5252475739 27.3718318939 34.5494880676
26.5384807587 27.3815059662 34.3527984619
26.5544452667 27.3938179016 34.1569023132
26.5694351196 27.4051895142 33.9607353210
26.5785827637 27.4109153748 33.7628860474
26.5789337158 27.4081401825 33.5624771118
26.5707778931 27.3971443176 33.3595657349
26.5576915741 27.3813838959 33.1551856995
26.5456295013 27.3666133881 32.9510650635
26.5404720306 27.3585128784 32.7489395142
26.5448741913 27.3596515656 32.5496101379
26.5569763184 27.3682308197 32.3525543213
26.5724411011 27.3800621033 32.1565017700
26.5880374908 27.3920192719 31.9604988098
26.6036148071 27.4039554596 31.7645015717
26.6212482452 27.4178829193 31.5691318512
26.6429367065 27.4357280731 31.3749942780
26.6689167023 27.4577217102 31.1821746826
26.6975822449 27.4823112488 30.9901943207
26.7262325287 27.5068855286 30.7982444763
26.7519531250 27.5286293030 30.6054382324
26.7726993561 27.5455665588 30.4111423492
26.7879638672 27.5572052002 30.2151908875
26.7982444763 27.5640258789 30.0177211761
26.8053169250 27.5677452087 29.8192653656
26.8145580292 27.5735626221 29.6214733124
26.8344974518 27.5897197723 29.4269943237
26.8699493408 27.6208724976 29.2373466492
26.9157962799 27.6620750427 29.0509815216
26.9602451324 27.7019252777 28.8642444611
26.9941921234 27.7316246033 28.6742820740
27.0162544250 27.7498378754 28.4806327820
27.0302104950 27.7602138519 28.2844543457
27.0401840210 27.7667407990 28.0870265961
27.0484256744 27.7715930939 27.8890533447
27.0559368134 27.7757396698 27.6908435822
27.0641498566 27.7805633545 27.4928550720
27.0758895874 27.7887973785 27.2959918976
27.0943965912 27.8035755157 27.1012973785
27.1205997467 27.8257923126 26.9090900421
27.1509456635 27.8520145416 26.7182464600
27.1782569885 27.8753051758 26.5264606476
27.1956386566 27.8889942169 26.3314933777
27.2008018494 27.8908729553 26.1325740814
27.1975345612 27.8845977783 25.9309043884
27.1930999756 27.8771934509 25.7288303375
27.1939296722 27.8748817444 25.5284557343
27.2030086517 27.8805427551 25.3307704926
27.2197265625 27.8935928345 25.1356010437
27.2406253815 27.9106826782 24.9418201447
27.2602310181 27.9265251160 24.7476348877
27.2727851868 27.9355468750 24.5511283875
27.2748451233 27.9344215393 24.3511371613
27.2672824860 27.9239921570 24.1479244232
27.2552337646 27.9092235565 23.9431819916
27.2460289001 27.8972053528 23.7393569946
27.2465114594 27.8945541382 23.5387516022
27.2612190247 27.9056587219 23.3429260254
27.2917575836 27.9320755005 23.1524600983
27.3368186951 27.9725322723 22.9669494629
27.3925361633 28.0232982635 22.7851219177
27.4531841278 28.0788326263 22.6050567627
27.5120544434 28.1326522827 22.4244747162
27.5624332428 28.1782569885 22.2410755157
27.5986976624 28.2102146149 22.0529022217
27.6177177429 28.2254943848 21.8588466644
27.6202716827 28.2248497009 21.6591262817
27.6111793518 28.2129402161 21.4553642273
27.5973205566 28.1964187622 21.2499179840
27.5848350525 28.1812286377 21.0449085236
27.5777320862 28.1712398529 20.8417339325
27.5782566071 28.1686325073 20.6411972046
27.5874004364 28.1743583679 20.4436645508
27.6044330597 28.1877155304 20.2489013672
27.6264610291 28.2059040070 20.0559120178
27.6494293213 28.2250041962 19.8632755280
27.6701145172 28.2418956757 19.6698570251
27.6872768402 28.2553806305 19.4752082825
27.7013206482 28.2658481598 19.2794628143
27.7135009766 28.2745113373 19.0830631256
27.7255725861 28.2830734253 18.8866291046
27.7396411896 28.2935638428 18.6909141541
27.7575359344 28.3077564240 18.4965839386
27.7797069550 28.3260879517 18.3038082123
27.8045368195 28.3469905853 18.1120147705
27.8290615082 28.3675994873 17.9201393127
27.8506221771 28.3853397369 17.7272148132
27.8678436279 28.3988838196 17.5327358246
27.8806095123 28.4081172943 17.3366451263
27.8901443481 28.4142246246 17.1393795013
27.8993396759 28.4200038910 16.9419898987
27.9117908478 28.4289321899 16.7457962036
27.9294948578 28.4429416656 16.5515403748
27.9515972137 28.4612102509 16.3589248657
27.9755249023 28.4812431335 16.1670055389
27.9989185333 28.5007591248 15.9749155045
28.0207004547 28.5187187195 15.7822513580
28.0414352417 28.5356636047 15.5892181396
28.0633277893 28.5537300110 15.3966388702
28.0892257690 28.5756702423 15.2055807114
28.1203994751 28.6027183533 15.0165319443
28.1550083160 28.6330890656 14.8288145065
28.1894016266 28.6632518768 14.6410608292
28.2211494446 28.6908588409 14.4523525238
28.2502460480 28.7158966064 14.2626791000
28.2772769928 28.7389392853 14.0722570419
28.3014469147 28.7592105865 13.8807773590
28.3210105896 28.7750282288 13.6875667572
28.3352508545 28.7856922150 13.4923391342
28.3453521729 28.7923507690 13.2955341339
28.3535232544 28.7971420288 13.0979881287
28.3617019653 28.8019409180 12.9004430771
28.3709678650 28.8077907562 12.7033157349
28.3816089630 28.8149738312 12.5067205429
28.3933506012 28.8232192993 12.3105535507
28.4055366516 28.8318977356 12.1145658493
28.4173927307 28.8402538300 11.9184522629
28.4283981323 28.8477897644 11.7220125198
28.4388141632 28.8547534943 11.5253448486
28.4498577118 28.8623237610 11.3289251328
28.4631118774 28.8720359802 11.1333770752
28.4792404175 28.8845272064 10.9389686584
28.4971485138 28.8987445831 10.7452754974
28.5147609711 28.9126758575 10.5514812469
28.5309276581 28.9252071381 10.3571271896
28.5466098785 28.9372673035 10.1625928879
28.5641117096 28.9510917664 9.9687957764
28.5850086212 28.9682025909 9.7763690948
28.6086940765 28.9880123138 9.5850791931
28.6329250336 29.0083522797 9.3940334320
28.6556282043 29.0272102356 9.2023992538
28.6760444641 29.0438575745 9.0098695755
28.6945629120 29.0586662292 8.8165912628
28.7121353149 29.0725612640 8.6229476929
28.7300586700 29.0867938995 8.4294605255
28.7495555878 29.1025543213 8.2366304398
28.7708244324 29.1200256348 8.0445375443
28.7923698425 29.1377677917 7.8525810242
28.8119449615 29.1536026001 7.6598396301
28.8284473419 29.1664619446 7.4658565521
28.8425998688 29.1770458221 7.2709202766
28.8556270599 29.1865425110 7.0755290985
28.8677349091 29.1951465607 6.8797645569
28.8783264160 29.2022838593 6.6833786964
28.8874378204 29.2079887390 6.4863810539
28.8964786530 29.2136230469 6.2893538475
28.9077453613 29.2214145660 6.0932526588
28.9237136841 29.2337570190 5.8991169930
28.9466705322 29.2528686523 5.7079157829
28.9780445099 29.2801303864 5.5202660561
29.0170536041 29.3147850037 5.3358621597
29.0598030090 29.3530635834 5.1530857086
29.1004486084 29.3893051147 4.9694814682
29.1342277527 29.4188995361 4.7830319405
29.1599426270 29.4406833649 4.5932102203
29.1795215607 29.4565277100 4.4008145332
29.1954307556 29.4688167572 4.2068753242
29.2090206146 29.4788608551 4.0119600296
29.2212810516 29.4876174927 3.8164839745
29.2340736389 29.4968891144 3.6212413311
29.2497806549 29.5089836121 3.4272549152
29.2696380615 29.5250968933 3.2350642681
29.2926387787 29.5442562103 3.0442461967
29.3162841797 29.5640411377 2.8537309170
29.3384876251 29.5824279785 2.6626174450
29.3588523865 29.5990352631 2.4707305431
29.3784847260 29.6149311066 2.2785446644
29.3988380432 29.6315288544 2.0866916180
29.4204216003 29.6493167877 1.8953948021
29.4422397614 29.6673336029 1.7042226791
29.4627914429 29.6841239929 1.5125187635
29.4819869995 29.6995983124 1.3202394247
29.5019721985 29.7158393860 1.1283248663
29.5257682800 29.7357730865 0.9381091595
29.5549564362 29.7609310150 0.7502996922
29.5886840820 29.7904853821 0.5645339489
29.6250495911 29.8225955963 0.3799813092
29.6632709503 29.8565044403 0.1963014752
29.7042598724 29.8930950165 0.0139046712
32.0777702332 17.6269779205 80.4988250732
32.0785408020 17.6248893738 80.3009643555
32.0797157288 17.6229991913 80.1031188965
32.0821914673 17.6217384338 79.9053421021
32.0878067017 17.6220054626 79.7077789307
32.0987968445 17.6248855591 79.5105819702
32.1180038452 17.6317596436 79.3139724731
32.1482276917 17.6439895630 79.1181564331
32.1896018982 17.6616401672 78.9231719971
32.2374649048 17.6824455261 78.7287063599
32.2831268311 17.7021827698 78.5341262817
32.3167610168 17.7160720825 78.3387069702
32.3309402466 17.7205028534 78.1418609619
32.3238868713 17.7146129608 77.9434127808
32.3005905151 17.7008228302 77.7436981201
32.2703857422 17.6836738586 77.5434036255
32.2423553467 17.6675834656 77.3432159424
32.2218856812 17.6551666260 77.1435775757
32.2102012634 17.6470222473 76.9445800781
32.2059898376 17.6425094604 76.7461547852
32.2071151733 17.6405925751 76.5481414795
32.2117309570 17.6403694153 76.3503952026
32.2188949585 17.6413898468 76.1528472900
32.2287940979 17.6437397003 75.9555206299
32.2420883179 17.6477375031 75.7584762573
32.2584648132 17.6532363892 75.5616989136
32.2757072449 17.6591567993 75.3649978638
32.2906455994 17.6639556885 75.1681137085
32.3012657166 17.6666545868 74.9708557129
32.3078804016 17.6674060822 74.7732543945
32.3125877380 17.6672306061 74.5754852295
32.3180999756 17.6674461365 74.3777694702
32.3269424438 17.6692790985 74.1803512573
32.3405914307 17.6734523773 73.9833602905
32.3581581116 17.6795291901 73.7867202759
32.3755073547 17.6855010986 73.5900726318
32.3865242004 17.6883926392 73.3928527832
32.3863906860 17.6858615875 73.1946105957
32.3745536804 17.6776390076 72.9952545166
32.3549270630 17.6656246185 72.7951431274
32.3332519531 17.6526145935 72.5947952271
32.3139533997 17.6407623291 72.3946304321
32.2989501953 17.6309947968 72.1948318481
32.2885208130 17.6234550476 71.9954376221
32.2826538086 17.6181316376 71.7964553833
32.2815246582 17.6151142120 71.5979232788
32.2852554321 17.6144599915 71.3998489380
32.2935791016 17.6160411835 71.2022171021
32.3059349060 17.6195831299 71.0049896240
32.3218841553 17.6248722076 70.8081283569
32.3414306641 17.6319122314 70.6116333008
32.3646774292 17.6407527924 70.4155349731
32.3906478882 17.6509189606 70.2197341919
32.4163703918 17.6609630585 70.0239257813
32.4376182556 17.6688346863 69.8276672363
32.4508590698 17.6728057861 69.6305923462
32.4543724060 17.6720485687 69.4324874878
32.4478797913 17.6664180756 69.2333145142
32.4319992065 17.6562232971 69.0331039429
32.4086036682 17.6423683167 68.8320541382
32.3811264038 17.6265277863 68.6305160522
32.3538284302 17.6107730865 68.4289398193
32.3305740356 17.5969867706 68.2277526855
32.3142013550 17.5865478516 68.0272827148
32.3063774109 17.5802688599 67.8277206421
32.3073883057 17.5782890320 67.6291275024
32.3159294128 17.5799732208 67.4313659668
32.3295516968 17.5841293335 67.2341766357
32.3459129333 17.5896186829 67.0373077393
32.3638267517 17.5958652496 66.8406143188
32.3833503723 17.6028938293 66.6441268921
32.4051055908 17.6110095978 66.4479064941
32.4293556213 17.6203403473 66.2519912720
32.4549369812 17.6303176880 66.0562591553
32.4788742065 17.6394958496 65.8603439331
32.4976005554 17.6461372375 65.6638336182
32.5091629028 17.6492919922 65.4664764404
32.5142822266 17.6493110657 65.2683410645
32.5153923035 17.6473808289 65.0697174072
32.5150909424 17.6447601318 64.8709106445
32.5154953003 17.6424827576 64.6721725464
32.5183944702 17.6414222717 64.4737243652
32.5245513916 17.6419467926 64.2756729126
32.5318145752 17.6430072784 64.0777511597
32.5347671509 17.6419715881 63.8792839050
32.5280723572 17.6362380981 63.6795921326
32.5105743408 17.6252460480 63.4785118103
32.4852752686 17.6104564667 63.2763938904
32.4555625916 17.5935153961 63.0736656189
32.4228515625 17.5751152039 62.8704910278
32.3877792358 17.5555648804 62.6669502258
32.3522911072 17.5358123779 62.4632949829
32.3201751709 17.5176982880 62.2600135803
32.2958564758 17.5033817291 62.0576972961
32.2826919556 17.4944934845 61.8568077087
32.2820777893 17.4917163849 61.6575508118
32.2935485840 17.4948234558 61.4598922729
32.3150253296 17.5028038025 61.2635765076
32.3432769775 17.5140819550 61.0681915283
32.3754119873 17.5272502899 60.8733596802
32.4103546143 17.5417881012 60.6789398193
32.4483642578 17.5578193665 60.4849700928
32.4890823364 17.5751686096 60.2914161682
32.5305252075 17.5928707123 60.0980033875
32.5695381165 17.6093921661 59.9042968750
32.6024894714 17.6229610443 59.7097816467
32.6257553101 17.6318149567 59.5139350891
32.6366691589 17.6346530914 59.3163604736
32.6351890564 17.6314544678 59.1170272827
32.6254539490 17.6242370605 58.9165000916
32.6149826050 17.6166591644 58.7158393860
32.6102218628 17.6118621826 58.5159683228
32.6121788025 17.6103363037 58.3170509338
32.6172485352 17.6103267670 58.1185722351
32.6219978333 17.6101627350 57.9200439453
32.6260833740 17.6096744537 57.7214050293
32.6313362122 17.6097545624 57.5229301453
