-18.6738700867 -46.3250350952 32.2835044861
-18.6374053955 -46.2358665466 32.0707588196
-18.5900936127 -46.1193046570 31.8520526886
-18.5339546204 -45.9804382324 31.6284198761
-18.4731769562 -45.8298568726 31.4020862579
-18.4122085571 -45.6787986755 31.1754455566
-18.3582248688 -45.5453910828 30.9524021149
-18.3231887817 -45.4598541260 30.7395267487
-18.3172740936 -45.4478836060 30.5424842834
-18.3386974335 -45.5049781799 30.3604393005
-18.3739051819 -45.5968933105 30.1860561371
-18.4092483521 -45.6891555786 30.0118560791
-18.4404277802 -45.7708892822 29.8354587555
-18.4711475372 -45.8514671326 29.6589012146
-18.5057888031 -45.9419479370 29.4846248627
-18.5441112518 -46.0417213440 29.3125152588
-18.5812511444 -46.1385116577 29.1398620605
-18.6113853455 -46.2176017761 28.9633827209
-18.6313705444 -46.2710533142 28.7812690735
-18.6415958405 -46.2998504639 28.5936927795
-18.6442413330 -46.3094978333 28.4018421173
-18.6411647797 -46.3046913147 28.2067356110
-18.6330604553 -46.2871894836 28.0087471008
-18.6198463440 -46.2567787170 27.8077983856
-18.6010055542 -46.2121543884 27.6035690308
-18.5753555298 -46.1503372192 27.3953552246
-18.5412120819 -46.0670661926 27.1821460724
-18.4976387024 -45.9599761963 26.9633579254
-18.4450874329 -45.8302154541 26.7392101288
-18.3837432861 -45.6782455444 26.5097637177
-18.3120250702 -45.5000801086 26.2740516663
-18.2292900085 -45.2940902710 26.0316486359
-18.1410293579 -45.0741500854 25.7857265472
-18.0600109100 -44.8725051880 25.5437698364
-18.0009098053 -44.7262191772 25.3144855499
-17.9739818573 -44.6611938477 25.1040477753
-17.9832439423 -44.6875686646 24.9150047302
-18.0273170471 -44.8018646240 24.7467117310
-18.0987892151 -44.9853553772 24.5949153900
-18.1839752197 -45.2034759521 24.4515552521
-18.2673377991 -45.4169845581 24.3073749542
-18.3384761810 -45.5996246338 24.1561050415
-18.3950843811 -45.7455635071 23.9962902069
-18.4400291443 -45.8620376587 23.8295955658
-18.4768180847 -45.9579200745 23.6580944061
-18.5072212219 -46.0376739502 23.4828224182
-18.5312709808 -46.1013793945 23.3037681580
-18.5483570099 -46.1474990845 23.1205253601
-18.5583190918 -46.1756286621 22.9329624176
-18.5619277954 -46.1877136230 22.7415199280
-18.5605983734 -46.1873321533 22.5470371246
-18.5555095673 -46.1774482727 22.3502197266
-18.5463714600 -46.1573486328 22.1508693695
-18.5300483704 -46.1191024780 21.9470176697
-18.5000534058 -46.0463333130 21.7345829010
-18.4491939545 -45.9208793640 21.5090084076
-18.3758163452 -45.7385711670 21.2691535950
-18.2886066437 -45.5213394165 21.0203628540
-18.2031021118 -45.3084182739 20.7723522186
-18.1314544678 -45.1304855347 20.5328063965
-18.0759048462 -44.9932098389 20.3032112122
-18.0321998596 -44.8858375549 20.0809459686
-17.9971790314 -44.8003997803 19.8640556335
-17.9719486237 -44.7396812439 19.6532917023
-17.9594478607 -44.7111053467 19.4505805969
-17.9608802795 -44.7177085876 19.2567596436
-17.9739933014 -44.7538070679 19.0704441071
-17.9934654236 -44.8059577942 18.8882656097
-18.0130767822 -44.8584632874 18.7062358856
-18.0284824371 -44.9003448486 18.5215396881
-18.0384902954 -44.9286003113 18.3333816528
-18.0441646576 -44.9459114075 18.1424274445
-18.0471248627 -44.9563713074 17.9497165680
-18.0484504700 -44.9627075195 17.7559375763
-18.0483741760 -44.9654998779 17.5612392426
-18.0462551117 -44.9631385803 17.3651905060
-18.0405540466 -44.9517326355 17.1667652130
-18.0286388397 -44.9246406555 16.9642105103
-18.0069561005 -44.8728904724 16.7551364899
-17.9726619720 -44.7892990112 16.5376091003
-17.9267177582 -44.6763038635 16.3122062683
-17.8752803802 -44.5494422913 16.0829792023
-17.8260822296 -44.4282379150 15.8550758362
-17.7822055817 -44.3204650879 15.6305742264
-17.7399978638 -44.2169189453 15.4070463181
-17.6938896179 -44.1035194397 15.1807432175
-17.6429882050 -43.9780235291 14.9510431290
-17.5927314758 -43.8541564941 14.7216081619
-17.5505752563 -43.7507400513 14.4975004196
-17.5209064484 -43.6788520813 14.2817497253
-17.5040397644 -43.6392784119 14.0746297836
-17.4987602234 -43.6289520264 13.8753738403
-17.5047817230 -43.6471557617 13.6838407516
-17.5227718353 -43.6955642700 13.5005474091
-17.5524978638 -43.7736015320 13.3253917694
-17.5911331177 -43.8741226196 13.1564788818
-17.6335201263 -43.9841117859 12.9902839661
-17.6744556427 -44.0904350281 12.8232145309
-17.7111358643 -44.1860122681 12.6533136368
-17.7438335419 -44.2715377808 12.4807519913
-17.7744216919 -44.3517417908 12.3068180084
-17.8041191101 -44.4296951294 12.1323547363
-17.8321666718 -44.5034790039 11.9568233490
-17.8562278748 -44.5672035217 11.7785749435
-17.8741683960 -44.6154747009 11.5960807800
-17.8857135773 -44.6476135254 11.4091205597
-17.8925704956 -44.6679115295 11.2188682556
-17.8969802856 -44.6820297241 11.0268945694
-17.8998966217 -44.6923904419 10.8338680267
-17.9000129700 -44.6956748962 10.6388454437
-17.8944416046 -44.6846046448 10.4397497177
-17.8809642792 -44.6535911560 10.2349643707
-17.8597965240 -44.6031608582 10.0246028900
-17.8325443268 -44.5373802185 9.8097839355
-17.7995357513 -44.4570770264 9.5907163620
-17.7596492767 -44.3594169617 9.3665590286
-17.7142734528 -44.2479095459 9.1382846832
-17.6713104248 -44.1424865723 8.9116077423
-17.6441249847 -44.0768814087 8.6962747574
-17.6455211639 -44.0834083557 8.5017080307
-17.6813621521 -44.1768531799 8.3323383331
-17.7478885651 -44.3477287292 8.1855783463
-17.8343677521 -44.5689506531 8.0536937714
-17.9295921326 -44.8122406006 7.9285283089
-18.0266857147 -45.0602340698 7.8050479889
-18.1218376160 -45.3033294678 7.6804456711
-18.2102966309 -45.5295295715 7.5511870384
-18.2864284515 -45.7246246338 7.4130539894
-18.3481674194 -45.8833923340 7.2644462585
-18.3992156982 -46.0151824951 7.1080555916
-18.4456081390 -46.1352272034 6.9483451843
-18.4906482697 -46.2518539429 6.7877674103
-18.5331993103 -46.3621978760 6.6254615784
-18.5695114136 -46.4567985535 6.4585919380
-18.5958747864 -46.5262985229 6.2843294144
-18.6105880737 -46.5663986206 6.1013369560
-18.6148452759 -46.5801200867 5.9104633331
-18.6119537354 -46.5758018494 5.7141680717
-18.6052589417 -46.5618896484 5.5149621964
-18.5964164734 -46.5425605774 5.3140902519
-18.5849361420 -46.5165748596 5.1111660004
-18.5685291290 -46.4781608582 4.9044246674
-18.5440464020 -46.4193725586 4.6914229393
-18.5095291138 -46.3352661133 4.4706144333
-18.4669113159 -46.2307319641 4.2434420586
-18.4227809906 -46.1223793030 4.0149536133
-18.3853950500 -46.0310478210 3.7915368080
-18.3604297638 -45.9710464478 3.5776274204
-18.3496932983 -45.9469528198 3.3746962547
-18.3533000946 -45.9590339661 3.1828982830
-18.3714733124 -46.0078659058 3.0024805069
-18.4033622742 -46.0912971497 2.8328502178
-18.4446563721 -46.1984558105 2.6706945896
-18.4878654480 -46.3104438782 2.5101726055
-18.5259742737 -46.4095573425 2.3457696438
-18.5557823181 -46.4877357483 2.1749367714
-18.5777206421 -46.5460586548 1.9979730844
-18.5932083130 -46.5881080627 1.8159639835
-18.6026287079 -46.6148529053 1.6291825771
-18.6050796509 -46.6240119934 1.4368795156
-18.5991611481 -46.6120643616 1.2379071712
-18.5838871002 -46.5765190125 1.0314340591
-18.5587005615 -46.5159683228 0.8169673681
-18.5223865509 -46.4273529053 0.5934869051
-18.4727935791 -46.3052444458 0.3592046499
-18.4093875885 -46.1482963562 0.1136264354
-29.6037120819 9.9704704285 91.0581893921
-29.6360511780 9.9827995300 90.8580856323
-29.6932716370 10.0046396255 90.6587600708
-29.7698554993 10.0338811874 90.4600906372
-29.8571319580 10.0672101974 90.2618484497
-29.9462375641 10.1012372971 90.0637664795
-30.0335426331 10.1345767975 89.8657379150
-30.1217441559 10.1682586670 89.6678466797
-30.2133827209 10.2032546997 89.4701843262
-30.3040084839 10.2378625870 89.2725982666
-30.3833389282 10.2681541443 89.0747222900
-30.4426136017 10.2907800674 88.8762359619
-30.4794635773 10.3048334122 88.6769943237
-30.4964656830 10.3113002777 88.4770584106
-30.4967498779 10.3113775253 88.2765121460
-30.4804039001 10.3050985336 88.0753097534
-30.4429397583 10.2907466888 87.8732528687
-30.3773403168 10.2656412125 87.6700210571
-30.2810592651 10.2288084030 87.4654541016
-30.1636199951 10.1838865280 87.2598800659
-30.0459442139 10.1388759613 87.0541305542
-29.9497375488 10.1020708084 86.8491210938
-29.8883514404 10.0785760880 86.6454849243
-29.8702087402 10.0716094971 86.4436416626
-29.9120292664 10.0875625610 86.2444305420
-30.0458374023 10.1386775970 86.0494155884
-30.3026866913 10.2368230820 85.8602066040
-30.6762294769 10.3795719147 85.6767425537
-31.1019554138 10.5422687531 85.4962234497
-31.4857273102 10.6889276505 85.3142623901
-31.7606620789 10.7939863205 85.1275329590
-31.9172611237 10.8538122177 84.9353561401
-31.9883289337 10.8809461594 84.7391204834
-32.0168838501 10.8918294907 84.5408248901
-32.0349082947 10.8986873627 84.3420257568
-32.0586547852 10.9077329636 84.1435394287
-32.0935249329 10.9210309982 83.9456558228
-32.1389083862 10.9383459091 83.7483673096
-32.1879043579 10.9570436478 83.5513229370
-32.2260169983 10.9715795517 83.3537445068
-32.2367439270 10.9756479263 83.1547012329
-32.2126007080 10.9663887024 82.9537200928
-32.1599922180 10.9462490082 82.7510833740
-32.0906944275 10.9197292328 82.5474243164
-32.0086212158 10.8883266449 82.3429260254
-31.9082603455 10.8499336243 82.1372375488
-31.7879524231 10.8039159775 81.9302215576
-31.6631507874 10.7561807632 81.7227783203
-31.5646877289 10.7185134888 81.5167465210
-31.5271434784 10.7041311264 81.3142929077
-31.5812568665 10.7247838974 81.1174468994
-31.7489967346 10.7888689041 80.9277648926
-32.0307998657 10.8965539932 80.7454910278
-32.3938369751 11.0352888107 80.5687637329
-32.7821998596 11.1837043762 80.3941421509
-33.1454086304 11.3225049973 80.2183990479
-33.4566078186 11.4414253235 80.0397033691
-33.7067222595 11.5369987488 79.8573608398
-33.8900833130 11.6070547104 79.6708679199
-34.0005187988 11.6492357254 79.4796600342
-34.0383834839 11.6636772156 79.2836303711
-34.0165405273 11.6552982330 79.0835113525
-33.9571113586 11.6325502396 78.8807296753
-33.8809890747 11.6034231186 78.6766891479
-33.7997093201 11.5723237991 78.4721679688
-33.7176818848 11.5409383774 78.2674789429
-33.6403007507 11.5113277435 78.0630111694
-33.5764236450 11.4868812561 77.8594131470
-33.5329742432 11.4702415466 77.6572265625
-33.5104942322 11.4616174698 77.4565429688
-33.5060729980 11.4598960876 77.2571716309
-33.5208396912 11.4655103683 77.0592422485
-33.5669364929 11.4830980301 76.8637161255
-33.6682014465 11.5217742920 76.6725006104
-33.8472595215 11.5901861191 76.4874649048
-34.1010093689 11.6871480942 76.3085174561
-34.3877830505 11.7967338562 76.1325149536
-34.6491317749 11.8966016769 75.9548568726
-34.8505821228 11.9735717773 75.7727279663
-34.9993209839 12.0303945541 75.5865707397
-35.1247520447 12.0783081055 75.3987045288
-35.2483406067 12.1255178452 75.2108459473
-35.3702049255 12.1720695496 75.0229949951
-35.4744148254 12.2118711472 74.8338241577
-35.5402717590 12.2370138168 74.6415405273
-35.5508842468 12.2410392761 74.4446334839
-35.4989356995 12.2211513519 74.2423629761
-35.3915367126 12.1800680161 74.0352172852
-35.2497787476 12.1258516312 73.8249206543
-35.0974960327 12.0676107407 73.6135101318
-34.9482231140 12.0105218887 73.4021453857
-34.8062591553 11.9562263489 73.1912307739
-34.6791381836 11.9076042175 72.9814453125
-34.5828742981 11.8707771301 72.7742767334
-34.5351028442 11.8524856567 72.5713882446
-34.5494003296 11.8579187393 72.3741302490
-34.6367416382 11.8912734985 72.1836471558
-34.8056221008 11.9557962418 72.0008621216
-35.0551261902 12.0511350632 71.8258590698
-35.3658905029 12.1698923111 71.6569747925
-35.6974716187 12.2966051102 71.4904785156
-35.9993934631 12.4119825363 71.3215789795
-36.2346305847 12.5018692017 71.1466293335
-36.3989868164 12.5646610260 70.9651031494
-36.5187263489 12.6104001999 70.7794189453
-36.6282730103 12.6522426605 70.5928878784
-36.7459487915 12.6971921921 70.4072952271
-36.8650741577 12.7426958084 70.2219924927
-36.9647521973 12.7807674408 70.0348968506
-37.0279235840 12.8048830032 69.8442230225
-37.0487403870 12.8128089905 69.6493072510
-37.0266151428 12.8043203354 69.4500122070
-36.9613990784 12.7793617249 69.2462310791
-36.8590583801 12.7402114868 69.0384979248
-36.7382240295 12.6939916611 68.8286895752
-36.6237945557 12.6502208710 68.6193771362
-36.5319786072 12.6150951385 68.4123001099
-36.4657058716 12.5897312164 68.2078170776
-36.4267501831 12.5748090744 68.0061569214
-36.4295768738 12.5758590698 67.8089523315
-36.5006256104 12.6029863358 67.6191482544
-36.6631622314 12.6650838852 67.4394226074
-36.9198455811 12.7631683350 67.2702560425
-37.2446403503 12.8872890472 67.1089553833
-37.5901412964 13.0193233490 66.9503860474
-37.9067306519 13.1403083801 66.7890396118
-38.1606330872 13.2373304367 66.6210403442
-38.3408584595 13.3061895370 66.4450378418
-38.4557189941 13.3500642776 66.2618179321
-38.5236091614 13.3759832382 66.0733566284
-38.5628242493 13.3909425735 65.8816757202
-38.5855560303 13.3996019363 65.6881256104
-38.5977516174 13.4042320251 65.4933700562
-38.6019210815 13.4057960510 65.2976837158
-38.5990791321 13.4046783447 65.1011581421
-38.5884208679 13.4005737305 64.9037017822
-38.5663452148 13.3921041489 64.7048568726
-38.5275688171 13.3772506714 64.5039749146
-38.4693107605 13.3549509048 64.3006820679
-38.3948211670 13.3264474869 64.0953292847
-38.3126411438 13.2950038910 63.8889312744
-38.2344856262 13.2650976181 63.6829071045
-38.1762542725 13.2428092957 63.4792289734
-38.1604309082 13.2367296219 63.2807197571
-38.2133407593 13.2569227219 63.0907478333
-38.3525733948 13.3101129532 62.9116592407
-38.5681266785 13.3924779892 62.7423629761
-38.8151664734 13.4868774414 62.5773353577
-39.0352363586 13.5709667206 62.4091987610
-39.1924819946 13.6310434341 62.2333030701
-39.2910537720 13.6686906815 62.0500640869
-39.3622436523 13.6958732605 61.8634033203
-39.4400405884 13.7255802155 61.6776885986
-39.5428810120 13.7648601532 61.4953460693
-39.6661262512 13.8119401932 61.3158111572
-39.7863006592 13.8578453064 61.1360244751
-39.8746795654 13.8915977478 60.9521751404
-39.9104499817 13.9052400589 60.7614173889
-39.8862609863 13.8959636688 60.5626640320
-39.8096046448 13.8666305542 60.3568000793
-39.7018966675 13.8254280090 60.1466217041
-39.5901374817 13.7826776505 59.9357414246
-39.4916915894 13.7450160980 59.7265205383
-39.4049606323 13.7118330002 59.5187683105
-39.3159713745 13.6777868271 59.3105773926
-39.2155227661 13.6393585205 59.1006736755
-39.1120643616 13.5997810364 58.8902015686
-39.0309448242 13.5687417984 58.6827163696
-39.0043525696 13.5585479736 58.4827842712
-39.0624046326 13.5807075500 58.2947807312
-39.2251205444 13.6428747177 58.1217193604
-39.4887046814 13.7435979843 57.9632644653
-39.8140068054 13.8679141998 57.8140068054
-40.1372375488 13.9914388657 57.6648826599
-40.4025840759 14.0928373337 57.5078010559
-40.5877227783 14.1635761261 57.3394012451
-40.7013969421 14.2069969177 57.1607971191
-40.7644996643 14.2310876846 56.9749183655
-40.7953872681 14.2428636551 56.7843627930
-40.8047637939 14.2464179993 56.5906562805
-40.7950096130 14.2426576614 56.3941040039
-40.7612533569 14.2297248840 56.1939430237
-40.6963615417 14.2048883438 55.9890556335
-40.6002235413 14.1681098938 55.7793579102
-40.4863853455 14.1245641708 55.5668411255
-40.3769607544 14.0827054977 55.3548355103
-40.2881088257 14.0487117767 55.1458168030
-40.2200088501 14.0226497650 54.9398574829
-40.1602249146 13.9997663498 54.7350807190
-40.0957489014 13.9750890732 54.5294876099
-40.0240020752 13.9476327896 54.3226661682
-39.9566535950 13.9218587875 54.1164321899
-39.9151268005 13.9059534073 53.9141464233
-39.9215698242 13.9083862305 53.7193527222
-39.9912757874 13.9350013733 53.5345687866
-40.1299057007 13.9879617691 53.3608169556
-40.3334693909 14.0657444000 53.1976051331
-40.5868644714 14.1625747681 53.0426445007
-40.8604087830 14.2671060562 52.8912544250
-41.1111869812 14.3629360199 52.7365455627
-41.2969093323 14.4338979721 52.5716133118
-41.3964118958 14.4719028473 52.3928756714
-41.4190254211 14.4805173874 52.2016830444
-41.3942947388 14.4710330963 52.0027389526
-41.3515701294 14.4546709061 51.8007850647
-41.3052978516 14.4369525909 51.5981750488
-41.2548866272 14.4176521301 51.3948097229
-41.1956710815 14.3949861526 51.1898956299
-41.1282844543 14.3691968918 50.9835243225
-41.0569000244 14.3418788910 50.7763824463
-40.9802856445 14.3125629425 50.5682525635
-40.8889045715 14.2776012421 50.3575057983
-40.7739028931 14.2336101532 50.1426010132
-40.6394462585 14.1821832657 49.9242134094
-40.5048446655 14.1307001114 49.7056083679
-40.3937377930 14.0881986618 49.4908599854
-40.3217201233 14.0606384277 49.2827186584
-40.2934913635 14.0498170853 49.0820770264
-40.3077888489 14.0552520752 48.8888015747
-40.3620071411 14.0759468079 48.7025222778
-40.4543571472 14.1112174988 48.5230102539
-40.5902175903 14.1631193161 48.3512802124
-40.7897071838 14.2393455505 48.1909942627
-41.0739097595 14.3479528427 48.0460205078
-41.4171981812 14.4791460037 47.9119567871
-41.7113609314 14.5915603638 47.7695541382
-41.8116531372 14.6298675537 47.5926933289
-41.6500778198 14.5680732727 47.3687248230
-41.3015136719 14.4348020554 47.1106719971
-40.9267501831 14.2915163040 46.8473815918
-40.6550941467 14.1876440048 46.6023826599
-40.5248336792 14.1378202438 46.3829002380
-40.5110321045 14.1325130463 46.1846313477
-40.5751113892 14.1569776535 46.0006980896
-40.6817436218 14.1977071762 45.8247184753
-40.7918167114 14.2397527695 45.6495170593
-40.8637428284 14.2672176361 45.4673385620
-40.8716545105 14.2702102661 45.2732734680
-40.8227958679 14.2515039444 45.0685462952
-40.7567405701 14.2262220383 44.8605079651
-40.7234535217 14.2134666443 44.6585655212
-40.7544136047 14.2252712250 44.4687652588
-40.8478889465 14.2609720230 44.2909088135
-40.9790191650 14.3110675812 44.1203651428
-41.1231994629 14.3661499023 43.9524955750
-41.2714614868 14.4227943420 43.7855949402
-41.4281311035 14.4826517105 43.6205101013
-41.5969505310 14.5471534729 43.4579811096
-41.7673072815 14.6122436523 43.2959747314
-41.9123344421 14.6676511765 43.1292419434
-42.0046882629 14.7029237747 42.9523773193
-42.0368881226 14.7152013779 42.7638092041
-42.0244598389 14.7104196548 42.5664710999
-41.9904632568 14.6973943710 42.3648414612
-41.9506492615 14.6821441650 42.1620025635
-41.9111518860 14.6670160294 41.9591636658
-41.8728599548 14.6523475647 41.7565040588
-41.8336296082 14.6373195648 41.5535964966
-41.7879600525 14.6198320389 41.3493309021
-41.7282981873 14.5969953537 41.1421699524
-41.6486968994 14.5665359497 40.9308815002
-41.5479927063 14.5280113220 40.7151870728
-41.4311332703 14.4833087921 40.4960517883
-41.3112525940 14.4374523163 40.2761344910
-41.2116470337 14.3993482590 40.0602111816
-41.1607131958 14.3798465729 39.8541641235
-41.1804885864 14.3873758316 39.6626548767
-41.2801094055 14.4254245758 39.4877204895
-41.4566497803 14.4928798676 39.3289070129
-41.6927871704 14.5831146240 39.1827583313
-41.9514122009 14.6819467545 39.0416297913
-42.1838264465 14.7707576752 38.8953361511
-42.3536796570 14.8356561661 38.7361679077
-42.4536514282 14.8738412857 38.5624465942
-42.4986801147 14.8910226822 38.3772010803
-42.5068321228 14.8941087723 38.1841659546
-42.4865303040 14.8863172531 37.9850578308
-42.4367179871 14.8672466278 37.7796020508
-42.3561553955 14.8364191055 37.5674629211
-42.2532424927 14.7970495224 37.3503952026
-42.1468429565 14.7563457489 37.1324234009
-42.0556526184 14.7214574814 36.9175987244
-41.9861106873 14.6948423386 36.7073478699
-41.9302368164 14.6734542847 36.4999771118
-41.8745651245 14.6521415710 36.2925643921
-41.8117790222 14.6281108856 36.0835113525
-41.7461395264 14.6029882431 35.8737335205
-41.6892967224 14.5812292099 35.6658020020
-41.6514625549 14.5667352676 35.4619941711
-41.6367912292 14.5610971451 35.2632751465
-41.6459960938 14.5645856857 35.0698432922
-41.6815757751 14.5781545639 34.8823127747
-41.7485694885 14.6037340164 34.7018661499
-41.8471870422 14.6414003372 34.5286102295
-41.9631080627 14.6856822968 34.3593826294
-42.0699501038 14.7264938354 34.1882476807
-42.1479873657 14.7562932968 34.0107116699
-42.2005538940 14.7763576508 33.8274803162
-42.2501411438 14.7952823639 33.6436271667
-42.3210792542 14.8223686218 33.4647216797
-42.4243125916 14.8618001938 33.2933197021
-42.5490646362 14.9094581604 33.1270027161
-42.6652450562 14.9538393021 32.9588623047
-42.7413024902 14.9828824997 32.7815818787
-42.7652587891 14.9920101166 32.5922927856
-42.7472839355 14.9851074219 32.3932571411
-42.7020950317 14.9678030014 32.1878318787
-42.6325569153 14.9411907196 31.9766330719
-42.5306053162 14.9021873474 31.7577133179
-42.3914413452 14.8489599228 31.5298805237
-42.2249374390 14.7852802277 31.2953891754
-42.0532646179 14.7196254730 31.0594387054
-41.8994865417 14.6608114243 30.8275012970
-41.7800636292 14.6151285172 30.6035366058
-41.7052383423 14.5864944458 30.3900623322
-41.6797256470 14.5767116547 30.1882991791
-41.6998863220 14.5843877792 29.9974708557
-41.7539901733 14.6050395966 29.8148441315
-41.8314476013 14.6346178055 29.6379261017
-41.9334869385 14.6735935211 29.4670658112
-42.0701980591 14.7258224487 29.3047599792
-42.2419013977 14.7914285660 29.1511611938
-42.4249114990 14.8613567352 29.0005493164
-42.5817298889 14.9212713242 28.8437557220
-42.6865806580 14.9613218307 28.6743927002
-42.7381591797 14.9810094833 28.4920349121
-42.7493438721 14.9852533340 28.2997531891
-42.7304611206 14.9780044556 28.1000289917
-42.6843070984 14.9603309631 27.8934936523
-42.6138381958 14.9333629608 27.6808280945
-42.5297470093 14.9011869431 27.4646568298
-42.4470520020 14.8695440292 27.2487125397
-42.3747825623 14.8418884277 27.0352668762
-42.3115158081 14.8176717758 26.8239803314
-42.2508773804 14.7944612503 26.6132659912
-42.1900024414 14.7711601257 26.4024009705
-42.1343917847 14.7498712540 26.1927795410
-42.0965499878 14.7353744507 25.9876003265
-42.0877799988 14.7319917679 25.7897796631
-42.1093254089 14.7401971817 25.5996990204
-42.1529998779 14.7568626404 25.4153156281
-42.2114753723 14.7791843414 25.2347908020
-42.2855873108 14.8074855804 25.0583705902
-42.3791847229 14.8432321548 24.8870811462
-42.4857444763 14.8839378357 24.7192707062
-42.5819740295 14.9206914902 24.5489101410
-42.6397094727 14.9427309036 24.3686389923
-42.6481132507 14.9459133148 24.1755428314
-42.6227989197 14.9362068176 23.9736175537
-42.5909614563 14.9240055084 23.7699356079
-42.5688438416 14.9155197144 23.5687599182
-42.5544090271 14.9099702835 23.3695755005
-42.5372467041 14.9033794403 23.1696414948
-42.5097961426 14.8928556442 22.9669437408
-42.4689865112 14.8772249222 22.7606468201
-42.4121589661 14.8554706573 22.5500144958
-42.3359527588 14.8263082504 22.3341121674
-42.2409095764 14.7899456024 22.1130504608
-42.1373291016 14.7503194809 21.8895549774
-42.0450820923 14.7150259018 21.6689662933
-41.9844627380 14.6918220520 21.4567871094
-41.9649162292 14.6843185425 21.2556381226
-41.9823303223 14.6909456253 21.0644893646
-42.0266532898 14.7078580856 20.8806800842
-42.0905838013 14.7322654724 20.7022705078
-42.1714591980 14.7631511688 20.5285720825
-42.2695808411 14.8006296158 20.3597049713
-42.3883819580 14.8460140228 20.1966476440
-42.5309791565 14.9004926682 20.0402965546
-42.6860237122 14.9597320557 19.8875694275
-42.8164672852 15.0095653534 19.7282314301
-42.8748893738 15.0318679810 19.5490703583
-42.8403816223 15.0186462402 19.3441238403
-42.7388305664 14.9797954559 19.1204204559
-42.6230773926 14.9355163574 18.8925991058
-42.5346984863 14.9017000198 18.6722869873
-42.4846763611 14.8825473785 18.4626216888
-42.4615287781 14.8736677170 18.2604484558
-42.4474754333 14.8682651520 18.0608043671
-42.4260749817 14.8600530624 17.8590526581
-42.3825950623 14.8434019089 17.6510009766
-42.3063468933 14.8142232895 17.4335613251
-42.1981964111 14.7728500366 17.2069206238
-42.0751686096 14.7257890701 16.9758720398
-41.9630661011 14.6829051971 16.7477798462
-41.8814773560 14.6516847610 16.5282821655
-41.8357849121 14.6341876984 16.3189964294
-41.8221397400 14.6289396286 16.1188831329
-41.8374176025 14.6347494125 15.9271030426
-41.8842010498 14.6526021957 15.7444629669
-41.9664573669 14.6840171814 15.5721826553
-42.0790710449 14.7270355225 15.4088420868
-42.2019729614 14.7739868164 15.2486467361
-42.3084259033 14.8146505356 15.0837993622
-42.3813095093 14.8424816132 14.9092464447
-42.4206314087 14.8574819565 14.7249221802
-42.4368972778 14.8636684418 14.5338516235
-42.4402503967 14.8649196625 14.3389835358
-42.4347572327 14.8627901077 14.1414947510
-42.4177627563 14.8562622070 13.9405794144
-42.3816299438 14.8424196243 13.7339439392
-42.3186378479 14.8183088303 13.5192499161
-42.2291107178 14.7840538025 13.2965383530
-42.1261444092 14.7446603775 13.0696744919
-42.0296783447 14.7077541351 12.8446140289
-41.9542312622 14.6788806915 12.6257305145
-41.9028129578 14.6591949463 12.4139776230
-41.8713073730 14.6471204758 12.2081575394
-41.8555526733 14.6410665512 12.0070543289
-41.8544502258 14.6406145096 11.8103647232
-41.8695831299 14.6463689804 11.6186008453
-41.9048042297 14.6598033905 11.4329690933
-41.9659156799 14.6831340790 11.2552824020
-42.0569763184 14.7179126740 11.0868349075
-42.1727333069 14.7621335983 10.9260768890
-42.2949829102 14.8088350296 10.7674636841
-42.4010467529 14.8493499756 10.6040201187
-42.4782867432 14.8788461685 10.4318141937
-42.5295143127 14.8983983994 10.2516536713
-42.5653495789 14.9120664597 10.0667819977
-42.5939292908 14.9229612350 9.8796968460
-42.6169090271 14.9317159653 9.6908969879
-42.6313743591 14.9372148514 9.4994611740
-42.6330642700 14.9378299713 9.3040399551
-42.6177558899 14.9319458008 9.1032829285
-42.5807609558 14.9177732468 8.8956842422
-42.5174179077 14.8935279846 8.6797313690
-42.4274024963 14.8590869904 8.4552669525
-42.3200378418 14.8180131912 8.2251873016
-42.2132606506 14.7771644592 7.9951381683
-42.1244049072 14.7431650162 7.7706260681
-42.0612525940 14.7189931870 7.5541663170
-42.0217208862 14.7038497925 7.3451442719
-42.0000419617 14.6955327988 7.1417670250
-41.9920730591 14.6924552917 6.9427413940
-41.9962806702 14.6940326691 6.7476048470
-42.0125808716 14.7002334595 6.5563554764
-42.0417709351 14.7113609314 6.3692731857
-42.0865936279 14.7284650803 6.1872715950
-42.1525878906 14.7536630630 6.0121760368
-42.2446937561 14.7888412476 5.8456287384
-42.3591957092 14.8325815201 5.6864786148
-42.4791870117 14.8784217834 5.5292639732
-42.5820121765 14.9176979065 5.3665995598
-42.6534767151 14.9449872971 5.1938099861
-42.6938896179 14.9604053497 5.0109310150
-42.7107086182 14.9668045044 4.8203501701
-42.7069816589 14.9653491974 4.6230211258
-42.6763153076 14.9535951614 4.4167938232
-42.6082611084 14.9275484085 4.1981611252
-42.5002479553 14.8862266541 3.9661946297
-42.3646926880 14.8343763351 3.7249343395
-42.2219848633 14.7797908783 3.4811019897
-42.0860862732 14.7278089523 3.2393362522
-41.9598083496 14.6795034409 3.0005886555
-41.8433189392 14.6349411011 2.7649359703
-41.7429275513 14.5965328217 2.5345129967
-41.6697540283 14.5685291290 2.3130877018
-41.6313667297 14.5538234711 2.1032617092
-41.6264801025 14.5519247055 1.9046744108
-41.6493225098 14.5606269836 1.7154428959
-41.6982688904 14.5793066025 1.5350719690
-41.7756118774 14.6088428497 1.3643950224
-41.8765716553 14.6474075317 1.2018436193
-41.9832153320 14.6881437302 1.0413560867
-42.0739097595 14.7227830887 0.8755614758
-42.1376724243 14.7471284866 0.7006709576
-42.1777763367 14.7624273300 0.5177492499
-42.2048568726 14.7727499008 0.3304024041
-42.2303619385 14.7824687958 0.1425414383
-19.4304256439 -15.2055368423 90.7928771973
-19.4993209839 -15.2641706467 90.5881805420
-19.6318492889 -15.3755674362 90.3847808838
-19.8055686951 -15.5211172104 90.1823806763
-19.9909744263 -15.6763534546 89.9804840088
-20.1622524261 -15.8198766708 89.7785720825
-20.3041954041 -15.9390726089 89.5762634277
-20.4112796783 -16.0293636322 89.3733749390
-20.4840202332 -16.0911788940 89.1698455811
-20.5268344879 -16.1281776428 88.9656829834
-20.5466518402 -16.1461105347 88.7610092163
-20.5510158539 -16.1512298584 88.5559539795
-20.5464229584 -16.1489238739 88.3506622314
-20.5377635956 -16.1432456970 88.1452484131
-20.5284576416 -16.1370296478 87.9397888184
-20.5205612183 -16.1319847107 87.7343444824
-20.5143337250 -16.1283226013 87.5289306641
-20.5072154999 -16.1239223480 87.3234710693
-20.4924964905 -16.1132202148 87.1177597046
-20.4600315094 -16.0878067017 86.9114379883
-20.4029884338 -16.0420150757 86.7042617798
-20.3305664063 -15.9834737778 86.4964675903
-20.2752971649 -15.9391555786 86.2891464233
-20.2800731659 -15.9446182251 86.0838317871
-20.3688354492 -16.0197105408 85.8815307617
-20.5280342102 -16.1531982422 85.6819381714
-20.7183952332 -16.3125190735 85.4837570190
-20.9033946991 -16.4673919678 85.2856445313
-21.0658721924 -16.6035900116 85.0869445801
-21.2038516998 -16.7194786072 84.8875045776
-21.3188438416 -16.8163089752 84.6873397827
-21.4101333618 -16.8934879303 84.4863739014
-21.4767475128 -16.9502086639 84.2844924927
-21.5215015411 -16.9888057709 84.0817718506
-21.5516548157 -17.0153007507 83.8784790039
-21.5753288269 -17.0364246368 83.6749343872
-21.5971813202 -17.0560359955 83.4713363647
-21.6181163788 -17.0748882294 83.2677230835
-21.6391296387 -17.0938053131 83.0641326904
-21.6626091003 -17.1147632599 82.8606872559
-21.6863002777 -17.1359004974 82.6572799683
-21.6983299255 -17.1473674774 82.4533233643
-21.6850242615 -17.1378345490 82.2481155396
-21.6454544067 -17.1065311432 82.0415573120
-21.5939483643 -17.0653305054 81.8343124390
-21.5476493835 -17.0284500122 81.6272506714
-21.5153675079 -17.0031890869 81.4208450317
-21.4983119965 -16.9905471802 81.2152023315
-21.4971599579 -16.9910907745 81.0103912354
-21.5164909363 -17.0086135864 80.8067016602
-21.5631885529 -17.0488185883 80.6045684814
-21.6400852203 -17.1140575409 80.4042053223
-21.7400913239 -17.1984500885 80.2052917480
-21.8481349945 -17.2895030975 80.0069885254
-21.9512577057 -17.3764762878 79.8085479736
-22.0464057922 -17.4568386078 79.6097869873
-22.1371326447 -17.5335350037 79.4108963013
-22.2243270874 -17.6073036194 79.2119216919
-22.3029003143 -17.6739253998 79.0125350952
-22.3669967651 -17.7285461426 78.8123550415
-22.4153194427 -17.7700920105 78.6112518311
-22.4505214691 -17.8007621765 78.4093704224
-22.4756488800 -17.8230819702 78.2068786621
-22.4924640656 -17.8385124207 78.0038681030
-22.5018348694 -17.8477725983 77.8003845215
-22.5042819977 -17.8512954712 77.5964279175
-22.5003738403 -17.8495502472 77.3920364380
-22.4912815094 -17.8435077667 77.1872711182
-22.4791698456 -17.8349628448 76.9822692871
-22.4670410156 -17.8264045715 76.7772445679
-22.4583683014 -17.8207092285 76.5724334717
-22.4570446014 -17.8211059570 76.3681335449
-22.4675846100 -17.8313369751 76.1646881104
-22.4945487976 -17.8551769257 75.9624710083
-22.5405044556 -17.8947582245 75.7616958618
-22.6042785645 -17.9491062164 75.5623245239
-22.6821613312 -18.0151443481 75.3641281128
-22.7708663940 -18.0901546478 75.1668701172
-22.8677482605 -18.1719379425 74.9703750610
-22.9677677155 -18.2563209534 74.7742691040
-23.0624313354 -18.3362636566 74.5778884888
-23.1431846619 -18.4046783447 74.3805236816
-23.2053794861 -18.4577102661 74.1817855835
-23.2490291595 -18.4953746796 73.9816207886
-23.2772235870 -18.5202293396 73.7802352905
-23.2942905426 -18.5358638763 73.5779647827
-23.3044509888 -18.5457744598 73.3751373291
-23.3107757568 -18.5525054932 73.1719818115
-23.3143863678 -18.5569896698 72.9686050415
-23.3146095276 -18.5586643219 72.7649307251
-23.3112316132 -18.5573558807 72.5609283447
-23.3077659607 -18.5559730530 72.3569107056
-23.3113002777 -18.5603942871 72.1534957886
-23.3271083832 -18.5749835968 71.9511795044
-23.3534641266 -18.5983142853 71.7498245239
-23.3832149506 -18.6244583130 71.5488128662
-23.4104270935 -18.6484966278 71.3476028442
-23.4350204468 -18.6703662872 71.1461868286
-23.4625492096 -18.6946678162 70.9450759888
-23.5016403198 -18.7285499573 70.7450866699
-23.5605678558 -18.7788677216 70.5470275879
-23.6419811249 -18.8478183746 70.3511962891
-23.7380485535 -18.9289112091 70.1568984985
-23.8319282532 -19.0081901550 69.9625320435
-23.9068508148 -19.0717582703 69.7664413452
-23.9550647736 -19.1131973267 69.5678253174
-23.9790229797 -19.1345367432 69.3668670654
-23.9861488342 -19.1419277191 69.1642456055
-23.9837265015 -19.1414089203 68.9606628418
-23.9771080017 -19.1374130249 68.7566375732
-23.9699287415 -19.1329517365 68.5525436401
-23.9645938873 -19.1300201416 68.3486175537
-23.9628124237 -19.1300315857 68.1450424194
-23.9668140411 -19.1348361969 67.9420623779
-23.9815788269 -19.1485557556 67.7402191162
-24.0164470673 -19.1789340973 67.5405273438
-24.0824832916 -19.2351360321 67.3442230225
-24.1845016479 -19.3211498260 67.1519012451
-24.3141784668 -19.4300765991 66.9627380371
-24.4528656006 -19.5464687347 66.7747573853
-24.5829238892 -19.6557083130 66.5860214233
-24.6964454651 -19.7512474060 66.3956527710
-24.7941646576 -19.8336925507 66.2036743164
-24.8788223267 -19.9053153992 66.0103759766
-24.9514980316 -19.9670085907 65.8158340454
-25.0126667023 -20.0191707611 65.6200866699
-25.0632305145 -20.0625438690 65.4232101440
-25.1033000946 -20.0972232819 65.2251815796
-25.1318321228 -20.1223449707 65.0258712769
-25.1487751007 -20.1378631592 64.8252258301
-25.1572036743 -20.1463279724 64.6235961914
-25.1629600525 -20.1525802612 64.4216613770
-25.1726512909 -20.1620903015 64.2201919556
-25.1922473907 -20.1798076630 64.0199203491
-25.2271232605 -20.2101802826 63.8215217590
-25.2824726105 -20.2575168610 63.6256675720
-25.3631896973 -20.3258666992 63.4330062866
-25.4734649658 -20.4187011719 63.2441139221
-25.6152248383 -20.5376167297 63.0592956543
-25.7845745087 -20.6793899536 62.8781433105
-25.9696998596 -20.8342266083 62.6992301941
-26.1550159454 -20.9892196655 62.5206222534
-26.3291187286 -21.1349201202 62.3408660889
-26.4886341095 -21.2685375214 62.1595001221
-26.6349143982 -21.3911876678 61.9766654968
-26.7683849335 -21.5032253265 61.7923889160
-26.8863334656 -21.6024036407 61.6062850952
-26.9848213196 -21.6854610443 61.4178009033
-27.0613822937 -21.7503547668 61.2265663147
-27.1160907745 -21.7971439362 61.0325355530
-27.1517105103 -21.8281211853 60.8360328674
-27.1738090515 -21.8479003906 60.6377601624
-27.1896228790 -21.8624725342 60.4386596680
-27.2053489685 -21.8769683838 60.2395668030
-27.2245235443 -21.8943252563 60.0409622192
-27.2500400543 -21.9169330597 59.8432464600
-27.2880535126 -21.9498901367 59.6472930908
-27.3485946655 -22.0015106201 59.4545249939
-27.4399871826 -22.0786819458 59.2661590576
-27.5612773895 -22.1806163788 59.0821304321
-27.7008838654 -22.2977218628 58.9008712769
-27.8440608978 -22.4177799225 58.7203292847
-27.9823570251 -22.5337982178 58.5393066406
-28.1164989471 -22.6463718414 58.3578910828
-28.2509574890 -22.7592067719 58.1767234802
-28.3861446381 -22.8726425171 57.9958610535
-28.5161380768 -22.9817752838 57.8144416809
-28.6334667206 -23.0804176331 57.6313552856
-28.7343730927 -23.1654567719 57.4460220337
-28.8189334869 -23.2369594574 57.2584075928
-28.8882274628 -23.2958145142 57.0686378479
-28.9431400299 -23.3427581787 56.8768119812
-28.9849300385 -23.3788318634 56.6830825806
-29.0151252747 -23.4053020477 56.4876556396
-29.0350036621 -23.4232292175 56.2906951904
-29.0460548401 -23.4338455200 56.0924034119
-29.0509910583 -23.4393959045 55.8931808472
-29.0542182922 -23.4435329437 55.6936912537
-29.0620517731 -23.4514827728 55.4949150085
-29.0829505920 -23.4702548981 55.2981834412
-29.1265335083 -23.5078105927 55.1050376892
-29.1999340057 -23.5700626373 54.9166603088
-29.3032741547 -23.6571063995 54.7331314087
-29.4282417297 -23.7620601654 54.5532035828
-29.5615940094 -23.8739585876 54.3748054504
-29.6912479401 -23.9827919006 54.1960105896
-29.8110580444 -24.0834712982 54.0158157349
-29.9216747284 -24.1765346527 53.8343086243
-30.0275897980 -24.2657051086 53.6521949768
-30.1328544617 -24.3543338776 53.4701347351
-30.2375698090 -24.4425086975 53.2881355286
-30.3363914490 -24.5258007050 53.1053199768
-30.4206809998 -24.5970573425 52.9202270508
-30.4836292267 -24.6506423950 52.7316932678
-30.5240688324 -24.6855850220 52.5394706726
-30.5460033417 -24.7052040100 52.3441772461
-30.5555343628 -24.7145538330 52.1468124390
-30.5584106445 -24.7183914185 51.9483146667
-30.5595664978 -24.7208042145 51.7495231628
-30.5642051697 -24.7261009216 51.5513229370
-30.5790500641 -24.7398490906 51.3548812866
-30.6121139526 -24.7686843872 51.1616134644
-30.6708793640 -24.8187999725 50.9728660583
-30.7609806061 -24.8948631287 50.7896842957
-30.8856945038 -24.9995861053 50.6127166748
-31.0432567596 -25.1315059662 50.4417304993
-31.2226924896 -25.2815361023 50.2748641968
-31.4054584503 -25.4343223572 50.1088600159
-31.5746307373 -25.5758495331 49.9407005310
-31.7221050262 -25.6994113922 49.7688980103
-31.8468952179 -25.8041858673 49.5932273865
-31.9497795105 -25.8908233643 49.4137725830
-32.0316658020 -25.9600734711 49.2306480408
-32.0949363708 -26.0139083862 49.0442428589
-32.1431198120 -26.0552520752 48.8551597595
-32.1787376404 -26.0861892700 48.6638259888
-32.2028579712 -26.1076087952 48.4704132080
-32.2171363831 -26.1208782196 48.2751998901
-32.2253150940 -26.1290969849 48.0788612366
-32.2319335938 -26.1360263824 47.8822326660
-32.2392005920 -26.1434898376 47.6857299805
-32.2449302673 -26.1496810913 47.4889411926
-32.2442665100 -26.1505794525 47.2909393311
-32.2357940674 -26.1450119019 47.0914382935
-32.2288093567 -26.1406784058 46.8922004700
-32.2442092896 -26.1548748016 46.6972427368
-32.3033828735 -26.2053146362 46.5107460022
-32.4117088318 -26.2964439392 46.3338508606
-32.5529823303 -26.4148521423 46.1635246277
-32.7017860413 -26.5394897461 45.9948806763
-32.8409767151 -26.6561698914 45.8245773315
-32.9678611755 -26.7626628876 45.6520614624
-33.0872116089 -26.8629112244 45.4782447815
-33.2012062073 -26.9587268829 45.3035430908
-33.3053550720 -27.0463905334 45.1270523071
-33.3917808533 -27.1193809509 44.9471702576
-33.4551811218 -27.1733112335 44.7627983093
-33.4960060120 -27.2085494995 44.5739631653
-33.5194740295 -27.2294178009 44.3816757202
-33.5326957703 -27.2418060303 44.1873359680
-33.5420646667 -27.2510032654 43.9922256470
-33.5510253906 -27.2598609924 43.7970352173
-33.5584983826 -27.2674884796 43.6015434265
-33.5597000122 -27.2699279785 43.4047660828
-33.5504226685 -27.2636871338 43.2058105469
-33.5317497253 -27.2496738434 43.0048789978
-33.5107078552 -27.2336959839 42.8034210205
-33.4966545105 -27.2235031128 42.6033782959
-33.4976577759 -27.2257766724 42.4064712524
-33.5187034607 -27.2446403503 42.2137832642
-33.5607185364 -27.2808628082 42.0255584717
-33.6208992004 -27.3321189880 41.8412513733
-33.6954765320 -27.3952922821 41.6600952148
-33.7825508118 -27.4688110352 41.4817237854
-33.8813362122 -27.5520191193 41.3059959412
-33.9892692566 -27.6428031921 41.1323852539
-34.1009979248 -27.7367248535 40.9597549438
-34.2101211548 -27.8284854889 40.7867240906
-34.3118934631 -27.9141654968 40.6122550964
-34.4048881531 -27.9925785065 40.4360198975
-34.4902839661 -28.0646991730 40.2582511902
-34.5695419312 -28.1317386627 40.0792541504
-34.6429748535 -28.1939563751 39.8990898132
-34.7097282410 -28.2506446838 39.7175483704
-34.7675247192 -28.2999172211 39.5341110229
-34.8126220703 -28.3386802673 39.3479156494
-34.8415412903 -28.3640499115 39.1581573486
-34.8527984619 -28.3748035431 38.9644660950
-34.8463020325 -28.3708648682 38.7667732239
-34.8216629028 -28.3519077301 38.5649566650
-34.7788734436 -28.3179264069 38.3589668274
-34.7213821411 -28.2717819214 38.1495475769
-34.6578903198 -28.2206687927 37.9386558533
-34.6002464294 -28.1743984222 37.7290000916
-34.5589714050 -28.1416740417 37.5230178833
-34.5398025513 -28.1272487640 37.3220748901
-34.5435218811 -28.1317634583 37.1263999939
-34.5686454773 -28.1539955139 36.9357070923
-34.6139144897 -28.1928977966 36.7497482300
-34.6778488159 -28.2472476959 36.5682258606
-34.7571754456 -28.3143348694 36.3904113770
-34.8473091125 -28.3903636932 36.2152633667
-34.9435386658 -28.4714412689 36.0416946411
-35.0398674011 -28.5525970459 35.8682861328
-35.1278190613 -28.6268196106 35.6930274963
-35.1993904114 -28.6874847412 35.5139808655
-35.2520446777 -28.7324943542 35.3305053711
-35.2901306152 -28.7654457092 35.1435966492
-35.3208618164 -28.7923145294 34.9549636841
-35.3484001160 -28.8165359497 34.7655982971
-35.3706283569 -28.8363666534 34.5749778748
-35.3809700012 -28.8463592529 34.3814849854
-35.3731575012 -28.8413257599 34.1835632324
-35.3447151184 -28.8192253113 33.9805641174
-35.2962646484 -28.7805652618 33.7725830078
-35.2284622192 -28.7258911133 33.5597457886
-35.1419410706 -28.6557312012 33.3421554565
-35.0422592163 -28.5746784210 33.1211547852
-34.9436912537 -28.4945507050 32.9002647400
-34.8651008606 -28.4309539795 32.6842079163
-34.8215522766 -28.3963546753 32.4768066406
-34.8207244873 -28.3971099854 32.2800750732
-34.8640937805 -28.4344348907 32.0944824219
-34.9465370178 -28.5040912628 31.9188404083
-35.0553703308 -28.5955829620 31.7500190735
-35.1748161316 -28.6958560944 31.5840644836
-35.2935104370 -28.7955074310 31.4180946350
-35.4063034058 -28.8902740479 31.2507915497
-35.5098495483 -28.9773864746 31.0812778473
-35.5998535156 -29.0532913208 30.9084281921
-35.6737785339 -29.1158924103 30.7315540314
-35.7346763611 -29.1677150726 30.5514087677
-35.7901344299 -29.2150344849 30.3699340820
-35.8457412720 -29.2624778748 30.1885776520
-35.8989410400 -29.3079280853 30.0066699982
-35.9400939941 -29.3434104919 29.8216743469
-35.9606513977 -29.3618526459 29.6313133240
-35.9598999023 -29.3626632690 29.4353504181
-35.9434127808 -29.3504543304 29.2352085114
-35.9164886475 -29.3296108246 29.0322608948
-35.8807296753 -29.3014564514 28.8269081116
-35.8360900879 -29.2659587860 28.6191177368
-35.7838859558 -29.2241992950 28.4092216492
-35.7262916565 -29.1779823303 28.1977882385
-35.6630249023 -29.1270713806 27.9847259521
-35.5900421143 -29.0681247711 27.7689304352
-35.5046272278 -28.9988918304 27.5496406555
-35.4135932922 -28.9250125885 27.3286800385
-35.3357467651 -28.8620433807 27.1111660004
-35.2939796448 -28.8289260864 26.9033870697
-35.3024063110 -28.8373336792 26.7093009949
-35.3573989868 -28.8842678070 26.5280284882
-35.4385299683 -28.9528236389 26.3540420532
-35.5196876526 -29.0214023590 26.1801834106
-35.5829162598 -29.0751476288 26.0014686584
-35.6241874695 -29.1107234955 25.8167381287
-35.6486968994 -29.1324348450 25.6273860931
-35.6632156372 -29.1458835602 25.4352703094
-35.6722869873 -29.1548213959 25.2416400909
-35.6785697937 -29.1614551544 25.0472335815
-35.6846199036 -29.1678943634 24.8527603149
-35.6937026978 -29.1768436432 24.6591472626
-35.7084846497 -29.1905078888 24.4671573639
-35.7277870178 -29.2079105377 24.2764663696
-35.7445449829 -29.2232112885 24.0850734711
-35.7482261658 -29.2276897430 23.8899574280
-35.7307472229 -29.2146644592 23.6887683868
-35.6905632019 -29.1828613281 23.4810161591
-35.6313133240 -29.1352844238 23.2676944733
-35.5575332642 -29.0756893158 23.0500679016
-35.4730567932 -29.0072460175 22.8292160034
-35.3838958740 -28.9349308014 22.6068611145
-35.3017234802 -28.8683967590 22.3863964081
-35.2431678772 -28.8213977814 22.1726951599
-35.2236938477 -28.8067264557 21.9703502655
-35.2490692139 -28.8291568756 21.7811470032
-35.3106422424 -28.8815250397 21.6026382446
-35.3893318176 -28.9480533600 21.4292774200
-35.4657478333 -29.0126991272 21.2553577423
-35.5274429321 -29.0651702881 21.0771770477
-35.5688171387 -29.1008281708 20.8930339813
-35.5882225037 -29.1183166504 20.7023868561
-35.5876350403 -29.1192665100 20.5057773590
-35.5731010437 -29.1086826324 20.3049716949
-35.5523567200 -29.0929641724 20.1022663116
-35.5304527283 -29.0762805939 19.8991699219
-35.5070762634 -29.0583877563 19.6955871582
-35.4766464233 -29.0346565247 19.4898185730
-35.4300880432 -28.9975852966 19.2790889740
-35.3589477539 -28.9401855469 19.0607833862
-35.2614936829 -28.8610210419 18.8343143463
-35.1458625793 -28.7668247223 18.6021156311
-35.0257530212 -28.6689262390 18.3683490753
-34.9135055542 -28.5775318146 18.1368083954
-34.8193016052 -28.5010585785 17.9106540680
-34.7551918030 -28.4494800568 17.6936607361
-34.7351417542 -28.4343414307 17.4902324677
-34.7684097290 -28.4632968903 17.3033542633
-34.8527984619 -28.5345325470 17.1324653625
-34.9738311768 -28.6360721588 16.9731616974
-35.1101341248 -28.7502403259 16.8188266754
-35.2415885925 -28.8603992462 16.6631736755
-35.3557548523 -28.9562530518 16.5022697449
-35.4490737915 -29.0348720551 16.3349552155
-35.5238075256 -29.0981140137 16.1618919373
-35.5842361450 -29.1495285034 15.9843969345
-35.6337776184 -29.1919384003 15.8035249710
-35.6723747253 -29.2252941132 15.6192293167
-35.6950340271 -29.2454719543 15.4298906326
-35.6938285828 -29.2459144592 15.2329282761
-35.6633338928 -29.2221336365 15.0265426636
-35.6062240601 -29.1763439178 14.8115262985
-35.5341644287 -29.1181907654 14.5915842056
-35.4615249634 -29.0595626831 14.3713331223
-35.3968162537 -29.0074920654 14.1535320282
-35.3410339355 -28.9628028870 13.9385251999
-35.2952919006 -28.9264183044 13.7266960144
-35.2689781189 -28.9060993195 13.5211372375
-35.2782974243 -28.9152488708 13.3272047043
-35.3352813721 -28.9638099670 13.1489334106
-35.4372329712 -29.0495548248 12.9855470657
-35.5666923523 -29.1580486298 12.8313932419
-35.7022399902 -29.2715702057 12.6794462204
-35.8303413391 -29.3789367676 12.5252361298
-35.9479255676 -29.4776020050 12.3677225113
-36.0557250977 -29.5681781769 12.2071266174
-36.1517906189 -29.6490497589 12.0427732468
-36.2314262390 -29.7163352966 11.8730621338
-36.2908172607 -29.7668800354 11.6966762543
-36.3292884827 -29.8001251221 11.5133390427
-36.3492507935 -29.8180694580 11.3238162994
-36.3551292419 -29.8243637085 11.1295557022
-36.3519515991 -29.8231735229 10.9322309494
-36.3440208435 -29.8180503845 10.7332773209
-36.3340301514 -29.8112258911 10.5336027145
-36.3229560852 -29.8035068512 10.3335351944
-36.3104934692 -29.7946376801 10.1329669952
-36.2957115173 -29.7838516235 9.9315748215
-36.2774734497 -29.7702083588 9.7289667130
-36.2544784546 -29.7526340485 9.5246829987
-36.2253952026 -29.7300262451 9.3182544708
-36.1898689270 -29.7020912170 9.1095438004
-36.1503791809 -29.6708774567 8.8993949890
-36.1138534546 -29.6421165466 8.6902055740
-36.0912284851 -29.6248474121 8.4857892990
-36.0935478210 -29.6282024384 8.2900323868
-36.1261444092 -29.6565914154 8.1048583984
-36.1854705811 -29.7070789337 7.9290966988
-36.2616424561 -29.7714900970 7.7593350410
-36.3440399170 -29.8410511017 7.5918788910
-36.4251861572 -29.9095726013 7.4241008759
-36.5010070801 -29.9736957550 7.2545604706
-36.5694007874 -30.0316715240 7.0824975967
-36.6292495728 -30.0825862885 6.9074993134
-36.6809806824 -30.1267910004 6.7296981812
-36.7274169922 -30.1666126251 6.5500793457
-36.7721900940 -30.2050628662 6.3699312210
-36.8150100708 -30.2418956757 6.1891455650
-36.8482017517 -30.2707710266 6.0049610138
-36.8605880737 -30.2824440002 5.8133316040
-36.8469772339 -30.2726268768 5.6123361588
-36.8135604858 -30.2464389801 5.4041514397
-36.7732582092 -30.2145576477 5.1934108734
-36.7365493774 -30.1856441498 4.9839015007
-36.7070655823 -30.1627082825 4.7769565582
-36.6840362549 -30.1451072693 4.5723104477
-36.6667289734 -30.1322364807 4.3697094917
-36.6568412781 -30.1254978180 4.1697912216
-36.6586914063 -30.1284656525 3.9741573334
-36.6783561707 -30.1461544037 3.7850689888
-36.7219810486 -30.1836528778 3.6048359871
-36.7933235168 -30.2440624237 3.4349017143
-36.8915328979 -30.3266792297 3.2750167847
-37.0106925964 -30.4266109467 3.1230502129
-37.1411628723 -30.5358943939 2.9754686356
-37.2717552185 -30.6452751160 2.8281292915
-37.3920288086 -30.7461242676 2.6771342754
-37.4943122864 -30.8321037292 2.5195920467
-37.5750808716 -30.9002990723 2.3541357517
-37.6348381042 -30.9511222839 2.1809036732
-37.6757736206 -30.9863910675 2.0006725788
-37.6986923218 -31.0067634583 1.8136994839
-37.7025756836 -31.0114059448 1.6195586920
-37.6869926453 -30.9999561310 1.4180408716
-37.6529502869 -30.9732513428 1.2094820738
-37.5995941162 -30.9305801392 0.9935128093
-37.5212059021 -30.8672237396 0.7679100633
-37.4112358093 -30.7777633667 0.5301103592
-37.2716369629 -30.6638145447 0.2807869613
