58.4553718567 11.0088539124 74.0072021484
58.4548683167 11.0088376999 73.8224945068
58.4531097412 11.0086078644 73.6376800537
58.4501380920 11.0081710815 73.4527664185
58.4455146790 11.0074529648 73.2677154541
58.4375801086 11.0061702728 73.0824050903
58.4227142334 11.0037069321 72.8965301514
58.3962020874 10.9992570877 72.7097091675
58.3560638428 10.9924860001 72.5217742920
58.3074760437 10.9842739105 72.3330993652
58.2625999451 10.9766941071 72.1446609497
58.2344551086 10.9719676971 71.9575195313
58.2299690247 10.9712724686 71.7722854614
58.2468261719 10.9742164612 71.5888061523
58.2749137878 10.9790735245 71.4062805176
58.3011589050 10.9836177826 71.2236251831
58.3145523071 10.9859704971 71.0399169922
58.3071556091 10.9847793579 70.8544464111
58.2728996277 10.9790115356 70.6666488647
58.2099685669 10.9683542252 70.4763259888
58.1266479492 10.9542217255 70.2841415405
58.0421371460 10.9398870468 70.0917434692
57.9772911072 10.9289045334 69.9009704590
57.9427032471 10.9230794907 69.7127990723
57.9348678589 10.9218130112 69.5269851685
57.9421310425 10.9231214523 69.3425216675
57.9534606934 10.9251232147 69.1584320068
57.9631042480 10.9268369675 68.9741973877
57.9698028564 10.9280490875 68.7897033691
57.9739036560 10.9288187027 68.6049652100
57.9756507874 10.9291858673 68.4200057983
57.9750823975 10.9291591644 68.2348327637
57.9724693298 10.9287843704 68.0494537354
57.9683914185 10.9281597137 67.8639297485
57.9636154175 10.9274158478 67.6783294678
57.9589195251 10.9266853333 67.4927215576
57.9549560547 10.9260797501 67.3071823120
57.9521102905 10.9256649017 67.1217346191
57.9504051208 10.9254446030 66.9363937378
57.9494857788 10.9253578186 66.7511215210
57.9487876892 10.9253101349 66.5658721924
57.9477767944 10.9252071381 66.3805770874
57.9460868835 10.9249897003 66.1952133179
57.9434585571 10.9246120453 66.0097427368
57.9391632080 10.9239501953 65.8240966797
57.9305610657 10.9225540161 65.6380004883
57.9109001160 10.9192724228 65.4507369995
57.8686904907 10.9121494293 65.2610855103
57.7932662964 10.8993625641 65.0679016113
57.6865501404 10.8812446594 64.8712997437
57.5706367493 10.8615579605 64.6735916138
57.4794540405 10.8460865021 64.4783706665
57.4392776489 10.8393087387 64.2885055542
57.4549674988 10.8420534134 64.1046371460
57.5101509094 10.8515291214 63.9250717163
57.5765380859 10.8629150391 63.7467994690
57.6262931824 10.8714656830 63.5667762756
57.6429367065 10.8743724823 63.3831443787
57.6257629395 10.8715162277 63.1957702637
57.5856933594 10.8647565842 63.0058021545
57.5362091064 10.8563928604 62.8147201538
57.4863433838 10.8479642868 62.6235237122
57.4395141602 10.8400526047 62.4326095581
57.3962821960 10.8327541351 62.2420387268
57.3569374084 10.8261194229 62.0518608093
57.3229217529 10.8203916550 61.8622398376
57.2972564697 10.8160877228 61.6735458374
57.2828865051 10.8137092590 61.4861335754
57.2795410156 10.8132095337 61.2999954224
57.2822380066 10.8137388229 61.1145668030
57.2838401794 10.8140821457 60.9290046692
57.2801704407 10.8135271072 60.7428092957
57.2728424072 10.8123493195 60.5561637878
57.2668418884 10.8113965988 60.3696632385
57.2657585144 10.8112821579 60.1837501526
57.2696685791 10.8120193481 59.9984397888
57.2767677307 10.8133001328 59.8135185242
57.2854232788 10.8148450851 59.6287956238
57.2942543030 10.8164215088 59.4441032410
57.3008193970 10.8176107407 59.2591323853
57.3007698059 10.8176727295 59.0733337402
57.2886276245 10.8156728745 58.8860092163
57.2601318359 10.8108873367 58.6965980530
57.2149848938 10.8032627106 58.5050239563
57.1580276489 10.7936258316 58.3118782043
57.0973358154 10.7833518982 58.1181755066
57.0398216248 10.7736196518 57.9248046875
56.9878158569 10.7648267746 57.7320671082
56.9407844543 10.7568817139 57.5399055481
56.9010963440 10.7501878738 57.3486442566
56.8764915466 10.7460641861 57.1593132019
56.8742790222 10.7457580566 56.9729080200
56.8931121826 10.7490386963 56.7892913818
56.9223518372 10.7540931702 56.6070823669
56.9495887756 10.7588052750 56.4246368408
56.9673271179 10.7618989944 56.2409439087
56.9735641479 10.7630329132 56.0557098389
56.9689178467 10.7623109818 55.8689956665
56.9544487000 10.7599153519 55.6809272766
56.9311408997 10.7560148239 55.4916229248
56.9006042480 10.7508802414 55.3012886047
56.8663177490 10.7451066971 55.1103858948
56.8341560364 10.7396965027 54.9197349548
56.8109779358 10.7358169556 54.7302932739
56.8018493652 10.7343320847 54.5427932739
56.8077316284 10.7354049683 54.3573951721
56.8243408203 10.7383060455 54.1735191345
56.8421478271 10.7414121628 53.9898300171
56.8481407166 10.7425031662 53.8044700623
56.8303184509 10.7395362854 53.6156883240
56.7842979431 10.7317638397 53.4228096008
56.7178688049 10.7205133438 53.2269096375
56.6482048035 10.7087106705 53.0304489136
56.5920257568 10.6992073059 52.8358650208
56.5568733215 10.6932868958 52.6442947388
56.5406455994 10.6905918121 52.4554672241
56.5376510620 10.6901512146 52.2685737610
56.5445365906 10.6913967133 52.0831413269
56.5623130798 10.6944961548 51.8993415833
56.5940933228 10.6999835968 51.7176628113
56.6398582458 10.7078542709 51.5381278992
56.6916923523 10.7167577744 51.3595619202
56.7342796326 10.7240877151 51.1796531677
56.7515487671 10.7271013260 50.9959297180
56.7348480225 10.7243251801 50.8070144653
56.6878051758 10.7163782120 50.6134071350
56.6250343323 10.7057514191 50.4173011780
56.5646095276 10.6955242157 50.2214775085
56.5188636780 10.6877985001 50.0278549194
56.4906806946 10.6830663681 49.8369216919
56.4767417908 10.6807613373 49.6481819153
56.4725761414 10.6801223755 49.4609603882
56.4748802185 10.6805858612 49.2747573853
56.4812850952 10.6817483902 49.0892028809
56.4894638062 10.6832122803 48.9039306641
56.4967422485 10.6845235825 48.7185249329
56.5004310608 10.6852226257 48.5325431824
56.4985809326 10.6849784851 48.3456687927
56.4906196594 10.6836919785 48.1577911377
56.4774818420 10.6815242767 47.9690628052
56.4612884521 10.6788349152 47.7798080444
56.4447059631 10.6760797501 47.5904655457
56.4303283691 10.6737003326 47.4014587402
56.4201316833 10.6720333099 47.2131233215
56.4152412415 10.6712703705 47.0256500244
56.4158515930 10.6714448929 46.8390808105
56.4212226868 10.6724319458 46.6533050537
56.4297332764 10.6739530563 46.4680557251
56.4391937256 10.6756353378 46.2829742432
56.4474067688 10.6771059036 46.0976905823
56.4527053833 10.6780805588 45.9119148254
56.4542198181 10.6784086227 45.7254981995
56.4518737793 10.6780796051 45.5384140015
56.4462013245 10.6771841049 45.3507575989
56.4379196167 10.6758432388 45.1626319885
56.4273185730 10.6741075516 44.9740943909
56.4139137268 10.6718940735 44.7850494385
56.3968811035 10.6690616608 44.5953521729
56.3764038086 10.6656436920 44.4050254822
56.3547210693 10.6620187759 44.2144546509
56.3353767395 10.6587924957 44.0242652893
56.3212127686 10.6564502716 43.8349609375
56.3130607605 10.6551313400 43.6467018127
56.3100547791 10.6546897888 43.4593429565
56.3105621338 10.6548471451 43.2726020813
56.3125762939 10.6552619934 43.0861282349
56.3133392334 10.6554622650 42.8994255066
56.3083953857 10.6546907425 42.7116889954
56.2913246155 10.6518526077 42.5217437744
56.2561874390 10.6459350586 42.3284873962
56.2029304504 10.6369304657 42.1318702698
56.1406211853 10.6263828278 41.9335212708
56.0832366943 10.6166744232 41.7359962463
56.0406532288 10.6094884872 41.5411224365
56.0137329102 10.6049718857 41.3490867615
55.9970588684 10.6022014618 41.1589164734
55.9842987061 10.6000976563 40.9694519043
55.9709777832 10.5978984833 40.7798576355
55.9542007446 10.5951099396 40.5895957947
55.9316787720 10.5913429260 40.3982238770
55.9017295837 10.5863103867 40.2054176331
55.8639411926 10.5799417496 40.0110778809
55.8186721802 10.5722980499 39.8152656555
55.7648925781 10.5632047653 39.6177673340
55.6997909546 10.5521812439 39.4180259705
55.6227493286 10.5391225815 39.2159042358
55.5397834778 10.5250558853 39.0125350952
55.4617614746 10.5118312836 38.8100128174
55.3976173401 10.5009708405 38.6100807190
55.3495140076 10.4928455353 38.4131813049
55.3131752014 10.4867229462 38.2185134888
55.2815895081 10.4814119339 38.0247268677
55.2504310608 10.4761734009 37.8309783936
55.2222938538 10.4714498520 37.6377830505
55.2051200867 10.4685945511 37.4467124939
55.2040481567 10.4684829712 37.2588157654
55.2139511108 10.4702415466 37.0730934143
55.2201995850 10.4713773727 36.8866500854
55.2062911987 10.4690790176 36.6961746216
55.1623191833 10.4616565704 36.4996261597
55.0909843445 10.4495716095 36.2975044250
55.0080642700 10.4355125427 36.0929374695
54.9339408875 10.4229526520 35.8900489807
54.8809661865 10.4139957428 35.6913642883
54.8482322693 10.4084892273 35.4967422485
54.8271446228 10.4049673080 35.3044586182
54.8096580505 10.4020586014 35.1128845215
54.7917137146 10.3990716934 34.9211883545
54.7720642090 10.3957948685 34.7291107178
54.7501525879 10.3921318054 34.5365333557
54.7255439758 10.3880100250 34.3433609009
54.6989288330 10.3835458755 34.1497383118
54.6729621887 10.3791923523 33.9562110901
54.6511688232 10.3755493164 33.7635192871
54.6357650757 10.3729963303 33.5721397400
54.6265220642 10.3714923859 33.3820419312
54.6214904785 10.3707065582 33.1928176880
54.6183738708 10.3702468872 33.0039863586
54.6153869629 10.3698091507 32.8151741028
54.6113090515 10.3691854477 32.6261215210
54.6049079895 10.3681659698 32.4365615845
54.5938377380 10.3663511276 32.2459831238
54.5736541748 10.3629837036 32.0534210205
54.5387344360 10.3571043015 31.8576393127
54.4863929749 10.3482561111 31.6580276489
54.4218482971 10.3373289108 31.4556884766
54.3580932617 10.3265361786 31.2534351349
54.3086395264 10.3181810379 31.0542259216
54.2794227600 10.3132734299 30.8593902588
54.2670822144 10.3112421036 30.6682281494
54.2632751465 10.3106651306 30.4789314270
54.2593154907 10.3100614548 30.2895889282
54.2479782104 10.3082008362 30.0985984802
54.2236976624 10.3041353226 29.9047069550
54.1832466125 10.2973136902 29.7071666718
54.1276893616 10.2879180908 29.5061855316
54.0639533997 10.2771291733 29.3032932281
54.0033340454 10.2668704987 29.1010150909
53.9563522339 10.2589368820 28.9017372131
53.9279136658 10.2541618347 28.7065944672
53.9164428711 10.2522792816 28.5152645111
53.9165039063 10.2523612976 28.3265419006
53.9214057922 10.2532682419 28.1389217377
53.9239883423 10.2537794113 27.9507713318
53.9166717529 10.2526054382 27.7603454590
53.8927116394 10.2485933304 27.5660705566
53.8492012024 10.2412509918 27.3672428131
53.7895355225 10.2311553955 27.1646118164
53.7225608826 10.2198152542 26.9602031708
53.6585922241 10.2089862823 26.7564048767
53.6050682068 10.1999378204 26.5549583435
53.5643997192 10.1930789948 26.3564491272
53.5350799561 10.1881551743 26.1605491638
53.5143547058 10.1846952438 25.9666290283
53.4991950989 10.1821842194 25.7739944458
53.4858093262 10.1799745560 25.5817527771
53.4708671570 10.1775007248 25.3891220093
53.4538116455 10.1746664047 25.1959609985
53.4363861084 10.1717681885 25.0026874542
53.4200630188 10.1690587997 24.8096504211
53.4051437378 10.1665878296 24.6169223785
53.3919830322 10.1644172668 24.4245948792
53.3823051453 10.1628398895 24.2330875397
53.3791007996 10.1623659134 24.0431251526
53.3850021362 10.1634435654 23.8553638458
53.3998641968 10.1660470963 23.6697826385
53.4194717407 10.1694602966 23.4853744507
53.4369621277 10.1725120544 23.3004665375
53.4454421997 10.1740283966 23.1133689880
53.4390373230 10.1730089188 22.9226207733
53.4127845764 10.1686077118 22.7269687653
53.3644485474 10.1604433060 22.5258255005
53.2979545593 10.1491851807 22.3201198578
53.2233963013 10.1365518570 22.1123199463
53.1514129639 10.1243591309 21.9050617218
53.0877838135 10.1135883331 21.6997909546
53.0340728760 10.1045093536 21.4969177246
52.9910850525 10.0972557068 21.2966575623
52.9585494995 10.0917844772 21.0989665985
52.9328002930 10.0874681473 20.9029388428
52.9083023071 10.0833663940 20.7071914673
52.8816337585 10.0788936615 20.5108566284
52.8517990112 10.0738821030 20.3136768341
52.8171501160 10.0680503845 20.1152305603
52.7739524841 10.0607624054 19.9145526886
52.7185745239 10.0513982773 19.7106952667
52.6509666443 10.0399503708 19.5036258698
52.5756416321 10.0271873474 19.2944812775
52.4984283447 10.0141038895 19.0847473145
52.4225769043 10.0012512207 18.8752613068
52.3492660522 9.9888324738 18.6663322449
52.2811393738 9.9772968292 18.4586505890
52.2224006653 9.9673604965 18.2533226013
52.1743125916 9.9592390060 18.0506935120
52.1319046021 9.9520854950 17.8494853973
52.0862579346 9.9443798065 17.6473674774
52.0301246643 9.9348869324 17.4424304962
51.9617156982 9.9233036041 17.2341785431
51.8843231201 9.9101886749 17.0234622955
51.8039093018 9.8965597153 16.8118400574
51.7270622253 9.8835382462 16.6010589600
51.6582069397 9.8718786240 16.3922996521
51.5962600708 9.8613958359 16.1852931976
51.5351524353 9.8510560989 15.9784250259
51.4699325562 9.8400163651 15.7703714371
51.4024963379 9.8285980225 15.5616340637
51.3401718140 9.8180522919 15.3541831970
51.2889404297 9.8093948364 15.1496410370
51.2487831116 9.8026247025 14.9480257034
51.2151527405 9.7969675064 14.7481250763
51.1839752197 9.7917280197 14.5488433838
51.1554374695 9.7869377136 14.3502359390
51.1333274841 9.7832431793 14.1533432007
51.1211280823 9.7812366486 13.9591302872
51.1201324463 9.7811393738 13.7679719925
51.1315574646 9.7831583023 13.5802240372
51.1580924988 9.7877521515 13.3966522217
51.2017631531 9.7952651978 13.2178459167
51.2612533569 9.8054733276 13.0434713364
51.3318939209 9.8175821304 12.8722648621
51.4073905945 9.8305168152 12.7024946213
51.4815521240 9.8432245255 12.5324430466
51.5497550964 9.8549175262 12.3608160019
51.6097106934 9.8652057648 12.1869602203
51.6607513428 9.8739738464 12.0106716156
51.7024230957 9.8811464310 11.8318080902
51.7340736389 9.8866109848 11.6501636505
51.7556991577 9.8903675079 11.4657201767
51.7684669495 9.8926153183 11.2787895203
51.7738265991 9.8936004639 11.0897655487
51.7720565796 9.8933715820 10.8987140656
51.7615814209 9.8916587830 10.7051706314
51.7396736145 9.8879985809 10.5083408356
51.7041130066 9.8820123672 10.3075647354
51.6545410156 9.8736381531 10.1027116776
51.5928993225 9.8632078171 9.8943166733
51.5237884521 9.8515062332 9.6836833954
51.4546051025 9.8397903442 9.4729347229
51.3932609558 9.8294115067 9.2643642426
51.3438339233 9.8210630417 9.0591726303
51.3039665222 9.8143424988 8.8566942215
51.2665901184 9.8080472946 8.6548871994
51.2246475220 9.8009738922 8.4516925812
51.1757850647 9.7927207947 8.2464103699
51.1239051819 9.7839546204 8.0401754379
51.0756683350 9.7758083344 7.8349413872
51.0345954895 9.7688837051 7.6317539215
50.9984893799 9.7628040314 7.4299759865
50.9620323181 9.7566652298 7.2280426025
50.9210052490 9.7497482300 7.0247011185
50.8741836548 9.7418432236 6.8195786476
50.8222770691 9.7330722809 6.6128749847
50.7656745911 9.7235021591 6.4046978951
50.7035331726 9.7129869461 6.1947836876
50.6357040405 9.7015028000 5.9830789566
50.5658798218 9.6896791458 5.7706813812
50.5017967224 9.6788349152 5.5599212646
50.4512634277 9.6702976227 5.3531637192
50.4177551270 9.6646614075 5.1514897346
50.3996543884 9.6616497040 4.9544391632
50.3925056458 9.6605043411 4.7606892586
50.3912200928 9.6603584290 4.5687103271
50.3907127380 9.6603450775 4.3769626617
50.3855895996 9.6595449448 4.1837973595
50.3701171875 9.6569814682 3.9874489307
50.3396148682 9.6518573761 3.7864601612
50.2929992676 9.6439876556 3.5804677010
50.2340011597 9.6340093613 3.3705940247
50.1690521240 9.6230163574 3.1588001251
50.1034698486 9.6119155884 2.9467208385
50.0394706726 9.6010847092 2.7350447178
49.9766502380 9.5904550552 2.5236482620
49.9131126404 9.5797033310 2.3119432926
49.8462677002 9.5683879852 2.0991179943
49.7735366821 9.5560693741 1.8843610287
49.6935234070 9.5425109863 1.6672240496
49.6067543030 9.5278015137 1.4478554726
49.5145950317 9.5121736526 1.2266757488
49.4182128906 9.4958257675 1.0040394068
49.3204612732 9.4792451859 0.7808424830
49.2287139893 9.4636878967 0.5594173074
49.1532287598 9.4509000778 0.3430293798
49.1013870239 9.4421415329 0.1340575069
12.0523967743 35.5179710388 79.1016998291
12.0492124557 35.5102996826 78.9013748169
12.0454740524 35.5011291504 78.7009735107
12.0430145264 35.4954261780 78.5007095337
12.0430364609 35.4964523315 78.3007507324
12.0456771851 35.5045776367 78.1011123657
12.0508766174 35.5196456909 77.9018096924
12.0593690872 35.5436401367 77.7029418945
12.0725011826 35.5802154541 77.5047225952
12.0912809372 35.6321105957 77.3072891235
12.1155757904 35.6989555359 77.1106719971
12.1434783936 35.7755851746 76.9146194458
12.1710767746 35.8513908386 76.7186203003
12.1936445236 35.9135551453 76.5220108032
12.2079124451 35.9532089233 76.3242874146
12.2133893967 35.9690246582 76.1253433228
12.2118635178 35.9658546448 75.9253921509
12.2060680389 35.9511032104 75.7248077393
12.1983222961 35.9310646057 75.5239028931
12.1896104813 35.9084053040 75.3228225708
12.1800022125 35.8833160400 75.1215667725
12.1702384949 35.8578071594 74.9202499390
12.1625614166 35.8379554749 74.7192230225
12.1598138809 35.8314704895 74.5189437866
12.1640033722 35.8437957764 74.3197631836
12.1754693985 35.8758544922 74.1217575073
12.1926059723 35.9232864380 73.9247131348
12.2121324539 35.9771995544 73.7281188965
12.2301435471 36.0270042419 73.5313339233
12.2436141968 36.0644950867 73.3338470459
12.2514600754 36.0867347717 73.1354370117
12.2544727325 36.0958709717 72.9362258911
12.2543420792 36.0964813232 72.7364807129
12.2526502609 36.0928573608 72.5364532471
12.2504081726 36.0877418518 72.3363113403
12.2480840683 36.0824050903 72.1361541748
12.2458105087 36.0772056580 71.9359817505
12.2435493469 36.0720405579 71.7358093262
12.2411108017 36.0663948059 71.5355911255
12.2380104065 36.0589523315 71.3352279663
12.2334012985 36.0474205017 71.1345748901
12.2264289856 36.0294799805 70.9334564209
12.2170753479 36.0050849915 70.7318496704
12.2067499161 35.9780540466 70.5300216675
12.1978130341 35.9547882080 70.3284301758
12.1924667358 35.9412574768 70.1274948120
12.1921815872 35.9414520264 69.9275436401
12.1977682114 35.9575614929 69.7287521362
12.2091922760 35.9895057678 69.5311508179
12.2249450684 36.0331840515 69.3344650269
12.2418231964 36.0799102783 69.1380615234
12.2557697296 36.1186904907 68.9411010742
12.2633743286 36.1402740479 68.7428665161
12.2632284164 36.1408462524 68.5430297852
12.2565135956 36.1236038208 68.3418045044
12.2463989258 36.0971450806 68.1398162842
12.2363824844 36.0709533691 67.9378204346
12.2285671234 36.0507316589 67.7362594604
12.2230739594 36.0368003845 67.5351715088
12.2186841965 36.0258636475 67.3343048096
12.2139015198 36.0138626099 67.1333236694
12.2079811096 35.9987754822 66.9320755005
12.2017927170 35.9829635620 66.7307434082
12.1978139877 35.9731445313 66.5298843384
12.1986083984 35.9762611389 66.3300933838
12.2048149109 35.9940567017 66.1315536499
12.2145633698 36.0214538574 65.9338531494
12.2245244980 36.0494270325 65.7362289429
12.2314949036 36.0692939758 65.5379333496
12.2337942123 36.0764923096 65.3385467529
12.2318639755 36.0722236633 65.1381530762
12.2273855209 36.0610504150 64.9371337891
12.2217760086 36.0468063354 64.7358169556
12.2158050537 36.0315818787 64.5343933105
12.2101678848 36.0172653198 64.3330230713
12.2055521011 36.0057182312 64.1318893433
12.2021589279 35.9974861145 63.9310340881
12.1996278763 35.9915924072 63.7303771973
12.1974611282 35.9866828918 63.5298042297
12.1953153610 35.9818305969 63.3292198181
12.1929464340 35.9763755798 63.1285705566
12.1899957657 35.9693412781 62.9277572632
12.1859931946 35.9594573975 62.7266540527
12.1807994843 35.9463424683 62.5252227783
12.1750879288 35.9318275452 62.3236312866
12.1701078415 35.9192886353 62.1222114563
12.1668062210 35.9113044739 61.9212150574
12.1642780304 35.9257316589 57.5166740417
12.1685037613 35.9381561279 57.3177413940
12.1767129898 35.9613761902 57.1200485229
12.1855745316 35.9863662720 56.9225807190
12.1908531189 36.0016403198 56.7240219116
12.1990118027 36.0295639038 55.5253868103
12.2109766006 36.0629653931 55.3290481567
12.2313098907 36.1190528870 55.1354751587
12.2537822723 36.1809387207 54.9426612854
12.2741117477 36.2370147705 54.7492218018
12.2904691696 36.2823257446 54.5545310974
12.3027410507 36.3165550232 54.3585319519
12.3124094009 36.3437309265 54.1617050171
12.3224430084 36.3718948364 53.9650268555
12.3357801437 36.4090156555 53.7694969177
12.3528842926 36.4563484192 53.5752868652
12.3708820343 36.5061035156 53.3814353943
12.3856954575 36.5472259521 53.1865501404
12.3949623108 36.5733108521 52.9897994995
12.3986091614 36.5841636658 52.7911338806
12.5555324554 37.0182189941 51.0483970642
12.5658969879 37.0472793579 50.8524665833
12.5861482620 37.1031379700 50.6601829529
12.6128063202 37.1763610840 50.4703140259
12.6410522461 37.2538909912 50.2811203003
12.6657981873 37.3219299316 50.0907211304
12.6834878922 37.3708457947 49.8977775574
12.6933765411 37.3986129761 49.7019729614
12.6968879700 37.4090919495 49.5038032532
12.9471416473 38.1028175354 46.4124145508
12.9581241608 38.1335449219 46.2177391052
12.9780740738 38.1885795593 46.0267448425
13.0022258759 38.2550048828 45.8375320435
13.0271825790 38.3236083984 45.6487274170
13.0525979996 38.3934555054 45.4601974487
13.0803155899 38.4695434570 45.2727012634
13.1118974686 38.5561027527 45.0869026184
13.1465568542 38.6510047913 44.9024963379
13.1808385849 38.7448806763 44.7180442810
13.2102499008 38.8255538940 44.5316581726
13.2317838669 38.8848800659 44.3420410156
13.2454156876 38.9227867126 44.1491432190
13.2537050247 38.9462127686 43.9540100098
13.2603330612 38.9651374817 43.7581901550
13.2687568665 38.9889297485 43.5631637573
13.2813053131 39.0238990784 43.3699378967
13.2987518311 39.0721435547 43.1788711548
13.3206529617 39.1324615479 42.9897994995
13.3463640213 39.2031059265 42.8024597168
13.3757896423 39.2838172913 42.6168289185
13.4089355469 39.3746070862 42.4329376221
13.4448022842 39.4727745056 42.2503547668
13.4811964035 39.5723724365 42.0681266785
13.5157222748 39.6669044495 41.8851890564
13.5465126038 39.7513084412 41.7006950378
13.5719871521 39.8213081360 41.5139198303
13.5907201767 39.8730354309 41.3241958618
13.6024618149 39.9058151245 41.1313743591
13.6094789505 39.9257926941 40.9364395142
13.6162710190 39.9451560974 40.7414283752
13.6272516251 39.9758720398 40.5483474731
13.6444873810 40.0235404968 40.3581695557
13.6674232483 40.0866584778 40.1706771851
13.6941156387 40.1599540710 39.9849929810
13.7221469879 40.2368812561 39.8000183105
13.7487525940 40.3099441528 39.6144752502
13.7712364197 40.3718338013 39.4270896912
13.7884159088 40.4193458557 39.2372894287
13.8020620346 40.4572868347 39.0458831787
13.8167428970 40.4980316162 38.8550033569
13.8376445770 40.5556297302 38.6671257019
13.8674602509 40.6373901367 38.4835586548
13.9044055939 40.7384681702 38.3035011292
13.9432239532 40.8446235657 38.1244621277
13.9786424637 40.9415664673 37.9439201355
14.0083293915 41.0229721069 37.7607269287
14.0332345963 41.0914230347 37.5753097534
14.0557794571 41.1534729004 37.3888320923
14.0776081085 41.2135848999 37.2020721436
14.0983810425 41.2708320618 37.0148696899
14.1163177490 41.3203964233 36.8263397217
14.1299791336 41.3583717346 36.6357574463
14.1399488449 41.3863410950 36.4433898926
14.1491994858 41.4123649597 36.2506942749
14.1618289948 41.4475440979 36.0597114563
14.1808862686 41.5001411438 35.8719825745
14.2066555023 41.5709266663 35.6876907349
14.2367105484 41.6533279419 35.5056419373
14.2675495148 41.7378540039 35.3240890503
14.2962036133 41.8164558411 35.1415328979
14.3207149506 41.8838310242 34.9569587708
14.3400402069 41.9371528625 34.7698173523
14.3543224335 41.9768104553 34.5801544189
14.3654670715 42.0079612732 34.3889198303
14.3771400452 42.0405464172 34.1979942322
14.3936204910 42.0861587524 34.0095939636
14.4179344177 42.1529960632 33.8253135681
14.4505205154 42.2422523499 33.6454315186
14.4893741608 42.3484916687 33.4689331055
14.5311660767 42.4626922607 33.2941055298
14.5722436905 42.5749588013 33.1190452576
14.6092872620 42.6762886047 32.9419898987
14.6398677826 42.7601051331 32.7616348267
14.6628398895 42.8233032227 32.5773353577
14.6784906387 42.8666648865 32.3892059326
14.6886320114 42.8950958252 32.1981773376
14.6964645386 42.9172706604 32.0059432983
14.7060079575 42.9440803528 31.8146476746
14.7209520340 42.9855232239 31.6263027191
14.7433385849 43.0471343994 31.4420394897
14.7730522156 43.1286010742 31.2618350983
14.8087263107 43.2262191772 31.0849800110
14.8488225937 43.3358154297 30.9106674194
14.8913002014 43.4518661499 30.7377948761
14.9326925278 43.5649757385 30.5644683838
14.9685907364 43.6632003784 30.3882465363
14.9957275391 43.7376785278 30.2072868347
15.0136404037 43.7871627808 30.0212879181
15.0242261887 43.8167953491 29.8312606812
15.0298643112 43.8330192566 29.6384983063
15.0324249268 43.8409042358 29.4440231323
15.0341234207 43.8464508057 29.2490673065
15.0385360718 43.8593559265 29.0556449890
15.0497684479 43.8907356262 28.8660984039
15.0702676773 43.9472312927 28.6818504333
15.0997314453 44.0280113220 28.5027770996
15.1360683441 44.1274185181 28.3277339935
15.1766376495 44.2382926941 28.1552371979
15.2181186676 44.3516349792 27.9834022522
15.2562665939 44.4559478760 27.8097820282
15.2871761322 44.5406455994 27.6321048737
15.3091373444 44.6010932922 27.4493350983
15.3233299255 44.6404953003 27.2621173859
15.3330659866 44.6678199768 27.0723419189
15.3423271179 44.6938552856 26.8823165894
15.3545417786 44.7278976440 26.6940536499
15.3721637726 44.7765884399 26.5090160370
15.3967113495 44.8440475464 26.3281250000
15.4286050797 44.9314079285 26.1516685486
15.4666728973 45.0354957581 25.9789867401
15.5078945160 45.1481285095 25.8083114624
15.5481615067 45.2581748962 25.6372051239
15.5840559006 45.3563728333 25.4636135101
15.6144266129 45.4396057129 25.2868194580
15.6403465271 45.5107765198 25.1074466705
15.6635990143 45.5747222900 24.9265441895
15.6853055954 45.6344757080 24.7447814941
15.7059440613 45.6913375854 24.5624389648
15.7262716293 45.7473564148 24.3799762726
15.7476406097 45.8061943054 24.1982154846
15.7709236145 45.8702163696 24.0176982880
15.7953147888 45.9372482300 23.8379402161
15.8187618256 46.0017127991 23.6576805115
15.8395557404 46.0589942932 23.4758548737
15.8570394516 46.1073036194 23.2920455933
15.8709840775 46.1460266113 23.1060905457
15.8811197281 46.1744270325 22.9178028107
15.8875265121 46.1927261353 22.7272148132
15.8910160065 46.2031211853 22.5348148346
15.8929338455 46.2092590332 22.3414344788
15.8948125839 46.2152862549 22.1480312347
15.8983516693 46.2258186340 21.9556808472
15.9054794312 46.2460708618 21.7656135559
15.9180402756 46.2810401917 21.5790214539
15.9370908737 46.3335952759 21.3966064453
15.9622697830 46.4027481079 21.2181720734
15.9916315079 46.4832420349 21.0425033569
16.0221195221 46.5667839050 20.8676567078
16.0505027771 46.6446189880 20.6915550232
16.0744953156 46.7105598450 20.5127086639
16.0936260223 46.7633285522 20.3307895660
16.1092681885 46.8066444397 20.1466674805
16.1236286163 46.8464851379 19.9617595673
16.1385498047 46.8878555298 19.7772636414
16.1552524567 46.9340400696 19.5939807892
16.1747779846 46.9878807068 19.4126091003
16.1980953217 47.0519905090 19.2337951660
16.2255363464 47.1272697449 19.0577812195
16.2563724518 47.2117500305 18.8841056824
16.2889461517 47.3009376526 18.7116870880
16.3210449219 47.3888359070 18.5390605927
16.3501548767 47.4686355591 18.3645458221
16.3738460541 47.5337562561 18.1865062714
16.3906021118 47.5800895691 18.0038909912
16.4005813599 47.6080551147 17.8167724609
16.4055309296 47.6224021912 17.6262950897
16.4079513550 47.6298942566 17.4341201782
16.4103469849 47.6373214722 17.2419338226
16.4150352478 47.6509628296 17.0513095856
16.4241676331 47.6766395569 16.8637218475
16.4394817352 47.7190589905 16.6803836823
16.4617404938 47.7803001404 16.5018501282
16.4901943207 47.8583183289 16.3276386261
16.5223102570 47.9462547302 16.1560420990
16.5541057587 48.0333328247 15.9843339920
16.5813789368 48.1081466675 15.8096027374
16.6013469696 48.1631813049 15.6298990250
16.6136264801 48.1973800659 15.4449148178
16.6197948456 48.2150268555 15.2557125092
16.6222324371 48.2225646973 15.0639209747
16.6232395172 48.2262268066 14.8711318970
16.6248817444 48.2316093445 14.6787881851
16.6292304993 48.2443275452 14.4883499146
16.6384487152 48.2702331543 14.3013572693
16.6543254852 48.3141746521 14.1191015244
16.6773509979 48.3774909973 13.9419660568
16.7060070038 48.4560470581 13.7689046860
16.7370166779 48.5409851074 13.5976181030
16.7666549683 48.6222076416 13.4254550934
16.7920455933 48.6919288635 13.2503499985
16.8115482330 48.7456893921 13.0711030960
16.8245220184 48.7817687988 12.8872232437
16.8313083649 48.8010864258 12.6989231110
16.8332653046 48.8073196411 12.5071506500
16.8324241638 48.8059768677 12.3133525848
16.8309116364 48.8028106689 12.1190605164
16.8306694031 48.8030891418 11.9256839752
16.8336563110 48.8121147156 11.7346582413
16.8421478271 48.8360481262 11.5476646423
16.8585014343 48.8812828064 11.3664627075
16.8840122223 48.9513168335 11.1920433044
16.9174289703 49.0427742004 11.0235338211
16.9544887543 49.1440925598 10.8578262329
16.9892292023 49.2391319275 10.6905269623
17.0165004730 49.3139343262 10.5178022385
17.0339870453 49.3622360229 10.3378906250
17.0424575806 49.3861160278 10.1513147354
17.0444602966 49.3924713135 9.9599313736
17.0428104401 49.3889350891 9.7658147812
17.0398502350 49.3818473816 9.5707044601
17.0374126434 49.3761749268 9.3759717941
17.0370559692 49.3761405945 9.1827964783
17.0402832031 49.3858146667 8.9923248291
17.0485630035 49.4091758728 8.8056888580
17.0630741119 49.4494171143 8.6238079071
17.0842399597 49.5076789856 8.4470386505
17.1112670898 49.5818176270 8.2748098373
17.1418323517 49.6655426025 8.1053771973
17.1722183228 49.7487792969 7.9359087944
17.1982841492 49.8203163147 7.7632236481
17.2169666290 49.8718528748 7.5849409103
17.2271690369 49.9004173279 7.4001755714
17.2294273376 49.9074630737 7.2092976570
17.2251129150 49.8967094421 7.0133304596
17.2162227631 49.8735580444 6.8137888908
17.2055931091 49.8456993103 6.6128582954
17.1966857910 49.8225021362 6.4132289886
17.1926498413 49.8125000000 6.2173743248
17.1952705383 49.8205299377 6.0267186165
17.2044219971 49.8462486267 5.8411974907
17.2182750702 49.8847045898 5.6594066620
17.2341384888 49.9286003113 5.4792437553
17.2492942810 49.9705848694 5.2985739708
17.2613506317 50.0041694641 5.1154956818
17.2683868408 50.0241584778 4.9284672737
17.2694759369 50.0280342102 4.7367258072
17.2653579712 50.0178184509 4.5408320427
17.2585964203 50.0004310608 4.3428034782
17.2528877258 49.9859008789 4.1455922127
17.2519855499 49.9843902588 3.9522161484
17.2588138580 50.0038146973 3.7650530338
17.2750740051 50.0487823486 3.5855135918
17.3010425568 50.1200485229 3.4138727188
17.3352317810 50.2135810852 3.2489759922
17.3741703033 50.3199768066 3.0880494118
17.4131507874 50.4264831543 2.9272868633
17.4480590820 50.5219612122 2.7633373737
17.4770774841 50.6014823914 2.5946936607
17.5008239746 50.6667289734 2.4218323231
17.5211238861 50.7226371765 2.2462208271
17.5397605896 50.7740440369 2.0693089962
17.5577678680 50.8237419128 1.8919391632
17.5747795105 50.8707504272 1.7138065100
17.5889072418 50.9099388123 1.5333418846
17.5981884003 50.9360008240 1.3489038944
17.6028041840 50.9494323730 1.1606191397
17.6056480408 50.9580612183 0.9708700776
17.6106300354 50.9724845886 0.7829111814
17.6206321716 51.0004997253 0.5991616249
17.6367034912 51.0449562073 0.4205269814
17.6583881378 51.1046142578 0.2466571480
17.6842880249 51.1756896973 0.0764049515
59.9236946106 3.3027484417 79.7584762573
59.9410514832 3.3034763336 79.5752334595
59.9671478271 3.3045358658 79.3924942017
59.9940795898 3.3056271076 79.2098236084
60.0146713257 3.3064777851 79.0268249512
60.0257759094 3.3069679737 78.8433074951
60.0300216675 3.3071980476 78.6594009399
60.0335540771 3.3074009418 78.4754562378
60.0401382446 3.3077197075 78.2916870117
60.0471687317 3.3080556393 78.1079483032
60.0477600098 3.3081469536 77.9238204956
60.0360107422 3.3077700138 77.7389450073
60.0102272034 3.3068602085 77.5531768799
59.9735565186 3.3055369854 77.3666992188
59.9344100952 3.3041200638 77.1800155640
59.9050445557 3.3030743599 76.9938964844
59.8951950073 3.3027694225 76.8089904785
59.9049034119 3.3032066822 76.6253280640
59.9248542786 3.3040330410 76.4423522949
59.9442825317 3.3048393726 76.2593536377
59.9575004578 3.3054099083 76.0759582520
59.9638023376 3.3057181835 75.8921203613
59.9639930725 3.3057942390 75.7078628540
59.9585685730 3.3056573868 75.5232162476
59.9490699768 3.3053658009 75.3382797241
59.9400367737 3.3050918579 75.1533584595
59.9377326965 3.3050732613 74.9688873291
59.9454383850 3.3054347038 74.7851257324
59.9605789185 3.3060784340 74.6019058228
59.9773902893 3.3067853451 74.4188156128
59.9914627075 3.3073885441 74.2355422974
60.0011672974 3.3078258038 74.0519561768
60.0058784485 3.3080735207 73.8680114746
60.0043640137 3.3080849648 73.6836013794
59.9949874878 3.3077979088 73.4985961914
59.9769744873 3.3071832657 73.3129119873
59.9506683350 3.3062536716 73.1265716553
59.9156837463 3.3049950600 72.9395217896
59.8693733215 3.3033063412 72.7515335083
59.8092308044 3.3010928631 72.5624084473
59.7382125854 3.2984666824 72.3723297119
59.6664733887 3.2958130836 72.1821060181
59.6061782837 3.2935938835 71.9927139282
59.5643424988 3.2920751572 71.8047256470
59.5405349731 3.2912406921 71.6181564331
59.5298042297 3.2909026146 71.4326324463
59.5264968872 3.2908461094 71.2477035522
59.5262031555 3.2909040451 71.0630111694
59.5261306763 3.2909703255 70.8783416748
59.5247993469 3.2909889221 70.6935501099
59.5216903687 3.2909400463 70.5086059570
59.5169219971 3.2908282280 70.3235092163
59.5110778809 3.2906754017 70.1383132935
59.5050315857 3.2905151844 69.9530868530
59.4997825623 3.2903850079 69.7679138184
59.4961700439 3.2903170586 69.5828704834
59.4945640564 3.2903251648 69.3980026245
59.4946365356 3.2903969288 69.2132797241
59.4952621460 3.2904899120 69.0285949707
59.4943809509 3.2905256748 68.8437805176
59.4888076782 3.2903833389 68.6585159302
59.4745216370 3.2899100780 68.4724426270
59.4484901428 3.2889914513 68.2852630615
59.4114723206 3.2876558304 68.0970077515
59.3683586121 3.2860889435 67.9081344604
59.3238334656 3.2844688892 67.7190628052
59.2779693604 3.2827975750 67.5298004150
59.2288208008 3.2810018063 67.3401718140
59.1806259155 3.2792422771 67.1505584717
59.1472053528 3.2780432701 66.9623184204
59.1442375183 3.2779998779 66.7770156860
59.1762428284 3.2792835236 66.5951538086
59.2308120728 3.2814233303 66.4155578613
59.2857971191 3.2835788727 66.2360687256
59.3217887878 3.2850136757 66.0547409058
59.3276786804 3.2853062153 65.8704071045
59.2980651855 3.2842516899 65.6824722290
59.2320480347 3.2818162441 65.4907608032
59.1379966736 3.2783167362 65.2960891724
59.0360221863 3.2745168209 65.1004638672
58.9502449036 3.2713315487 64.9064025879
58.8965835571 3.2693648338 64.7155838013
58.8782310486 3.2687377930 64.5284271240
58.8898620605 3.2692482471 64.3444137573
58.9221343994 3.2705421448 64.1626129150
58.9631195068 3.2721664906 63.9817886353
59.0005493164 3.2736558914 63.8006210327
59.0261383057 3.2746958733 63.6182136536
59.0376892090 3.2752034664 63.4342994690
59.0367317200 3.2752363682 63.2490196228
59.0247230530 3.2748498917 63.0625152588
59.0016403198 3.2740435600 62.8747596741
58.9683914185 3.2728514671 62.6858367920
58.9307670593 3.2714931965 62.4963760376
58.8996467590 3.2703819275 62.3075942993
58.8840217590 3.2698583603 62.1205329895
58.8828544617 3.2698833942 61.9350967407
58.8857040405 3.2700610161 61.7501144409
58.8820381165 3.2699911594 61.5643768311
58.8681793213 3.2695348263 61.3774490356
58.8453750610 3.2687389851 61.1894569397
58.8140716553 3.2676205635 61.0004310608
58.7721557617 3.2660996914 60.8101081848
58.7182312012 3.2641234398 60.6183090210
58.6553497314 3.2618072033 60.4253654480
58.5909881592 3.2594351768 60.2321624756
58.5331344604 3.2573096752 60.0396575928
58.4862251282 3.2555994987 59.8484001160
58.4512863159 3.2543435097 59.6585350037
58.4292449951 3.2535769939 59.4701995850
58.4219284058 3.2533688545 59.2836456299
58.4287681580 3.2536976337 59.0988235474
58.4443321228 3.2543575764 58.9150924683
58.4609489441 3.2550573349 58.7315025330
58.4732475281 3.2555932999 58.5473899841
58.4794883728 3.2558996677 58.3625221252
58.4796943665 3.2559766769 58.1768951416
58.4734954834 3.2558112144 57.9904479980
58.4596176147 3.2553541660 57.8030014038
58.4371261597 3.2545704842 57.6144294739
58.4072036743 3.2535047531 57.4248619080
58.3733100891 3.2522885799 57.2347335815
58.3395118713 3.2510759830 57.0445747375
58.3092536926 3.2499978542 56.8548316956
58.2852210999 3.2491557598 56.6658630371
58.2685127258 3.2485914230 56.4778327942
58.2576332092 3.2482483387 56.2905502319
58.2495346069 3.2480106354 56.1036186218
58.2420654297 3.2477967739 55.9167594910
58.2351875305 3.2476055622 55.7299652100
58.2295112610 3.2474596500 55.5433197021
58.2233734131 3.2472965717 55.3566017151
58.2111434937 3.2469022274 55.1690330505
58.1854209900 3.2459959984 54.9795951843
58.1444396973 3.2445111275 54.7880096436
58.1003799438 3.2429094315 54.5959434509
58.0775337219 3.2421126366 54.4067726135
58.0945930481 3.2428290844 54.2231521606
58.1458129883 3.2448415756 54.0443458557
58.2025566101 3.2470631599 53.8663787842
58.2336082458 3.2483105659 53.6848373413
58.2229537964 3.2479758263 53.4973907471
58.1732978821 3.2461621761 53.3043441772
58.0995941162 3.2434363365 53.1077766418
58.0191993713 3.2404568195 52.9101486206
57.9444160461 3.2376902103 52.7132263184
57.8825263977 3.2354125977 52.5180816650
57.8398399353 3.2338633537 52.3256607056
57.8208236694 3.2332115173 52.1366577148
57.8226814270 3.2333517075 51.9507026672
57.8350944519 3.2338922024 51.7663078308
57.8473091125 3.2344250679 51.5818939209
57.8543052673 3.2347600460 51.3967132568
57.8565063477 3.2349133492 51.2108154297
57.8560867310 3.2349669933 51.0245208740
57.8543777466 3.2349717617 50.8380241394
57.8511962891 3.2349209785 50.6513023376
57.8451118469 3.2347598076 50.4641227722
57.8343963623 3.2344231606 50.2762260437
57.8187179565 3.2338981628 50.0875473022
57.8003196716 3.2332701683 49.8984260559
57.7831993103 3.2326905727 49.7094688416
57.7707939148 3.2322897911 49.5212249756
57.7644767761 3.2321200371 49.3339080811
57.7638816833 3.2321670055 49.1474800110
57.7680244446 3.2323937416 48.9617881775
57.7761192322 3.2327706814 48.7767219543
57.7879295349 3.2332880497 48.5922508240
57.8037414551 3.2339572906 48.4084281921
57.8237228394 3.2347848415 48.2252883911
57.8466682434 3.2357246876 48.0426445007
57.8692245483 3.2366497517 47.8599624634
57.8868675232 3.2373883724 47.6765060425
57.8959732056 3.2378034592 47.4916839600
57.8950386047 3.2378375530 47.3052253723
57.8846092224 3.2375118732 47.1172065735
57.8671875000 3.2369208336 46.9280242920
57.8470420837 3.2362267971 46.7383613586
57.8286628723 3.2355995178 46.5489654541
57.8139686584 3.2351119518 46.3601493835
57.8001098633 3.2346563339 46.1714515686
57.7797775269 3.2339549065 45.9816474915
57.7448921204 3.2327020168 45.7893676758
57.6928749084 3.2307994366 45.5941429138
57.6304893494 3.2285034657 45.3970947266
57.5701866150 3.2262868881 45.2003173828
57.5216789246 3.2245173454 45.0054702759
57.4871635437 3.2232782841 44.8129577637
57.4635276794 3.2224521637 44.6222648621
57.4468040466 3.2218878269 44.4327278137
57.4343605042 3.2214858532 44.2439117432
57.4248161316 3.2211937904 44.0555725098
57.4174003601 3.2209823132 43.8675918579
57.4115104675 3.2208287716 43.6798629761
57.4065208435 3.2207095623 43.4922828674
57.4017028809 3.2205967903 43.3047180176
57.3960800171 3.2204535007 43.1170005798
57.3882904053 3.2202279568 42.9288864136
57.3765907288 3.2198541164 42.7400627136
57.3596687317 3.2192823887 42.5502815247
57.3380470276 3.2185325623 42.3596343994
57.3147659302 3.2177195549 42.1686553955
57.2940330505 3.2170035839 41.9781036377
57.2788314819 3.2164971828 41.7885208130
57.2695350647 3.2162146568 41.5999908447
57.2642135620 3.2160825729 41.4121704102
57.2592086792 3.2159628868 41.2243957520
57.2492752075 3.2156560421 41.0357017517
57.2281455994 3.2149248123 40.8449287415
57.1906700134 3.2135739326 40.6510963440
57.1359863281 3.2115709782 40.4540138245
57.0694198608 3.2091171741 40.2546463013
57.0009193420 3.2065901756 40.0548248291
56.9404411316 3.2043673992 39.8564224243
56.8933410645 3.2026517391 39.6604537964
56.8594055176 3.2014353275 39.4669075012
56.8352127075 3.2005879879 39.2751617432
56.8166732788 3.1999552250 39.0844573975
56.7999649048 3.1993918419 38.8940696716
56.7819709778 3.1987798214 38.7034149170
56.7613754272 3.1980690956 38.5122299194
56.7394676208 3.1973087788 38.3207626343
56.7187881470 3.1965947151 38.1294975281
56.7001228333 3.1959571838 37.9385948181
56.6799621582 3.1952631474 37.7473716736
56.6503753662 3.1942114830 37.5542793274
56.6025886536 3.1924700737 37.3575782776
56.5339355469 3.1899378300 37.1567153931
56.4534759521 3.1869578362 36.9534378052
56.3793373108 3.1842176914 36.7513008118
56.3277206421 3.1823310852 36.5535316467
56.3027076721 3.1814532280 36.3609848022
56.2960510254 3.1812710762 36.1720657349
56.2955741882 3.1813230515 35.9843711853
56.2930641174 3.1812980175 35.7962646484
56.2859001160 3.1810967922 35.6072082520
56.2742538452 3.1807253361 35.4172363281
56.2578544617 3.1801741123 35.2262763977
56.2337875366 3.1793320179 35.0337371826
56.1958847046 3.1779654026 34.8383369446
56.1377449036 3.1758317947 34.6387443542
56.0593376160 3.1729302406 34.4349136353
55.9711685181 3.1696584225 34.2289695740
55.8893203735 3.1666264534 34.0242156982
55.8250007629 3.1642587185 33.8229827881
55.7792625427 3.1625952721 33.6255264282
55.7467155457 3.1614320278 33.4307556152
55.7217521667 3.1605563164 33.2375259399
55.7012062073 3.1598477364 33.0451812744
55.6835136414 3.1592473984 32.8534088135
55.6670989990 3.1586956978 32.6618804932
55.6496467590 3.1581046581 32.4701042175
55.6286773682 3.1573803425 32.2775573730
55.6029472351 3.1564753056 32.0839614868
55.5731582642 3.1554167271 31.8894672394
55.5410995483 3.1542720795 31.6944427490
55.5082054138 3.1530957222 31.4991931915
55.4752464294 3.1519169807 31.3038825989
55.4418029785 3.1507198811 31.1084213257
55.4044227600 3.1493735313 30.9120616913
55.3573303223 3.1476593018 30.7135410309
55.2990570068 3.1455211639 30.5125198364
55.2382278442 3.1432862282 30.3108596802
55.1888122559 3.1414837837 30.1116218567
55.1578979492 3.1403827667 29.9163799286
55.1392974854 3.1397483349 29.7238082886
55.1189842224 3.1390488148 29.5308284760
55.0859527588 3.1378676891 29.3350009918
55.0395278931 3.1361787319 29.1361522675
54.9893341064 3.1343472004 28.9363975525
54.9493255615 3.1329014301 28.7388515472
54.9304847717 3.1322579384 28.5459938049
54.9363327026 3.1325502396 28.3586578369
54.9619903564 3.1335930824 28.1757869720
54.9958953857 3.1349484921 27.9948081970
55.0242309570 3.1360929012 27.8126049042
55.0364074707 3.1366248131 27.6267585754
55.0280151367 3.1363773346 27.4362373352
55.0002174377 3.1353945732 27.2412662506
54.9579658508 3.1338639259 27.0429401398
54.9088478088 3.1320731640 26.8429813385
54.8614425659 3.1303474903 26.6433486938
54.8221206665 3.1289279461 26.4455184937
54.7916221619 3.1278429031 26.2496795654
54.7644386292 3.1268832684 26.0545654297
54.7326087952 3.1257479191 25.8583316803
54.6918067932 3.1242723465 25.6599559784
54.6447715759 3.1225607395 25.4600639343
54.5988388062 3.1208908558 25.2603664398
54.5600967407 3.1194934845 25.0622997284
54.5301666260 3.1184298992 24.8662605286
54.5075454712 3.1176433563 24.6719074249
54.4903030396 3.1170608997 24.4787979126
54.4771080017 3.1166315079 24.2866249084
54.4664993286 3.1163001060 24.0950469971
54.4558868408 3.1159689426 23.9034519196
54.4414634705 3.1154930592 23.7109222412
54.4195098877 3.1147317886 23.5165576935
54.3883705139 3.1136226654 23.3199481964
54.3492546082 3.1122114658 23.1213645935
54.3046913147 3.1105935574 22.9214057922
54.2556686401 3.1088068485 22.7203025818
54.2002563477 3.1067781448 22.5175781250
54.1355972290 3.1043989658 22.3125171661
54.0610466003 3.1016452312 22.1049480438
53.9792518616 3.0986168385 21.8955020905
53.8953056335 3.0955071449 21.6854190826
53.8158760071 3.0925683975 21.4763374329
53.7476806641 3.0900557041 21.2699317932
53.6945343018 3.0881128311 21.0671672821
53.6552658081 3.0866959095 20.8677825928
53.6243820190 3.0855967999 20.6704349518
53.5942192078 3.0845248699 20.4732227325
53.5576553345 3.0832104683 20.2743644714
53.5115203857 3.0815336704 20.0730495453
53.4586601257 3.0796020031 19.8699779510
53.4056167603 3.0776631832 19.6667881012
53.3572692871 3.0759024620 19.4647159576
53.3137550354 3.0743250847 19.2638034821
53.2723236084 3.0728263855 19.0633621216
53.2313995361 3.0713469982 18.8629913330
53.1926422119 3.0699496269 18.6631183624
53.1593666077 3.0687601566 18.4645957947
53.1331176758 3.0678367615 18.2678318024
53.1112976074 3.0670812130 18.0721702576
53.0869712830 3.0662307739 17.8758296967
53.0511474609 3.0649445057 17.6764774323
52.9975967407 3.0629870892 17.4724769592
52.9281845093 3.0604286194 17.2642803192
52.8534889221 3.0576698780 17.0546112061
52.7865867615 3.0552065372 16.8468818665
52.7352828979 3.0533342361 16.6431465149
52.6994476318 3.0520479679 16.4434051514
52.6737060547 3.0511438847 16.2462692261
52.6512489319 3.0503644943 16.0499629974
52.6263999939 3.0494945049 15.8529891968
52.5959739685 3.0484130383 15.6545019150
52.5593223572 3.0470957756 15.4543161392
52.5169334412 3.0455613136 15.2525520325
52.4689598083 3.0438153744 15.0492382050
52.4150695801 3.0418450832 14.8442754745
52.3555374146 3.0396614075 14.6377267838
52.2928924561 3.0373597145 14.4302606583
52.2329406738 3.0351600647 14.2234363556
52.1829986572 3.0333395004 14.0192356110
52.1476669312 3.0320725441 13.8189220428
52.1262283325 3.0313317776 13.6223297119
52.1141395569 3.0309453011 13.4282484055
52.1064147949 3.0307238102 13.2353353500
52.0997962952 3.0305445194 13.0427112579
52.0931854248 3.0303654671 12.8500747681
52.0871887207 3.0302097797 12.6575946808
52.0834693909 3.0301403999 12.4657287598
52.0839767456 3.0302309990 12.2750186920
52.0904731750 3.0305483341 12.0859594345
52.1046638489 3.0311572552 11.8990354538
52.1288146973 3.0321435928 11.7148895264
52.1657905579 3.0336153507 11.5343389511
52.2173690796 3.0356404781 11.3579044342
52.2812538147 3.0381314754 11.1849689484
52.3497810364 3.0407984257 11.0134105682
52.4128341675 3.0432579517 10.8403959274
52.4625129700 3.0452108383 10.6636915207
52.4950866699 3.0465159416 10.4822206497
52.5099563599 3.0471503735 10.2957782745
52.5085983276 3.0471704006 10.1047525406
52.4937362671 3.0466787815 9.9098844528
52.4674377441 3.0457539558 9.7117376328
52.4301719666 3.0444138050 9.5104227066
52.3829040527 3.0426950455 9.3061981201
52.3297309875 3.0407526493 9.1002159119
52.2766189575 3.0388123989 8.8941783905
52.2273826599 3.0370190144 8.6891851425
52.1821022034 3.0353753567 8.4852647781
52.1397705078 3.0338437557 8.2821359634
52.1011428833 3.0324521065 8.0800209045
52.0679244995 3.0312654972 7.8794231415
52.0395698547 3.0302631855 7.6801924706
52.0114593506 3.0292699337 7.4809918404
51.9764022827 3.0280137062 7.2797212601
51.9281654358 3.0262584686 7.0745420456
51.8645133972 3.0239193439 6.8647732735
51.7878990173 3.0210893154 6.6511063576
51.7037200928 3.0179729462 6.4351086617
51.6171798706 3.0147671700 6.2183017731
51.5303916931 3.0115520954 6.0013070107
51.4421920776 3.0082833767 5.7837786674
51.3510742188 3.0049045086 5.5652675629
51.2577667236 3.0014426708 5.3459835052
51.1648864746 2.9979968071 5.1267032623
51.0761108398 2.9947068691 4.9085297585
50.9969329834 2.9917800426 4.6931157112
50.9343566895 2.9894821644 4.4825839996
50.8942375183 2.9880344868 4.2787284851
50.8797187805 2.9875564575 4.0825409889
50.8932533264 2.9881408215 3.8948113918
50.9393997192 2.9899599552 3.7169721127
51.0239105225 2.9932320118 3.5508337021
51.1481513977 2.9980082512 3.3968830109
51.3034095764 3.0039591789 3.2525389194
51.4717216492 3.0104043484 3.1123735905
51.6340103149 3.0166211128 2.9705724716
51.7785301208 3.0221652985 2.8235204220
51.9027061462 3.0269389153 2.6703941822
52.0084381104 3.0310139656 2.5117383003
52.0963859558 3.0344157219 2.3477227688
