-57.9803695679 -10.4759225845 47.7707595825
-57.9827690125 -10.4778623581 47.5829162598
-57.9700355530 -10.4769926071 47.3926734924
-57.9357109070 -10.4721117020 47.1989822388
-57.8693542480 -10.4612808228 47.0001411438
-57.7648963928 -10.4433755875 46.7951164246
-57.6296730042 -10.4197568893 46.5850181580
-57.4840354919 -10.3942050934 46.3730659485
-57.3491859436 -10.3706588745 46.1626701355
-57.2346496582 -10.3508863449 45.9553985596
-57.1371002197 -10.3342695236 45.7507476807
-57.0503311157 -10.3196554184 45.5477294922
-56.9776153564 -10.3076524734 45.3469009399
-56.9347229004 -10.3011884689 45.1508903503
-56.9371299744 -10.3031358719 44.9623107910
-56.9834442139 -10.3132362366 44.7810134888
-57.0557708740 -10.3281660080 44.6041030884
-57.1371574402 -10.3447780609 44.4287834167
-57.2240867615 -10.3624181747 44.2544860840
-57.3207588196 -10.3818664551 44.0819282532
-57.4256782532 -10.4028444290 43.9108772278
-57.5271186829 -10.4231758118 43.7393531799
-57.6107597351 -10.4402027130 43.5649147034
-57.6690902710 -10.4525299072 43.3862457275
-57.7031822205 -10.4603557587 43.2034797668
-57.7179298401 -10.4645910263 43.0174179077
-57.7174072266 -10.4659919739 42.8287239075
-57.7033348083 -10.4648771286 42.6376724243
-57.6749382019 -10.4611043930 42.4441032410
-57.6286354065 -10.4540081024 42.2473640442
-57.5584907532 -10.4424867630 42.0463829041
-57.4584884644 -10.4254236221 41.8400535583
-57.3262863159 -10.4023866653 41.6279106140
-57.1679420471 -10.3744993210 41.4109649658
-57.0025177002 -10.3452978134 41.1925582886
-56.8613815308 -10.3206071854 40.9782752991
-56.7764930725 -10.3063564301 40.7738685608
-56.7627601624 -10.3053102493 40.5821266174
-56.8098182678 -10.3155460358 40.4013099670
-56.8919219971 -10.3322858810 40.2268753052
-56.9872665405 -10.3514804840 40.0549392700
-57.0892829895 -10.3719120026 39.8843231201
-57.2012557983 -10.3941907883 39.7156410217
-57.3231163025 -10.4183034897 39.5489006042
-57.4459915161 -10.4426031113 39.3824882507
-57.5580825806 -10.4649000168 39.2142295837
-57.6516113281 -10.4837522507 39.0426635742
-57.7231140137 -10.4985179901 38.8671150208
-57.7710990906 -10.5089197159 38.6872634888
-57.7961311340 -10.5150623322 38.5031700134
-57.8016281128 -10.5175809860 38.3154373169
-57.7921638489 -10.5173244476 38.1248855591
-57.7701988220 -10.5147485733 37.9319572449
-57.7336120605 -10.5094614029 37.7362213135
-57.6754112244 -10.5001649857 37.5363235474
-57.5872688293 -10.4853153229 37.3306388855
-57.4666442871 -10.4644412994 37.1186256409
-57.3220558167 -10.4391250610 36.9018592834
-57.1701164246 -10.4124460220 36.6834907532
-57.0267562866 -10.3873596191 36.4665794373
-56.9029350281 -10.3658981323 36.2532691956
-56.8085327148 -10.3498945236 36.0455169678
-56.7547950745 -10.3414335251 35.8455619812
-56.7471313477 -10.3415174484 35.6545448303
-56.7765960693 -10.3484869003 35.4707908630
-56.8238792419 -10.3587598801 35.2905731201
-56.8731575012 -10.3694028854 35.1107940674
-56.9210128784 -10.3797807693 34.9307861328
-56.9744987488 -10.3912029266 34.7519493103
-57.0432357788 -10.4054527283 34.5762062073
-57.1309661865 -10.4232234955 34.4043350220
-57.2302093506 -10.4431276321 34.2348709106
-57.3244285583 -10.4620990753 34.0645103455
-57.3975753784 -10.4771642685 33.8900108337
-57.4427871704 -10.4870481491 33.7099342346
-57.4628486633 -10.4922704697 33.5248031616
-57.4642105103 -10.4940252304 33.3358840942
-57.4511566162 -10.4931077957 33.1440124512
-57.4233551025 -10.4894571304 32.9490966797
-57.3761177063 -10.4822025299 32.7501449585
-57.3032150269 -10.4701919556 32.5458374023
-57.2027397156 -10.4530715942 32.3357353210
-57.0822639465 -10.4322452545 32.1213531494
-56.9567642212 -10.4104881287 31.9057731628
-56.8398208618 -10.3903188705 31.6918106079
-56.7398681641 -10.3732986450 31.4812488556
-56.6676063538 -10.3614130020 31.2763633728
-56.6410484314 -10.3579978943 31.0809917450
-56.6726875305 -10.3653688431 30.8978538513
-56.7507324219 -10.3813400269 30.7245655060
-56.8409652710 -10.3995676041 30.5539512634
-56.9102745056 -10.4139184952 30.3789844513
-56.9468078613 -10.4221944809 30.1971015930
-56.9621772766 -10.4265489578 30.0107250214
-56.9817199707 -10.4316759109 29.8252525330
-57.0296592712 -10.4420642853 29.6459102631
-57.1125297546 -10.4589252472 29.4741573334
-57.2109336853 -10.4786643982 29.3058624268
-57.2897224426 -10.4947671890 29.1334209442
-57.3200531006 -10.5018911362 28.9505157471
-57.2946701050 -10.4986934662 28.7554759979
-57.2263526917 -10.4875411987 28.5509929657
-57.1353378296 -10.4721860886 28.3414344788
-57.0374298096 -10.4555540085 28.1302375793
-56.9397773743 -10.4389696121 27.9189662933
-56.8432464600 -10.4225959778 27.7078132629
-56.7452507019 -10.4059505463 27.4962081909
-56.6411628723 -10.3881778717 27.2831153870
-56.5284461975 -10.3688077927 27.0679607391
-56.4132385254 -10.3489780426 26.8521003723
-56.3116874695 -10.3316783905 26.6391525269
-56.2419586182 -10.3202743530 26.4332370758
-56.2137374878 -10.3165588379 26.2365951538
-56.2240867615 -10.3199872971 26.0486431122
-56.2617301941 -10.3284692764 25.8668880463
-56.3152580261 -10.3398933411 25.6887874603
-56.3785476685 -10.3531246185 25.5129718781
-56.4492263794 -10.3677234650 25.3389167786
-56.5236854553 -10.3830223083 25.1658058167
-56.5959625244 -10.3979167938 24.9922771454
-56.6612777710 -10.4115209579 24.8172225952
-56.7185020447 -10.4236268997 24.6403694153
-56.7686347961 -10.4344177246 24.4619312286
-56.8124198914 -10.4440345764 24.2820720673
-56.8503379822 -10.4525642395 24.1008892059
-56.8834266663 -10.4601993561 23.9186153412
-56.9123268127 -10.4670581818 23.7353916168
-56.9353065491 -10.4728212357 23.5508022308
-56.9483337402 -10.4767417908 23.3638896942
-56.9472198486 -10.4780445099 23.1736412048
-56.9288291931 -10.4761476517 22.9792919159
-56.8902969360 -10.4705247879 22.7801265717
-56.8290328979 -10.4606933594 22.5754928589
-56.7448539734 -10.4466199875 22.3653049469
-56.6415596008 -10.4290103912 22.1504268646
-56.5252265930 -10.4089879990 21.9322853088
-56.4016418457 -10.3876237869 21.7122459412
-56.2767982483 -10.3660297394 21.4917411804
-56.1591720581 -10.3457717896 21.2728195190
-56.0591850281 -10.3287792206 21.0580177307
-55.9850273132 -10.3165683746 20.8493633270
-55.9386978149 -10.3095092773 20.6473884583
-55.9160232544 -10.3068275452 20.4511260986
-55.9100494385 -10.3072366714 20.2589168549
-55.9143753052 -10.3095521927 20.0692195892
-55.9243507385 -10.3129119873 19.8809089661
-55.9368362427 -10.3167371750 19.6932220459
-55.9500427246 -10.3206968307 19.5057201385
-55.9639511108 -10.3247852325 19.3183994293
-55.9803352356 -10.3293313980 19.1317024231
-56.0008354187 -10.3346385956 18.9460411072
-56.0229492188 -10.3402452469 18.7608032227
-56.0377082825 -10.3444910049 18.5737380981
-56.0332069397 -10.3451728821 18.3818473816
-56.0023994446 -10.3409881592 18.1833209991
-55.9472923279 -10.3323087692 17.9786167145
-55.8752288818 -10.3204927444 17.7695465088
-55.7921752930 -10.3066444397 17.5575904846
-55.6999473572 -10.2911005020 17.3431930542
-55.5976982117 -10.2737035751 17.1261157990
-55.4837951660 -10.2541522980 16.9059295654
-55.3580894470 -10.2324180603 16.6825695038
-55.2257804871 -10.2094650269 16.4573516846
-55.0995521545 -10.1876373291 16.2335262299
-54.9949531555 -10.1698112488 16.0151119232
-54.9217720032 -10.1577968597 15.8046817780
-54.8798332214 -10.1515626907 15.6022481918
-54.8622322083 -10.1498279572 15.4060735703
-54.8612747192 -10.1511735916 15.2142038345
-54.8723564148 -10.1547441483 15.0254650116
-54.8947715759 -10.1604108810 14.8396959305
-54.9300041199 -10.1684474945 14.6573057175
-54.9783058167 -10.1789016724 14.4783868790
-55.0363655090 -10.1911582947 14.3020887375
-55.0983886719 -10.2041482925 14.1269006729
-55.1587104797 -10.2168226242 13.9513301849
-55.2121429443 -10.2282228470 13.7739973068
-55.2524871826 -10.2372026443 13.5932407379
-55.2729034424 -10.2424974442 13.4072132111
-55.2694740295 -10.2433834076 13.2148313522
-55.2447204590 -10.2403278351 13.0167255402
-55.2067718506 -10.2348327637 12.8150396347
-55.1638183594 -10.2284135818 12.6119508743
-55.1183929443 -10.2215375900 12.4081325531
-55.0663490295 -10.2134380341 12.2024612427
-55.0006141663 -10.2028083801 11.9930067062
-54.9159393311 -10.1886787415 11.7783193588
-54.8115043640 -10.1708984375 11.5581426620
-54.6912918091 -10.1502017975 11.3335227966
-54.5636863708 -10.1281404495 11.1067247391
-54.4402694702 -10.1068544388 10.8809070587
-54.3324203491 -10.0884466171 10.6592016220
-54.2460784912 -10.0740146637 10.4432735443
-54.1785736084 -10.0630664825 10.2324266434
-54.1218795776 -10.0541152954 10.0244741440
-54.0715293884 -10.0463380814 9.8182010651
-54.0335350037 -10.0408439636 9.6152877808
-54.0221214294 -10.0402631760 9.4197168350
-54.0514717102 -10.0472145081 9.2354927063
-54.1322555542 -10.0636692047 9.0656757355
-54.2756500244 -10.0916929245 8.9134922028
-54.4926109314 -10.1333084106 8.7821350098
-54.7800178528 -10.1879377365 8.6708621979
-55.1080017090 -10.2500610352 8.5713815689
-55.4292526245 -10.3109378815 8.4703960419
-55.7058410645 -10.3635597229 8.3571481705
-55.9270744324 -10.4059524536 8.2285175323
-56.1043014526 -10.4402132034 8.0876321793
-56.2537765503 -10.4693450928 7.9390435219
-56.3847427368 -10.4950571060 7.7853436470
-56.4983406067 -10.5175580978 7.6268219948
-56.5926666260 -10.5364990234 7.4629015923
-56.6676673889 -10.5518693924 7.2935314178
-56.7261314392 -10.5641851425 7.1194782257
-56.7713356018 -10.5740499496 6.9416580200
-56.8050155640 -10.5817861557 6.7605495453
-56.8277435303 -10.5874996185 6.5762958527
-56.8403205872 -10.5913372040 6.3891110420
-56.8441772461 -10.5935659409 6.1993927956
-56.8407974243 -10.5944566727 6.0075564384
-56.8310165405 -10.5941658020 5.8138351440
-56.8145561218 -10.5926427841 5.6181344986
-56.7897338867 -10.5895738602 5.4199466705
-56.7537956238 -10.5844535828 5.2184462547
-56.7045440674 -10.5768756866 5.0129642487
-56.6429328918 -10.5670156479 4.8037576675
-56.5741348267 -10.5558280945 4.5923352242
-56.5052146912 -10.5446205139 4.3807830811
-56.4421234131 -10.5344886780 4.1708707809
-56.3906250000 -10.5264987946 3.9643275738
-56.3598785400 -10.5223407745 3.7639122009
-56.3620223999 -10.5242547989 3.5732977390
-56.4058723450 -10.5338687897 3.3951892853
-56.4906120300 -10.5510320663 3.2294211388
-56.6047325134 -10.5736179352 3.0725996494
-56.7295417786 -10.5981769562 2.9191391468
-56.8451614380 -10.6210374832 2.7630431652
-56.9373130798 -10.6395645142 2.5999686718
-57.0015373230 -10.6529369354 2.4285168648
-57.0415229797 -10.6618328094 2.2497570515
-57.0636062622 -10.6674261093 2.0655791759
-57.0726547241 -10.6706113815 1.8774346113
-57.0712852478 -10.6718750000 1.6861032248
-57.0608940125 -10.6714725494 1.4919917583
-57.0422592163 -10.6695499420 1.2953245640
-57.0152854919 -10.6660881042 1.0960559845
-56.9786529541 -10.6608438492 0.8937628269
-56.9310264587 -10.6535720825 0.6880149841
-56.8740959167 -10.6445827484 0.4793138504
-56.8145599365 -10.6351146698 0.2697250247
-56.7618675232 -10.6269083023 0.0621817708
-16.5019359589 29.7102127075 90.7782363892
-16.5246124268 29.7563934326 90.5797729492
-16.5635395050 29.8362236023 90.3824081421
-16.6121463776 29.9361019135 90.1857757568
-16.6641578674 30.0430297852 89.9895019531
-16.7162570953 30.1501445770 89.7933731079
-16.7680931091 30.2567081451 89.5973663330
-16.8195381165 30.3624687195 89.4014663696
-16.8681659698 30.4623889923 89.2055053711
-16.9093799591 30.5469608307 89.0091247559
-16.9386234283 30.6067447662 88.8119506836
-16.9529209137 30.6355724335 88.6137084961
-16.9501953125 30.6291503906 88.4141616821
-16.9285392761 30.5835227966 88.2130889893
-16.8886756897 30.5001888275 88.0104751587
-16.8380393982 30.3945407867 87.8068466187
-16.7899436951 30.2941570282 87.6032791138
-16.7559185028 30.2229137421 87.4007644653
-16.7388381958 30.1867580414 87.1996154785
-16.7342185974 30.1764106750 86.9995040894
-16.7368011475 30.1809787750 86.8000183105
-16.7450180054 30.1972179413 86.6010437012
-16.7609844208 30.2294998169 86.4028015137
-16.7880840302 30.2848453522 86.2056427002
-16.8284168243 30.3675937653 86.0098114014
-16.8817539215 30.4772720337 85.8153457642
-16.9465522766 30.6106910706 85.6221542358
-17.0209140778 30.7639179230 85.4300842285
-17.1014728546 30.9299774170 85.2388458252
-17.1821289063 31.0962390900 85.0478439331
-17.2553787231 31.2471637726 84.8562927246
-17.3152980804 31.3704795837 84.6635360718
-17.3595447540 31.4613380432 84.4692687988
-17.3894100189 31.5224170685 84.2735595703
-17.4083957672 31.5609569550 84.0767364502
-17.4201507568 31.5845241547 83.8791580200
-17.4268169403 31.5975532532 83.6810226440
-17.4283447266 31.5999412537 83.4823226929
-17.4227237701 31.5875205994 83.2827835083
-17.4071903229 31.5545730591 83.0820693970
-17.3802642822 31.4980297089 82.8799438477
-17.3435344696 31.4211807251 82.6765670776
-17.3025531769 31.3355255127 82.4725570679
-17.2673549652 31.2618484497 82.2691345215
-17.2515811920 31.2283992767 82.0680084229
-17.2677898407 31.2611904144 81.8708343506
-17.3207015991 31.3699989319 81.6783599854
-17.4041042328 31.5419597626 81.4899368286
-17.5035266876 31.7470989227 81.3038253784
-17.6022911072 31.9508743286 81.1178970337
-17.6886806488 32.1290245056 80.9306106567
-17.7608566284 32.2777328491 80.7416534424
-17.8248348236 32.4094696045 80.5517807007
-17.8862934113 32.5359802246 80.3617401123
-17.9440574646 32.6548461914 80.1713562012
-17.9914150238 32.7521591187 79.9796752930
-18.0223674774 32.8154907227 79.7858047485
-18.0359439850 32.8428344727 79.5895309448
-18.0360965729 32.8423767090 79.3913574219
-18.0293827057 32.8276939392 79.1921768188
-18.0223655701 32.8123893738 78.9929199219
-18.0197048187 32.8060989380 78.7942810059
-18.0237693787 32.8137435913 78.5966339111
-18.0352058411 32.8366584778 78.4001083374
-18.0528030396 32.8723297119 78.2045440674
-18.0731220245 32.9136390686 78.0094375610
-18.0919666290 32.9519004822 77.8141555786
-18.1073398590 32.9829635620 77.6183700562
-18.1211204529 33.0107345581 77.4223709106
-18.1383914948 33.0457305908 77.2269592285
-18.1657676697 33.1016578674 77.0332107544
-18.2096347809 33.1917419434 76.8422241211
-18.2736377716 33.3235359192 76.6546554565
-18.3558750153 33.4930992126 76.4702835083
-18.4482803345 33.6837234497 76.2878341675
-18.5397071838 33.8723220825 76.1054763794
-18.6206283569 34.0391616821 75.9215850830
-18.6865406036 34.1749114990 75.7353439331
-18.7394790649 34.2837944031 75.5470504761
-18.7871589661 34.3817825317 75.3579788208
-18.8379898071 34.4862976074 75.1695861816
-18.8938121796 34.6011505127 74.9822158813
-18.9473476410 34.7112731934 74.7945861816
-18.9875316620 34.7937355042 74.6047058105
-19.0064716339 34.8321952820 74.4110717773
-19.0017967224 34.8217430115 74.2131729126
-18.9758930206 34.7673149109 74.0113372803
-18.9356670380 34.6832237244 73.8067626953
-18.8914432526 34.5908470154 73.6013107300
-18.8532848358 34.5110359192 73.3968734741
-18.8278026581 34.4574851990 73.1947174072
-18.8188591003 34.4381866455 72.9956512451
-18.8296337128 34.4597320557 72.8003463745
-18.8620281219 34.5260620117 72.6092681885
-18.9144554138 34.6338882446 72.4221954346
-18.9818782806 34.7727775574 72.2382202148
-19.0582351685 34.9301719666 72.0561981201
-19.1380825043 35.0947990417 71.8750915527
-19.2162799835 35.2560081482 71.6938705444
-19.2877750397 35.4033355713 71.5115051270
-19.3489608765 35.5293083191 71.3272323608
-19.3994693756 35.6331634521 71.1409225464
-19.4427795410 35.7221107483 70.9532623291
-19.4847755432 35.8083343506 70.7654418945
-19.5296478271 35.9005203247 70.5783386230
-19.5754299164 35.9945831299 70.3915481567
-19.6140518188 36.0738220215 70.2033538818
-19.6368808746 36.1203422546 70.0118789673
-19.6403865814 36.1268348694 69.8162841797
-19.6278724670 36.1001472473 69.6172180176
-19.6076755524 36.0575408936 69.4164199829
-19.5895042419 36.0191307068 69.2160034180
-19.5809059143 36.0005531311 69.0176467896
-19.5862903595 36.0109367371 68.8223800659
-19.6081008911 36.0553512573 68.6307983398
-19.6471176147 36.1354064941 68.4431610107
-19.7012290955 36.2467308044 68.2590560913
-19.7659053802 36.3799400330 68.0775146484
-19.8372077942 36.5268783569 67.8976745605
-19.9135284424 36.6842117310 67.7191925049
-19.9934482574 36.8490066528 67.5417633057
-20.0730400085 37.0131187439 67.3644790649
-20.1464214325 37.1643676758 67.1859436035
-20.2085990906 37.2924041748 67.0049591064
-20.2574806213 37.3928985596 66.8209609985
-20.2940959930 37.4679908752 66.6341476440
-20.3216705322 37.5243453979 66.4452514648
-20.3443584442 37.5705795288 66.2552337646
-20.3662357330 37.6151351929 66.0650787354
-20.3901634216 37.6639442444 65.8754730225
-20.4162216187 37.7171592712 65.6864624023
-20.4409217834 37.7675666809 65.4971771240
-20.4592208862 37.8047065735 65.3063507080
-20.4687461853 37.8236770630 65.1133651733
-20.4726772308 37.8310585022 64.9189758301
-20.4783954620 37.8421401978 64.7250442505
-20.4931621552 37.8719673157 64.5334396362
-20.5208015442 37.9284591675 64.3451843262
-20.5616512299 38.0123252869 64.1604156494
-20.6145915985 38.1212348938 63.9789085388
-20.6787052155 38.2532920837 63.8004684448
-20.7530975342 38.4066467285 63.6249084473
-20.8351173401 38.5757980347 63.4515724182
-20.9195346832 38.7499237061 63.2791023254
-21.0003414154 38.9165649414 63.1058998108
-21.0731124878 39.0665664673 62.9307632446
-21.1355381012 39.1951293945 62.7530250549
-21.1865806580 39.3001136780 62.5723648071
-21.2262248993 39.3814849854 62.3887252808
-21.2557888031 39.4419746399 62.2024230957
-21.2776699066 39.4865455627 62.0140724182
-21.2944221497 39.5204887390 61.8243560791
-21.3080921173 39.5480499268 61.6338157654
-21.3201007843 39.5721664429 61.4428405762
-21.3307991028 39.5935745239 61.2515220642
-21.3389511108 39.6097030640 61.0595016479
-21.3432331085 39.6178131104 60.8663978577
-21.3458747864 39.6225280762 60.6728248596
-21.3534698486 39.6375045776 60.4806747437
-21.3720302582 39.6751976013 60.2917137146
-21.4024085999 39.7373733521 60.1062278748
-21.4425811768 39.8198394775 59.9236793518
-21.4925670624 39.9226417542 59.7441215515
-21.5542564392 40.0496902466 59.5681457520
-21.6270275116 40.1996955872 59.3956260681
-21.7058544159 40.3622550964 59.2251129150
-21.7840957642 40.5235939026 59.0546417236
-21.8567848206 40.6734352112 58.8827133179
-21.9210758209 40.8058776855 58.7084541321
-21.9752025604 40.9172630310 58.5312805176
-22.0186920166 41.0066070557 58.3510131836
-22.0538311005 41.0786552429 58.1683044434
-22.0858707428 41.1442756653 57.9847297668
-22.1203956604 41.2150497437 57.8020095825
-22.1592712402 41.2948379517 57.6207313538
-22.1986560822 41.3756828308 57.4397163391
-22.2313995361 41.4427642822 57.2567214966
-22.2514743805 41.4836044312 57.0698204041
-22.2561321259 41.4924964905 56.8780899048
-22.2455177307 41.4697532654 56.6815071106
-22.2228164673 41.4219627380 56.4810256958
-22.1949615479 41.3634948730 56.2788124084
-22.1709861755 41.3130645752 56.0777626038
-22.1583461761 41.2861213684 55.8803062439
-22.1609992981 41.2908630371 55.6877746582
-22.1803989410 41.3302993774 55.5007133484
-22.2165412903 41.4044265747 55.3191947937
-22.2677097321 41.5096855164 55.1427192688
-22.3304615021 41.6389503479 54.9702186584
-22.4005393982 41.7833900452 54.8003234863
-22.4731407166 41.9330596924 54.6314620972
-22.5419578552 42.0748939514 54.4615364075
-22.5992527008 42.1928482056 54.2879180908
-22.6388816833 42.2742042542 54.1084823608
-22.6605300903 42.3183059692 53.9230499268
-22.6710491180 42.3393440247 53.7338714600
-22.6817283630 42.3607215881 53.5447692871
-22.7038040161 42.4057083130 53.3596076965
-22.7440128326 42.4882659912 53.1807670593
-22.8006668091 42.6049003601 53.0077362061
-22.8626251221 42.7325210571 52.8367080688
-22.9143009186 42.8388404846 52.6622505188
-22.9438514709 42.8993186951 52.4801673889
-22.9476146698 42.9063644409 52.2890663147
-22.9291610718 42.8673744202 52.0901031494
-22.8967723846 42.7995147705 51.8861236572
-22.8609981537 42.7246360779 51.6808357239
-22.8313274384 42.6624069214 51.4776229858
-22.8133182526 42.6243324280 51.2785072327
-22.8087062836 42.6140251160 51.0841751099
-22.8178482056 42.6322135925 50.8948059082
-22.8412837982 42.6800231934 50.7106628418
-22.8790168762 42.7574539185 50.5318031311
-22.9290294647 42.8603324890 50.3575515747
-22.9871749878 42.9800567627 50.1864280701
-23.0484161377 43.1062049866 50.0166130066
-23.1080780029 43.2290725708 49.8463783264
-23.1625785828 43.3412513733 49.6743850708
-23.2101058960 43.4389839172 49.4999313354
-23.2504501343 43.5218276978 49.3229026794
-23.2832107544 43.5889625549 49.1431274414
-23.3063411713 43.6361389160 48.9597892761
-23.3177261353 43.6589775085 48.7720451355
-23.3183841705 43.6595954895 48.5802345276
-23.3128528595 43.6473770142 48.3860435486
-23.3061218262 43.6326828003 48.1913719177
-23.3010559082 43.6214332581 47.9973106384
-23.2987403870 43.6158828735 47.8042907715
-23.3001995087 43.6181564331 47.6127243042
-23.3068046570 43.6310920715 47.4231605530
-23.3189182281 43.6554412842 47.2357673645
-23.3346958160 43.6873855591 47.0498352051
-23.3510780334 43.7205810547 46.8641815186
-23.3662662506 43.7513046265 46.6780929565
-23.3811111450 43.7813110352 46.4919013977
-23.3984260559 43.8164405823 46.3067321777
-23.4214897156 43.8634834290 46.1239051819
-23.4525890350 43.9271736145 45.9443588257
-23.4916400909 44.0073509216 45.7681045532
-23.5359592438 44.0984344482 45.5940856934
-23.5822715759 44.1936569214 45.4209938049
-23.6293964386 44.2905578613 45.2483558655
-23.6784019470 44.3913574219 45.0766181946
-23.7300434113 44.4976234436 44.9060935974
-23.7824497223 44.6054725647 44.7360229492
-23.8311519623 44.7056465149 44.5645675659
-23.8711433411 44.7877693176 44.3896293640
-23.8993835449 44.8455429077 44.2099075317
-23.9158859253 44.8789901733 44.0253601074
-23.9224147797 44.8917732239 43.8366699219
-23.9201240540 44.8862800598 43.6442832947
-23.9086151123 44.8616790771 43.4479904175
-23.8875694275 44.8173179626 43.2476158142
-23.8594112396 44.7582168579 43.0441513062
-23.8298625946 44.6962356567 42.8400077820
-23.8052349091 44.6444473267 42.6378707886
-23.7890243530 44.6101074219 42.4392662048
-23.7812385559 44.5932235718 42.2442359924
-23.7805976868 44.5911483765 42.0522613525
-23.7871513367 44.6039772034 41.8633918762
-23.8032836914 44.6366577148 41.6786994934
-23.8324146271 44.6962776184 41.4997215271
-23.8757190704 44.7852745056 41.3270225525
-23.9292354584 44.8954277039 41.1589241028
-23.9848098755 45.0098457336 40.9918785095
-24.0352611542 45.1136550903 40.8227233887
-24.0790996552 45.2037544250 40.6507682800
-24.1201782227 45.2881355286 40.4777069092
-24.1630458832 45.3762245178 40.3055534363
-24.2085285187 45.4697341919 40.1346855164
-24.2527503967 45.5606307983 39.9633712769
-24.2892875671 45.6356048584 39.7887153625
-24.3124141693 45.6827850342 39.6080894470
-24.3197402954 45.6972198486 39.4203529358
-24.3133888245 45.6833114624 39.2264022827
-24.2991714478 45.6531028748 39.0288314819
-24.2840251923 45.6209640503 38.8307876587
-24.2730484009 45.5974655151 38.6346054077
-24.2676429749 45.5855178833 38.4409523010
-24.2647933960 45.5788688660 38.2484550476
-24.2574882507 45.5629768372 38.0538749695
-24.2381172180 45.5220870972 37.8536529541
-24.2052135468 45.4531478882 37.6470451355
-24.1683845520 45.3760719299 37.4384956360
-24.1447143555 45.3262710571 37.2360115051
-24.1474628448 45.3312149048 37.0458984375
-24.1765575409 45.3907661438 36.8682327271
-24.2194423676 45.4788970947 36.6971817017
-24.2613086700 45.5649147034 36.5257606506
-24.2951831818 45.6343727112 36.3506431580
-24.3239154816 45.6931724548 36.1731529236
-24.3550529480 45.7569580078 35.9968910217
-24.3945846558 45.8381423950 35.8247528076
-24.4428310394 45.9373855591 35.6569252014
-24.4938430786 46.0423622131 35.4905700684
-24.5392150879 46.1356506348 35.3216133118
-24.5738925934 46.2067718506 35.1475677490
-24.5988464355 46.2577438354 34.9688682556
-24.6188735962 46.2985076904 34.7878150940
-24.6385097504 46.3384590149 34.6066207886
-24.6592121124 46.3806152344 34.4259986877
-24.6790103912 46.4209060669 34.2449836731
-24.6944808960 46.4522247314 34.0618705750
-24.7032318115 46.4696159363 33.8754501343
-24.7044239044 46.4713401794 33.6852798462
-24.6967811584 46.4547538757 33.4906845093
-24.6767253876 46.4124412537 33.2898330688
-24.6401081085 46.3358001709 33.0805854797
-24.5876140594 46.2262573242 32.8632125854
-24.5284786224 46.1029472351 32.6423187256
-24.4769477844 45.9953956604 32.4251022339
-24.4443054199 45.9269905090 32.2173385620
-24.4348049164 45.9065513611 32.0212783813
-24.4478206635 45.9327850342 31.8367080688
-24.4806232452 46.0000228882 31.6623172760
-24.5282230377 46.0979309082 31.4956283569
-24.5828704834 46.2104530334 31.3327064514
-24.6359157562 46.3196487427 31.1691036224
-24.6807022095 46.4117279053 31.0013618469
-24.7142295837 46.4804725647 30.8278808594
-24.7370548248 46.5270385742 30.6489048004
-24.7519149780 46.5570907593 30.4658145905
-24.7619094849 46.5770568848 30.2802085876
-24.7692565918 46.5915451050 30.0932292938
-24.7750587463 46.6028213501 29.9054450989
-24.7796783447 46.6116485596 29.7170467377
-24.7831745148 46.6181488037 29.5280551910
-24.7854900360 46.6222076416 29.3384361267
-24.7864151001 46.6233749390 29.1480731964
-24.7853431702 46.6204071045 28.9566383362
-24.7809352875 46.6105232239 28.7634010315
-24.7708988190 46.5889778137 28.5671138763
-24.7525386810 46.5501747131 28.3663024902
-24.7243938446 46.4910926819 28.1601371765
-24.6881313324 46.4151802063 27.9494781494
-24.6489448547 46.3332099915 27.7371177673
-24.6137504578 46.2595138550 27.5268096924
-24.5883655548 46.2061462402 27.3217525482
-24.5757999420 46.1793594360 27.1236381531
-24.5766086578 46.1802825928 26.9328269958
-24.5899562836 46.2072029114 26.7489166260
-24.6137294769 46.2557334900 26.5707950592
-24.6440124512 46.3177566528 26.3963394165
-24.6756381989 46.3825645447 26.2227058411
-24.7038688660 46.4403343201 26.0472679138
-24.7259140015 46.4852790833 25.8684501648
-24.7414131165 46.5166587830 25.6860237122
-24.7519073486 46.5376663208 25.5008258820
-24.7596302032 46.5529251099 25.3140907288
-24.7665157318 46.5664520264 25.1268997192
-24.7739315033 46.5810775757 24.9400177002
-24.7823867798 46.5978584290 24.7537364960
-24.7907638550 46.6144752502 24.5674285889
-24.7963199615 46.6252479553 24.3795280457
-24.7966327667 46.6251449585 24.1886386871
-24.7914752960 46.6137084961 23.9946098328
-24.7817726135 46.5928497314 23.7979488373
-24.7665519714 46.5605506897 23.5980739594
-24.7420711517 46.5090599060 23.3928031921
-24.7051601410 46.4318008423 23.1802616119
-24.6580963135 46.3334922791 22.9617137909
-24.6100502014 46.2331466675 22.7424507141
-24.5730171204 46.1556358337 22.5294589996
-24.5558738708 46.1193504333 22.3279724121
-24.5615043640 46.1302757263 22.1397666931
-24.5872993469 46.1829948425 21.9634094238
-24.6264724731 46.2634506226 21.7949943542
-24.6702365875 46.3534240723 21.6293926239
-24.7114810944 46.4381713867 21.4624195099
-24.7475852966 46.5122642517 21.2925090790
-24.7795791626 46.5778388977 21.1202507019
-24.8089218140 46.6379165649 20.9464969635
-24.8354187012 46.6920967102 20.7711200714
-24.8576221466 46.7373771667 20.5932407379
-24.8743438721 46.7712936401 20.4121265411
-24.8855476379 46.7937736511 20.2277317047
-24.8921127319 46.8066329956 20.0405616760
-24.8948650360 46.8115921021 19.8510971069
-24.8937873840 46.8086090088 19.6593112946
-24.8879566193 46.7957763672 19.4646244049
-24.8763046265 46.7708740234 19.2663669586
-24.8586788177 46.7335891724 19.0644207001
-24.8363513947 46.6865539551 18.8595371246
-24.8114128113 46.6341094971 18.6529769897
-24.7854938507 46.5796318054 18.4457340240
-24.7592124939 46.5243988037 18.2381820679
-24.7332706451 46.4698753357 18.0307579041
-24.7100276947 46.4209403992 17.8249168396
-24.6933078766 46.3855323792 17.6230506897
-24.6866149902 46.3709106445 17.4273643494
-24.6918067932 46.3809242249 17.2390594482
-24.7090072632 46.4158325195 17.0582675934
-24.7366962433 46.4724845886 16.8840866089
-24.7719173431 46.5447502136 16.7147102356
-24.8115081787 46.6260795593 16.5481758118
-24.8535652161 46.7125205994 16.3833045959
-24.8972034454 46.8022384644 16.2195472717
-24.9408664703 46.8920059204 16.0559215546
-24.9815254211 46.9755516052 15.8905076981
-25.0158042908 47.0458679199 15.7211408615
-25.0415916443 47.0985794067 15.5464468002
-25.0586395264 47.1331748962 15.3662290573
-25.0679492950 47.1517295837 15.1810922623
-25.0707340240 47.1567535400 14.9917812347
-25.0678005219 47.1499252319 14.7987871170
-25.0596904755 47.1323661804 14.6024351120
-25.0472240448 47.1057739258 14.4032325745
-25.0316467285 47.0727348328 14.2019681931
-25.0139636993 47.0353240967 13.9992809296
-24.9943332672 46.9938812256 13.7952661514
-24.9727210999 46.9483261108 13.5898904800
-24.9504852295 46.9014816284 13.3840360641
-24.9310626984 46.8604660034 13.1799526215
-24.9187698364 46.8342323303 12.9804878235
-24.9169330597 46.8296737671 12.7878637314
-24.9266300201 46.8490295410 12.6028394699
-24.9461708069 46.8887939453 12.4243440628
-24.9713878632 46.9403266907 12.2496595383
-24.9973831177 46.9934730530 12.0755567551
-25.0209693909 47.0416259766 11.8999185562
-25.0417861938 47.0840377808 11.7224912643
-25.0612716675 47.1236839294 11.5442256927
-25.0808868408 47.1636047363 11.3660945892
-25.1011543274 47.2048759460 11.1884498596
-25.1217441559 47.2468185425 11.0110740662
-25.1418514252 47.2877578735 10.8334236145
-25.1602897644 47.3252372742 10.6546926498
-25.1756057739 47.3562431335 10.4738931656
-25.1864566803 47.3779945374 10.2900981903
-25.1917743683 47.3882713318 10.1025609970
-25.1904926300 47.3848648071 9.9105310440
-25.1814994812 47.3654747009 9.7132196426
-25.1643810272 47.3292388916 9.5103092194
-25.1403236389 47.2786102295 9.3025779724
-25.1118164063 47.2187576294 9.0917072296
-25.0810413361 47.1542015076 8.8791828156
-25.0488872528 47.0867881775 8.6656074524
-25.0160655975 47.0179901123 8.4514675140
-24.9848670959 46.9525566101 8.2383480072
-24.9589385986 46.8980484009 8.0287914276
-24.9412059784 46.8605346680 7.8248596191
-24.9324665070 46.8416671753 7.6271424294
-24.9319019318 46.8397483826 7.4351086617
-24.9383182526 46.8522987366 7.2479553223
-24.9505825043 46.8769798279 7.0649189949
-24.9671955109 46.9106750488 6.8849711418
-24.9860324860 46.9489822388 6.7066297531
-25.0050525665 46.9876670837 6.5284647942
-25.0234069824 47.0249748230 6.3498744965
-25.0415859222 47.0619201660 6.1712059975
-25.0603847504 47.1001510620 5.9930214882
-25.0799713135 47.1400108337 5.8154439926
-25.1000499725 47.1808929443 5.6382670403
-25.1204204559 47.2223815918 5.4613485336
-25.1407184601 47.2637214661 5.2844285965
-25.1597213745 47.3023719788 5.1066284180
-25.1755466461 47.3344383240 4.9265875816
-25.1868934631 47.3572158813 4.7433552742
-25.1940593719 47.3713226318 4.5571241379
-25.1988601685 47.3805313110 4.3691940308
-25.2039318085 47.3903007507 4.1814661026
-25.2121200562 47.4065284729 3.9960079193
-25.2260665894 47.4347000122 3.8147623539
-25.2478790283 47.4791755676 3.6392889023
-25.2788887024 47.5427284241 3.4705984592
-25.3195590973 47.6263084412 3.3090703487
-25.3689727783 47.7280235291 3.1540741920
-25.4239559174 47.8412818909 3.0033102036
-25.4790172577 47.9547042847 2.8527562618
-25.5281486511 48.0558357239 2.6979737282
-25.5675563812 48.1367988586 2.5361282825
-25.5971488953 48.1974143982 2.3671090603
-25.6195259094 48.2430648804 2.1928052902
-25.6376743317 48.2799530029 2.0154109001
-25.6536178589 48.3122673035 1.8364149332
-25.6684246063 48.3422203064 1.6566061974
-25.6822395325 48.3701210022 1.4760894775
-25.6938743591 48.3935012817 1.2939701080
-25.7008609772 48.4072456360 1.1083797216
-25.7003688812 48.4054756165 0.9171661139
-25.6904716492 48.3842048645 0.7188431621
-25.6713275909 48.3437652588 0.5134905577
-25.6458072662 48.2900962830 0.3032403886
-25.6188144684 48.2333793640 0.0917895362
-49.5833358765 4.0149669647 92.9834671021
-49.6134605408 4.0154752731 92.7921905518
-49.6739349365 4.0180068016 92.6012496948
-49.7573966980 4.0220704079 92.4106140137
-49.8524513245 4.0269079208 92.2201995850
-49.9439659119 4.0315098763 92.0298538208
-50.0182876587 4.0349664688 91.8393859863
-50.0696868896 4.0368957520 91.6487045288
-50.1011505127 4.0374965668 91.4577941895
-50.1197280884 4.0372385979 91.2667312622
-50.1326866150 4.0366058350 91.0755996704
-50.1469993591 4.0360636711 90.8844985962
-50.1687126160 4.0360145569 90.6935195923
-50.1993789673 4.0365629196 90.5027008057
-50.2324867249 4.0372743607 90.3119583130
-50.2543067932 4.0372333527 90.1210479736
-50.2487297058 4.0353651047 89.9296417236
-50.2022933960 4.0307703018 89.7374420166
-50.1104469299 4.0231461525 89.5442886353
-49.9870948792 4.0134191513 89.3503723145
-49.8670158386 4.0039091110 89.1563644409
-49.7858657837 3.9969956875 88.9630432129
-49.7486877441 3.9930155277 88.7705917358
-49.7268295288 3.9900574684 88.5784225464
-49.6949806213 3.9864323139 88.3859939575
-49.6634025574 3.9828248024 88.1935195923
-49.6663322449 3.9815204144 88.0018463135
-49.7282524109 3.9841537476 87.8116378784
-49.8494415283 3.9907445908 87.6230239868
-50.0149536133 4.0002951622 87.4357070923
-50.2050895691 4.0114917755 87.2492370605
-50.3977279663 4.0228567123 87.0630569458
-50.5698013306 4.0328507423 86.8765182495
-50.7023277283 4.0402050018 86.6890487671
-50.7854270935 4.0442590714 86.5002822876
-50.8203468323 4.0450959206 86.3101654053
-50.8198394775 4.0435667038 86.1190032959
-50.8069801331 4.0412125587 85.9274444580
-50.8085823059 4.0398240089 85.7363204956
-50.8403205872 4.0404486656 85.5461578369
-50.8908805847 4.0423312187 85.3566513062
-50.9233818054 4.0430078506 85.1665802002
-50.9029998779 4.0401506424 84.9747467041
-50.8278312683 4.0336318016 84.7809829712
-50.7282218933 4.0254783630 84.5862503052
-50.6359024048 4.0178112984 84.3916549683
-50.5593032837 4.0111942291 84.1975097656
-50.4880294800 4.0049324036 84.0034637451
-50.4145774841 3.9985241890 83.8092422485
-50.3491592407 3.9926526546 83.6152267456
-50.3147354126 3.9888522625 83.4223327637
-50.3284034729 3.9882674217 83.2312774658
-50.3883628845 3.9907782078 83.0420913696
-50.4790306091 3.9953432083 82.8542098999
-50.5867004395 4.0010461807 82.6671295166
-50.7076683044 4.0076394081 82.4807281494
-50.8418693542 4.0151185989 82.2950210571
-50.9837760925 4.0231146812 82.1098022461
-51.1243209839 4.0310211182 81.9246749878
-51.2587547302 4.0385198593 81.7394485474
-51.3853797913 4.0454974174 81.5540161133
-51.4970397949 4.0514740944 81.3680496216
-51.5821266174 4.0556740761 81.1809844971
-51.6359062195 4.0577793121 80.9925537109
-51.6638603210 4.0581569672 80.8029556274
-51.6704750061 4.0571060181 80.6123580933
-51.6495437622 4.0542116165 80.4204254150
-51.5896148682 4.0487060547 80.2265472412
-51.4873695374 4.0403671265 80.0304870605
-51.3537139893 4.0299239159 79.8327178955
-51.2070236206 4.0186071396 79.6341171265
-51.0635223389 4.0075020790 79.4354934692
-50.9382057190 3.9976131916 79.2376327515
-50.8521194458 3.9903504848 79.0416793823
-50.8273315430 3.9871923923 78.8488769531
-50.8699455261 3.9885487556 78.6596679688
-50.9640045166 3.9933509827 78.4732971191
-51.0856323242 4.0000014305 78.2885437012
-51.2188568115 4.0074291229 78.1045837402
-51.3563423157 4.0151438713 77.9210052490
-51.4919090271 4.0227313042 77.7374801636
-51.6186141968 4.0297260284 77.5535888672
-51.7341918945 4.0359764099 77.3692016602
-51.8443222046 4.0418624878 77.1846237183
-51.9566078186 4.0478940010 77.0002975464
-52.0700874329 4.0540065765 76.8161697388
-52.1725730896 4.0593833923 76.6315002441
-52.2496871948 4.0630602837 76.4454040527
-52.2953720093 4.0646305084 76.2574462891
-52.3134307861 4.0643491745 76.0678100586
-52.3109626770 4.0626912117 75.8769073486
-52.2914695740 4.0598921776 75.6849060059
-52.2522621155 4.0557699203 75.4916076660
-52.1876525879 4.0499444008 75.2966079712
-52.0971870422 4.0423836708 75.0998382568
-51.9929122925 4.0338964462 74.9020385742
-51.8956756592 4.0258793831 74.7045745850
-51.8214225769 4.0194034576 74.5085296631
-51.7749404907 4.0147900581 74.3142547607
-51.7610092163 4.0123600960 74.1221466064
-51.7940597534 4.0130820274 73.9332427979
-51.8852653503 4.0177063942 73.7484130859
-52.0207939148 4.0253062248 73.5667877197
-52.1617698669 4.0332732201 73.3856964111
-52.2688484192 4.0389657021 73.2023544312
-52.3264808655 4.0413403511 73.0155715942
-52.3470268250 4.0412263870 72.8261718750
-52.3570022583 4.0404024124 72.6360015869
-52.3807182312 4.0405015945 72.4468612671
-52.4316940308 4.0424308777 72.2597503662
-52.5097999573 4.0461816788 72.0747299194
-52.6001586914 4.0507564545 71.8907241821
-52.6769485474 4.0544204712 71.7057800293
-52.7155609131 4.0555214882 71.5179901123
-52.7055091858 4.0533542633 71.3264770508
-52.6528396606 4.0483245850 71.1316223145
-52.5714797974 4.0413670540 70.9344482422
-52.4739303589 4.0333209038 70.7358856201
-52.3686637878 4.0247550011 70.5365753174
-52.2624511719 4.0161252022 70.3370590210
-52.1635017395 4.0079817772 70.1379928589
-52.0840568542 4.0011482239 69.9403839111
-52.0401000977 3.9966988564 69.7455902100
-52.0466880798 3.9956455231 69.5549087524
-52.1116638184 3.9985165596 69.3690872192
-52.2314109802 4.0050697327 69.1879348755
-52.3897514343 4.0142178535 69.0101776123
-52.5615043640 4.0242691040 68.8337402344
-52.7221641541 4.0335764885 68.6565551758
-52.8594551086 4.0413141251 68.4775314331
-52.9769439697 4.0477209091 68.2969436646
-53.0852966309 4.0535149574 68.1156921387
-53.1897048950 4.0590443611 67.9342117310
-53.2858200073 4.0640172958 67.7521133423
-53.3667449951 4.0679693222 67.5687637329
-53.4316864014 4.0708465576 67.3840637207
-53.4864692688 4.0730414391 67.1985168457
-53.5362052917 4.0748972893 67.0125579834
-53.5788612366 4.0762767792 66.8260116577
-53.6070289612 4.0766820908 66.6381607056
-53.6147880554 4.0757145882 66.4484405518
-53.6023559570 4.0733880997 66.2568359375
-53.5762596130 4.0701417923 66.0639190674
-53.5473175049 4.0667042732 65.8706893921
-53.5263748169 4.0638041496 65.6781768799
-53.5178947449 4.0617427826 65.4868316650
-53.5179138184 4.0602536201 65.2962799072
-53.5216140747 4.0590119362 65.1060791016
-53.5337600708 4.0583386421 64.9167022705
-53.5699691772 4.0592856407 64.7296981812
-53.6462707520 4.0629324913 64.5466918945
-53.7669677734 4.0695695877 64.3681869507
-53.9214859009 4.0784854889 64.1932144165
-54.0914497375 4.0884428024 64.0199661255
-54.2608718872 4.0983648300 63.8468627930
-54.4217300415 4.1077122688 63.6730804443
-54.5725479126 4.1163840294 63.4984512329
-54.7131690979 4.1243705750 63.3229446411
-54.8394584656 4.1313929558 63.1461067200
-54.9403800964 4.1367073059 62.9667701721
-55.0000495911 4.1392431259 62.7832107544
-55.0054588318 4.1381225586 62.5939865112
-54.9555397034 4.1332736015 62.3988838196
-54.8649635315 4.1256842613 62.1993713379
-54.7591819763 4.1170692444 61.9981040955
-54.6624450684 4.1090626717 61.7976799011
-54.5857238770 4.1024045944 61.5993003845
-54.5227355957 4.0966711044 61.4023208618
-54.4561424255 4.0906939507 61.2048606873
-54.3699378967 4.0833940506 61.0051460266
-54.2620506287 4.0746312141 60.8029098511
-54.1496124268 4.0655603409 60.6000251770
-54.0610008240 4.0580949783 60.3996734619
-54.0205802917 4.0538792610 60.2046394348
-54.0388717651 4.0536222458 60.0162048340
-54.1119308472 4.0570602417 59.8340339661
-54.2250976563 4.0632033348 59.6565361023
-54.3596801758 4.0707931519 59.4816322327
-54.5017166138 4.0788865089 59.3077468872
-54.6450195313 4.0870666504 59.1341705322
-54.7848587036 4.0950145721 58.9603500366
-54.9117317200 4.1020884514 58.7851676941
-55.0147438049 4.1075530052 58.6073036194
-55.0892753601 4.1110968590 58.4261741638
-55.1387023926 4.1129469872 58.2421226501
-55.1695632935 4.1135439873 58.0558929443
-55.1869964600 4.1132349968 57.8680725098
-55.1939430237 4.1122183800 57.6789894104
-55.1923255920 4.1106233597 57.4888648987
-55.1839561462 4.1085724831 57.2979011536
-55.1707077026 4.1061921120 57.1063156128
-55.1544342041 4.1036071777 56.9143333435
-55.1371536255 4.1009540558 56.7221946716
-55.1214637756 4.0984077454 56.5302276611
-55.1100463867 4.0961499214 56.3387641907
-55.1028022766 4.0941739082 56.1478080750
-55.0931968689 4.0920381546 55.9565315247
-55.0705680847 4.0890226364 55.7635765076
-55.0315017700 4.0848965645 55.5684852600
-54.9890708923 4.0805420876 55.3729019165
-54.9657058716 4.0774760246 55.1797218323
-54.9758720398 4.0766754150 54.9908523560
-55.0191268921 4.0781102180 54.8063011169
-55.0882453918 4.0812935829 54.6251754761
-55.1772155762 4.0858197212 54.4467391968
-55.2799415588 4.0912761688 54.2702140808
-55.3863868713 4.0969848633 54.0943031311
-55.4843063354 4.1021180153 53.9173698425
-55.5651435852 4.1060972214 53.7382583618
-55.6282157898 4.1088762283 53.5568466187
-55.6789627075 4.1108222008 53.3738365173
-55.7216606140 4.1122241020 53.1897850037
-55.7528419495 4.1128478050 53.0042037964
-55.7633857727 4.1120758057 52.8158264160
-55.7486152649 4.1095919609 52.6239662170
-55.7144775391 4.1057977676 52.4294052124
-55.6717033386 4.1014189720 52.2335929871
-55.6253890991 4.0968003273 52.0372276306
-55.5712928772 4.0916543007 51.8397102356
-55.5011367798 4.0854215622 51.6398544312
-55.4124908447 4.0779371262 51.4372978210
-55.3170013428 4.0699882507 51.2336540222
-55.2396545410 4.0632662773 51.0324668884
-55.2066268921 4.0595426559 50.8375167847
-55.2295875549 4.0596084595 50.6505584717
-55.2994308472 4.0628476143 50.4703826904
-55.3950042725 4.0678291321 50.2940063477
-55.4994583130 4.0734124184 50.1190299988
-55.6094284058 4.0793704987 49.9449768066
-55.7290458679 4.0859823227 49.7724609375
-55.8570289612 4.0931620598 49.6013107300
-55.9824867249 4.1001715660 49.4299316406
-56.0940322876 4.1062402725 49.2566337585
-56.1911811829 4.1113348007 49.0813140869
-56.2852706909 4.1162228584 48.9056434631
-56.3884086609 4.1217246056 48.7314376831
-56.4998435974 4.1277894974 48.5586013794
-56.6010169983 4.1331601143 48.3843307495
-56.6650962830 4.1360192299 48.2045364380
-56.6748847961 4.1351995468 48.0165176392
-56.6332931519 4.1308989525 47.8206253052
-56.5566864014 4.1242251396 47.6192855835
-56.4609680176 4.1162552834 47.4148902893
-56.3569030762 4.1077184677 47.2090759277
-56.2529869080 4.0991911888 47.0031471252
-56.1535415649 4.0909657478 46.7977828979
-56.0548400879 4.0827898979 46.5924072266
-55.9510459900 4.0742673874 46.3860969543
-55.8468627930 4.0657176971 46.1795921326
-55.7614631653 4.0584402084 45.9759330750
-55.7179718018 4.0540041924 45.7788429260
-55.7293014526 4.0532841682 45.5904579163
-55.7934226990 4.0561447144 45.4105529785
-55.8991470337 4.0618271828 45.2374229431
-56.0336189270 4.0694603920 45.0690650940
-56.1840667725 4.0781784058 44.9034500122
-56.3353118896 4.0869517326 44.7381439209
-56.4700927734 4.0946097374 44.5703125000
-56.5750541687 4.1002459526 44.3977432251
-56.6466903687 4.1036219597 44.2197952271
-56.6906929016 4.1051235199 44.0373573303
-56.7159347534 4.1053524017 43.8518447876
-56.7292900085 4.1047744751 43.6643753052
-56.7342224121 4.1036252975 43.4755058289
-56.7318191528 4.1019783020 43.2854003906
-56.7221412659 4.0998373032 43.0940551758
-56.7052917480 4.0972094536 42.9014816284
-56.6820907593 4.0941495895 42.7077941895
-56.6544570923 4.0907893181 42.5133209229
-56.6255340576 4.0873408318 42.3185806274
-56.5995140076 4.0840888023 42.1242942810
-56.5806808472 4.0813250542 41.9312057495
-56.5711479187 4.0791921616 41.7396888733
-56.5691261292 4.0775694847 41.5494537354
-56.5714149475 4.0762395859 41.3599548340
-56.5792999268 4.0752897263 41.1714286804
-56.6002960205 4.0752301216 40.9851989746
-56.6414260864 4.0765385628 40.8025207520
-56.7020339966 4.0791707039 40.6233177185
-56.7754364014 4.0826725960 40.4464454651
-56.8559837341 4.0866603851 40.2709197998
-56.9415435791 4.0909895897 40.0963745117
-57.0302391052 4.0955328941 39.9224853516
-57.1180000305 4.1000132561 39.7485275269
-57.1992950439 4.1040549278 39.5735015869
-57.2682914734 4.1072611809 39.3963470459
-57.3201446533 4.1093029976 39.2161598206
-57.3531341553 4.1100625992 39.0325927734
-57.3695793152 4.1096982956 38.8460426331
-57.3738288879 4.1085042953 38.6572723389
-57.3690223694 4.1066946983 38.4668350220
-57.3549385071 4.1042537689 38.2746734619
-57.3275833130 4.1009101868 38.0800285339
-57.2808151245 4.0962467194 37.8817481995
-57.2100372314 4.0899491310 37.6789321899
-57.1159706116 4.0820670128 37.4716720581
-57.0056190491 4.0730757713 37.2612419128
-56.8902282715 4.0637407303 37.0497207642
-56.7825164795 4.0549273491 36.8394966125
-56.6942710876 4.0474367142 36.6328163147
-56.6339874268 4.0418481827 36.4313201904
-56.6056938171 4.0384354591 36.2358283997
-56.6106300354 4.0372843742 36.0466384888
-56.6494140625 4.0384364128 35.8639259338
-56.7199249268 4.0417480469 35.6873435974
-56.8123893738 4.0465545654 35.5150718689
-56.9094352722 4.0516738892 35.3437843323
-56.9943656921 4.0559692383 35.1702613831
-57.0602569580 4.0589694977 34.9931259155
-57.1116409302 4.0609817505 34.8132286072
-57.1594810486 4.0627536774 34.6326942444
-57.2150077820 4.0650496483 34.4537162781
-57.2849197388 4.0683255196 34.2776260376
-57.3678588867 4.0724887848 34.1041908264
-57.4531555176 4.0768136978 33.9313125610
-57.5239028931 4.0801482201 33.7556343079
-57.5643920898 4.0814223289 33.5740013123
-57.5675659180 4.0801544189 33.3849449158
-57.5365638733 4.0765585899 33.1890296936
-57.4797515869 4.0712037086 32.9878692627
-57.4051933289 4.0646386147 32.7830543518
-57.3180847168 4.0572175980 32.5755958557
-57.2195739746 4.0490193367 32.3657073975
-57.1077575684 4.0399127007 32.1529808044
-56.9839820862 4.0299901962 31.9376659393
-56.8595390320 4.0200209618 31.7220554352
-56.7525291443 4.0112380981 31.5098648071
-56.6764450073 4.0045628548 31.3039073944
-56.6335334778 4.0001487732 31.1047077179
-56.6187324524 3.9976503849 30.9112701416
-56.6271324158 3.9967336655 30.7226314545
-56.6572341919 3.9972968102 30.5385150909
-56.7086715698 3.9993152618 30.3588905334
-56.7775497437 4.0025234222 30.1829757690
-56.8541870117 4.0062618256 30.0087680817
-56.9265251160 4.0097069740 29.8337364197
-56.9862861633 4.0122952461 29.6561222076
-57.0316429138 4.0139012337 29.4755172729
-57.0647087097 4.0146689415 29.2923412323
-57.0875015259 4.0147361755 29.1070060730
-57.1000823975 4.0141067505 28.9195022583
-57.1014938354 4.0127153397 28.7296085358
-57.0920448303 4.0105824471 28.5373706818
-57.0743255615 4.0078849792 28.3433265686
-57.0516700745 4.0048508644 28.1481838226
-57.0258102417 4.0015974045 27.9523086548
-56.9958610535 3.9980642796 27.7555027008
-56.9585380554 3.9940276146 27.5570411682
-56.9086837769 3.9891347885 27.3557834625
-56.8407211304 3.9830055237 27.1504821777
-56.7519416809 3.9754536152 26.9405059814
-56.6461715698 3.9667410851 26.7266654968
-56.5346679688 3.9576356411 26.5114154816
-56.4325599670 3.9491708279 26.2981071472
-56.3528442383 3.9422342777 26.0896472931
-56.3020973206 3.9372756481 25.8875427246
-56.2811813354 3.9343543053 25.6920413971
-56.2894134521 3.9334235191 25.5030441284
-56.3274002075 3.9345257282 25.3207397461
-56.3957595825 3.9377033710 25.1453227997
-56.4919776917 3.9427850246 24.9762802124
-56.6093139648 3.9493107796 24.8121337891
-56.7383422852 3.9566364288 24.6507797241
-56.8692283630 3.9640901089 24.4899959564
-56.9937019348 3.9711070061 24.3278961182
-57.1062583923 3.9773101807 24.1632080078
-57.2035293579 3.9824695587 23.9951343536
-57.2823448181 3.9863679409 23.8229179382
-57.3394813538 3.9887855053 23.6457824707
-57.3740501404 3.9896600246 23.4634761810
-57.3889656067 3.9891910553 23.2766399384
-57.3888473511 3.9876945019 23.0863132477
-57.3761787415 3.9853394032 22.8930454254
-57.3490638733 3.9819960594 22.6963710785
-57.3025627136 3.9773263931 22.4951057434
-57.2323036194 3.9710316658 22.2881851196
-57.1367530823 3.9630055428 22.0752029419
-57.0161476135 3.9532647133 21.8561687469
-56.8714447021 3.9418742657 21.6312656403
-56.7062797546 3.9290821552 21.4013118744
-56.5281066895 3.9153985977 21.1680469513
-56.3451805115 3.9013876915 20.9334201813
-56.1643638611 3.8875195980 20.6990680695
-55.9949188232 3.8744277954 20.4672145844
-55.8527259827 3.8631994724 20.2417068481
-55.7562103271 3.8550963402 20.0270442963
-55.7159652710 3.8508441448 19.8258686066
