-41.3639335632 -6.9225802422 20.4794979095
-41.3821411133 -6.9229097366 20.2854576111
-41.4008674622 -6.9233121872 20.0915584564
-41.4220504761 -6.9240617752 19.8983039856
-41.4443588257 -6.9249706268 19.7053527832
-41.4629554749 -6.9253554344 19.5114555359
-41.4722099304 -6.9244184494 19.3151378632
-41.4702415466 -6.9218950272 19.1158905029
-41.4613685608 -6.9183940887 18.9148216248
-41.4539566040 -6.9150996208 18.7141113281
-41.4555778503 -6.9130825996 18.5157489777
-41.4693412781 -6.9127836227 18.3205718994
-41.4934997559 -6.9139547348 18.1281433105
-41.5239677429 -6.9160189629 17.9374008179
-41.5574722290 -6.9185128212 17.7474899292
-41.5926551819 -6.9212450981 17.5580539703
-41.6285667419 -6.9240798950 17.3688449860
-41.6629562378 -6.9267005920 17.1792602539
-41.6929016113 -6.9286923409 16.9885139465
-41.7171478271 -6.9298777580 16.7962627411
-41.7374420166 -6.9305033684 16.6029663086
-41.7572860718 -6.9310665131 16.4095592499
-41.7793273926 -6.9319405556 16.2167587280
-41.8038177490 -6.9331612587 16.0246353149
-41.8297080994 -6.9345798492 15.8329114914
-41.8568687439 -6.9361796379 15.6415519714
-41.8865165710 -6.9381308556 15.4508924484
-41.9190750122 -6.9404945374 15.2610530853
-41.9523811340 -6.9429650307 15.0714483261
-41.9827461243 -6.9450182915 14.8810625076
-42.0077018738 -6.9463067055 14.6892118454
-42.0275726318 -6.9468750954 14.4959735870
-42.0448303223 -6.9470734596 14.3020238876
-42.0628700256 -6.9473824501 14.1082992554
-42.0851554871 -6.9482936859 13.9157648087
-42.1142539978 -6.9501695633 13.7251453400
-42.1503028870 -6.9530296326 13.5364904404
-42.1901512146 -6.9564290047 13.3489332199
-42.2287597656 -6.9596529007 13.1610651016
-42.2623901367 -6.9621720314 12.9718322754
-42.2911453247 -6.9640007019 12.7812528610
-42.3190917969 -6.9657149315 12.5904684067
-42.3519248962 -6.9681224823 12.4010915756
-42.3932189941 -6.9717288017 12.2141447067
-42.4413719177 -6.9763069153 12.0291891098
-42.4900703430 -6.9809637070 11.8444385529
-42.5327072144 -6.9847617149 11.6580028534
-42.5670700073 -6.9873871803 11.4692363739
-42.5961227417 -6.9892611504 11.2789754868
-42.6247329712 -6.9910721779 11.0886116028
-42.6560745239 -6.9932708740 10.8990573883
-42.6910705566 -6.9959874153 10.7105875015
-42.7301826477 -6.9992880821 10.5233402252
-42.7744140625 -7.0033149719 10.3376169205
-42.8240852356 -7.0081138611 10.1535215378
-42.8770370483 -7.0133781433 9.9704322815
-42.9284820557 -7.0184292793 9.7869567871
-42.9729843140 -7.0224967003 9.6014995575
-43.0069656372 -7.0250725746 9.4129953384
-43.0301933289 -7.0261235237 9.2213563919
-43.0456085205 -7.0260672569 9.0274276733
-43.0579490662 -7.0255751610 8.8325977325
-43.0718879700 -7.0253090858 8.6382408142
-43.0903854370 -7.0256900787 8.4452428818
-43.1137847900 -7.0267667770 8.2537136078
-43.1397552490 -7.0282077789 8.0629663467
-43.1648178101 -7.0295200348 7.8719677925
-43.1872978210 -7.0304665565 7.6802139282
-43.2087020874 -7.0312604904 7.4881515503
-43.2314414978 -7.0322442055 7.2965054512
-43.2559204102 -7.0334749222 7.1053986549
-43.2806816101 -7.0347456932 6.9143948555
-43.3047256470 -7.0359153748 6.7231917381
-43.3287162781 -7.0370769501 6.5319890976
-43.3540458679 -7.0384292603 6.3412113190
-43.3812026978 -7.0400404930 6.1510076523
-43.4091453552 -7.0417637825 5.9610662460
-43.4365921021 -7.0434174538 5.7709946632
-43.4634475708 -7.0449872017 5.5807642937
-43.4903373718 -7.0465617180 5.3905630112
-43.5169067383 -7.0480914116 5.2002854347
-43.5417900085 -7.0493817329 5.0095076561
-43.5644874573 -7.0503616333 4.8180713654
-43.5868644714 -7.0512967110 4.6265521049
-43.6126594543 -7.0527172089 4.4361085892
-43.6454620361 -7.0551328659 4.2478652000
-43.6865310669 -7.0587224960 4.0622277260
-43.7340545654 -7.0632290840 3.8786461353
-43.7848396301 -7.0682001114 3.6961343288
-43.8368110657 -7.0733399391 3.5140457153
-43.8895034790 -7.0785827637 3.3322377205
-43.9426536560 -7.0838913918 3.1506278515
-43.9953422546 -7.0891346931 2.9689273834
-44.0465736389 -7.0941724777 2.7868201733
-44.0959320068 -7.0989437103 2.6041703224
-44.1435623169 -7.1034703255 2.4210226536
-44.1897697449 -7.1077952385 2.2374694347
-44.2345733643 -7.1119217873 2.0535147190
-44.2778816223 -7.1158351898 1.8691244125
-44.3201026917 -7.1195955276 1.6844292879
-44.3619804382 -7.1233072281 1.4996650219
-44.4037399292 -7.1270027161 1.3149020672
-44.4453353882 -7.1306748390 1.1301264763
-44.4878425598 -7.1344780922 0.9456862211
-44.5337371826 -7.1387624741 0.7623816729
-44.5853271484 -7.1438574791 0.5809701085
-44.6435127258 -7.1498899460 0.4017525911
-44.7084274292 -7.1568799019 0.2247873098
-44.7814292908 -7.1650209427 0.0505292676
-37.5801353455 4.8196210861 80.5759811401
-37.5889282227 4.8234238625 80.3795013428
-37.6042861938 4.8283925056 80.1834335327
-37.6213073730 4.8336572647 79.9874649048
-37.6365089417 4.8385987282 79.7913970947
-37.6496772766 4.8431787491 79.5952072144
-37.6624145508 4.8476819992 79.3989868164
-37.6752700806 4.8522057533 79.2027816772
-37.6869697571 4.8565244675 79.0065002441
-37.6960449219 4.8603773117 78.8100509644
-37.7022361755 4.8637175560 78.6134033203
-37.7063331604 4.8666858673 78.4166030884
-37.7093696594 4.8694658279 78.2197265625
-37.7121505737 4.8722004890 78.0228271484
-37.7153282166 4.8750061989 77.8259429932
-37.7196426392 4.8780136108 77.6291351318
-37.7261276245 4.8814067841 77.4324645996
-37.7359313965 4.8853888512 77.2360305786
-37.7492485046 4.8899950981 77.0398559570
-37.7634429932 4.8947572708 76.8437423706
-37.7724380493 4.8985962868 76.6472549438
-37.7695617676 4.9003267288 76.4498825073
-37.7525634766 4.8995504379 76.2514343262
-37.7261428833 4.8971014023 76.0522460938
-37.6993293762 4.8945832253 75.8529815674
-37.6802825928 4.8934445381 75.6542587280
-37.6729354858 4.8943834305 75.4564132690
-37.6769752502 4.8973431587 75.2594299316
-37.6896018982 4.9018282890 75.0631103516
-37.7074584961 4.9072408676 74.8672103882
-37.7278633118 4.9131059647 74.6715240479
-37.7488670349 4.9190778732 74.4758987427
-37.7682037354 4.9247531891 74.2801513672
-37.7827224731 4.9295730591 74.0840225220
-37.7897644043 4.9330658913 73.8872833252
-37.7891235352 4.9351959229 73.6899032593
-37.7833175659 4.9364094734 73.4920730591
-37.7762336731 4.9373955727 73.2941207886
-37.7718582153 4.9388637543 73.0963668823
-37.7734718323 4.9413943291 72.8991165161
-37.7830848694 4.9453439713 72.7025375366
-37.8013763428 4.9508337975 72.5067214966
-37.8279190063 4.9577870369 72.3116302490
-37.8608322144 4.9658708572 72.1171264648
-37.8960990906 4.9743714333 71.9228515625
-37.9281730652 4.9823050499 71.7283325195
-37.9524345398 4.9888520241 71.5331344604
-37.9670639038 4.9936914444 71.3370819092
-37.9726486206 4.9969263077 71.1402053833
-37.9707221985 4.9988288879 70.9426345825
-37.9631309509 4.9997267723 70.7445220947
-37.9520034790 4.9999976158 70.5460586548
-37.9396018982 5.0000433922 70.3474426270
-37.9278984070 5.0002136230 70.1488723755
-37.9181632996 5.0007324219 69.9504547119
-37.9105148315 5.0016212463 69.7522125244
-37.9038047791 5.0026779175 69.5540390015
-37.8964271545 5.0036158562 69.3557815552
-37.8878593445 5.0043425560 69.1573867798
-37.8794746399 5.0051026344 68.9589843750
-37.8733406067 5.0062613487 68.7607727051
-37.8700752258 5.0079293251 68.5628356934
-37.8682365417 5.0098500252 68.3650207520
-37.8656768799 5.0116438866 68.1671218872
-37.8611373901 5.0130863190 67.9690017700
-37.8546600342 5.0141859055 67.7706680298
-37.8471412659 5.0151004791 67.5722045898
-37.8397140503 5.0160322189 67.3737258911
-37.8335227966 5.0171833038 67.1753540039
-37.8298835754 5.0187864304 66.9772262573
-37.8306884766 5.0211777687 66.7795562744
-37.8385887146 5.0248255730 66.5826187134
-37.8562889099 5.0302109718 66.3867263794
-37.8850021362 5.0375471115 66.1920242310
-37.9231338501 5.0465521812 65.9983596802
-37.9665184021 5.0564866066 65.8053054810
-38.0096015930 5.0663676262 65.6122589111
-38.0465812683 5.0751671791 65.4185867310
-38.0728149414 5.0820627213 65.2237625122
-38.0865592957 5.0867452621 65.0275650024
-38.0895576477 5.0895242691 64.8301696777
-38.0855178833 5.0910568237 64.6319808960
-38.0777931213 5.0919370651 64.4333572388
-38.0679664612 5.0924448967 64.2344665527
-38.0556793213 5.0925173759 64.0352706909
-38.0394248962 5.0918879509 63.8355941772
-38.0183982849 5.0904135704 63.6353302002
-37.9947471619 5.0884747505 63.4347190857
-37.9738044739 5.0870161057 63.2343826294
-37.9609336853 5.0869879723 63.0349540710
-37.9579124451 5.0887026787 62.8366622925
-37.9626083374 5.0917849541 62.6392669678
-37.9714012146 5.0955924988 62.4423561096
-37.9810371399 5.0995492935 62.2455406189
-37.9890022278 5.1032104492 62.0485267639
-37.9934883118 5.1062550545 61.8510856628
-37.9936790466 5.1085400581 61.6531143188
-37.9900169373 5.1101431847 61.4546585083
-37.9839820862 5.1113262177 61.2558937073
-37.9775657654 5.1124420166 61.0570564270
-37.9728660583 5.1138615608 60.8584136963
-37.9721450806 5.1159868240 60.6602516174
-37.9780235291 5.1192789078 60.4629058838
-37.9928398132 5.1241531372 60.2666816711
-38.0171470642 5.1307072639 60.0716705322
-38.0485725403 5.1385197639 59.8775863647
-38.0827140808 5.1468133926 59.6838760376
-38.1156539917 5.1548938751 59.4900436401
-38.1457595825 5.1624722481 59.2958717346
-38.1735229492 5.1696362495 59.1014213562
-38.1998786926 5.1765508652 58.9068069458
-38.2242088318 5.1831068993 58.7119483948
-38.2435836792 5.1887860298 58.5164527893
-38.2539978027 5.1928801537 58.3197784424
-38.2526779175 5.1948986053 58.1215400696
-38.2396316528 5.1948432922 57.9217147827
-38.2179298401 5.1932563782 57.7206916809
-38.1929359436 5.1910891533 57.5191802979
-38.1704177856 5.1893591881 57.3179626465
-38.1541252136 5.1887307167 57.1175537109
-38.1447639465 5.1893291473 56.9180641174
-38.1409950256 5.1909165382 56.7193183899
-38.1411285400 5.1931939125 56.5210952759
-38.1440963745 5.1959724426 56.3232574463
-38.1496238708 5.1992039680 56.1257629395
-38.1580505371 5.2029476166 55.9286727905
-38.1700782776 5.2073287964 55.7320899963
-38.1864852905 5.2124843597 55.5361251831
-38.2074775696 5.2184495926 55.3408241272
-38.2317924500 5.2250022888 55.1460151672
-38.2564888000 5.2316222191 54.9512748718
-38.2783241272 5.2377362251 54.7561416626
-38.2957839966 5.2430768013 54.5603866577
-38.3097572327 5.2478013039 54.3641357422
-38.3225479126 5.2523159981 54.1677169800
-38.3364830017 5.2570338249 53.9714698792
-38.3529777527 5.2622032166 53.7756042480
-38.3717956543 5.2677831650 53.5800895691
-38.3910369873 5.2734379768 53.3846511841
-38.4082336426 5.2787313461 53.1889152527
-38.4214859009 5.2833275795 52.9925994873
-38.4294281006 5.2869853973 52.7954864502
-38.4310760498 5.2895317078 52.5974197388
-38.4269371033 5.2910552025 52.3984603882
-38.4198150635 5.2920522690 52.1990242004
-38.4134368896 5.2931804657 51.9996833801
-38.4102630615 5.2948751450 51.8008155823
-38.4109878540 5.2972588539 51.6025314331
-38.4156608582 5.3003396988 51.4048461914
-38.4248275757 5.3042149544 51.2078552246
-38.4397697449 5.3091101646 51.0117683411
-38.4617118835 5.3152418137 50.8167877197
-38.4903945923 5.3225631714 50.6228828430
-38.5231781006 5.3306093216 50.4296531677
-38.5559959412 5.3386607170 50.2364578247
-38.5854492188 5.3461174965 50.0427513123
-38.6100463867 5.3527164459 49.8482933044
-38.6297950745 5.3584589958 49.6530723572
-38.6453018188 5.3634529114 49.4571800232
-38.6575889587 5.3678779602 49.2607688904
-38.6685333252 5.3720660210 49.0641441345
-38.6810646057 5.3765344620 48.8677787781
-38.6983604431 5.3818440437 48.6721992493
-38.7218475342 5.3882460594 48.4776496887
-38.7491760254 5.3953261375 48.2837486267
-38.7741928101 5.4019980431 48.0894889832
-38.7896385193 5.4069795609 47.8936538696
-38.7908401489 5.4094481468 47.6954383850
-38.7778854370 5.4094171524 47.4948348999
-38.7552757263 5.4076828957 47.2925720215
-38.7300682068 5.4054913521 47.0898284912
-38.7093467712 5.4040913582 46.8877983093
-38.6980819702 5.4043607712 46.6873435974
-38.6983642578 5.4066677094 46.4888381958
-38.7096557617 5.4109177589 46.2922134399
-38.7290534973 5.4165983200 46.0969886780
-38.7517547607 5.4228610992 45.9023475647
-38.7728576660 5.4288415909 45.7074432373
-38.7899208069 5.4341096878 45.5118484497
-38.8039932251 5.4388504028 45.3157386780
-38.8179359436 5.4435667992 45.1196136475
-38.8334617615 5.4485640526 44.9237709045
-38.8495101929 5.4536519051 44.7280235291
-38.8632507324 5.4583334923 44.5318794250
-38.8725776672 5.4622364044 44.3349494934
-38.8774871826 5.4653611183 44.1372299194
-38.8796691895 5.4680032730 43.9390106201
-38.8815269470 5.4705891609 43.7407264709
-38.8858489990 5.4736099243 43.5428771973
-38.8958091736 5.4776248932 43.3460388184
-38.9147033691 5.4832148552 43.1508331299
-38.9450302124 5.4908204079 42.9577255249
-38.9873237610 5.5005364418 42.7668380737
-39.0397872925 5.5120444298 42.5778656006
-39.0991821289 5.5247745514 42.3902244568
-39.1617469788 5.5380625725 42.2032394409
-39.2227973938 5.5510821342 42.0160369873
-39.2764930725 5.5628056526 41.8275260925
-39.3175964355 5.5723075867 41.6367111206
-39.3437309265 5.5791716576 41.4431266785
-39.3555374146 5.5835089684 41.2468605042
-39.3549003601 5.5856537819 41.0482406616
-39.3439826965 5.5859861374 40.8476562500
-39.3259773254 5.5850701332 40.6456909180
-39.3058662415 5.5837836266 40.4432907104
-39.2892799377 5.5831189156 40.2415275574
-39.2801818848 5.5837731361 40.0411682129
-39.2797508240 5.5859551430 39.8424568176
-39.2872810364 5.5895404816 39.6452751160
-39.3015251160 5.5943088531 39.4493980408
-39.3207435608 5.5999536514 39.2544937134
-39.3415031433 5.6058692932 39.0599021912
-39.3581962585 5.6110692024 38.8645248413
-39.3652076721 5.6145629883 38.6672515869
-39.3607292175 5.6160326004 38.4677009583
-39.3486785889 5.6161689758 38.2666320801
-39.3365592957 5.6162929535 38.0655212402
-39.3313369751 5.6176323891 37.8657569885
-39.3369026184 5.6208724976 37.6681327820
-39.3535499573 5.6260638237 37.4727287292
-39.3778648376 5.6326055527 37.2788734436
-39.4029541016 5.6392841339 37.0851974487
-39.4206123352 5.6446533203 36.8900299072
-39.4250984192 5.6477026939 36.6921958923
-39.4161987305 5.6483950615 36.4916229248
-39.3993759155 5.6476931572 36.2894058228
-39.3830032349 5.6470704079 36.0872421265
-39.3745689392 5.6478462219 35.8866844177
-39.3782081604 5.6507472992 35.6885910034
-39.3941993713 5.6558237076 35.4930534363
-39.4199295044 5.6626143456 35.2995452881
-39.4517898560 5.6704835892 35.1073379517
-39.4868354797 5.6789131165 34.9158210754
-39.5227813721 5.6875009537 34.7245254517
-39.5570373535 5.6957912445 34.5329093933
-39.5868911743 5.7033057213 34.3403930664
-39.6106719971 5.7097516060 34.1466178894
-39.6280174255 5.7150650024 33.9514923096
-39.6393623352 5.7193217278 33.7551002502
-39.6462516785 5.7227945328 33.5577545166
-39.6519813538 5.7260632515 33.3601570129
-39.6610336304 5.7299165726 33.1632652283
-39.6778030396 5.7351284027 32.9680404663
-39.7055778503 5.7422752380 32.7751998901
-39.7450866699 5.7514872551 32.5849304199
-39.7928886414 5.7621579170 32.3964996338
-39.8418579102 5.7730331421 32.2083740234
-39.8847732544 5.7828426361 32.0189743042
-39.9183197021 5.7910041809 31.8275604248
-39.9440917969 5.7977976799 31.6344642639
-39.9661598206 5.8039388657 31.4405689240
-39.9875450134 5.8099598885 31.2465400696
-40.0083160400 5.8158726692 31.0523872375
-40.0266952515 5.8213648796 30.8577175140
-40.0419616699 5.8263101578 30.6623611450
-40.0561981201 5.8310732841 30.4667816162
-40.0732078552 5.8363246918 30.2718296051
-40.0958518982 5.8425664902 30.0781574249
-40.1244049072 5.8498473167 29.8858356476
-40.1572227478 5.8578767776 29.6945018768
-40.1922988892 5.8663039207 29.5037117004
-40.2274742126 5.8747477531 29.3129768372
-40.2595291138 5.8826427460 29.1215591431
-40.2843894958 5.8892726898 28.9285221100
-40.2986068726 5.8940315247 28.7330589294
-40.3003196716 5.8965926170 28.5347194672
-40.2891693115 5.8968920708 28.3333950043
-40.2664337158 5.8951559067 28.1293601990
-40.2358970642 5.8920483589 27.9234676361
-40.2040176392 5.8887062073 27.7172126770
-40.1787376404 5.8865242004 27.5124416351
-40.1673088074 5.8867769241 27.3108730316
-40.1741409302 5.8902392387 27.1135654449
-40.1990547180 5.8968782425 26.9205150604
-40.2364997864 5.9057197571 26.7304439545
-40.2767028809 5.9150457382 26.5410614014
-40.3093185425 5.9230375290 26.3499145508
-40.3283958435 5.9286508560 26.1555728912
-40.3355865479 5.9321751595 25.9584026337
-40.3387603760 5.9349942207 25.7602672577
-40.3471069336 5.9387221336 25.5633640289
-40.3666076660 5.9444088936 25.3691444397
-40.3987884521 5.9523234367 25.1779994965
-40.4421272278 5.9621973038 24.9895820618
-40.4937248230 5.9735217094 24.8032131195
-40.5501327515 5.9856905937 24.6180667877
-40.6078796387 5.9980936050 24.4333095551
-40.6642303467 6.0102505684 24.2482700348
-40.7178153992 6.0219206810 24.0626106262
-40.7688827515 6.0331492424 23.8763904572
-40.8189468384 6.0441999435 23.6899757385
-40.8695640564 6.0553474426 23.5037479401
-40.9210395813 6.0666451454 23.3177852631
-40.9718437195 6.0778250694 23.1317100525
-41.0190353394 6.0883693695 22.9447879791
-41.0597038269 6.0977678299 22.7562828064
-41.0929641724 6.1058654785 22.5659618378
-41.1208152771 6.1130137444 22.3743114471
-41.1466751099 6.1198110580 22.1821823120
-41.1725273132 6.1266074181 21.9900722504
-41.1972389221 6.1332039833 21.7976951599
-41.2176589966 6.1390457153 21.6042461395
-41.2313842773 6.1437129974 21.4091072083
-41.2384643555 6.1472139359 21.2122802734
-41.2408828735 6.1498970985 21.0142555237
-41.2411994934 6.1522111893 20.8156833649
-41.2416419983 6.1545472145 20.6171302795
-41.2437362671 6.1571741104 20.4189891815
-41.2482032776 6.1602168083 20.2214508057
-41.2550430298 6.1636762619 20.0245208740
-41.2638626099 6.1674828529 19.8280982971
-41.2742080688 6.1715569496 19.6320724487
-41.2858238220 6.1758542061 19.4363765717
-41.2989120483 6.1804099083 19.2410678864
-41.3145942688 6.1854205132 19.0464439392
-41.3354148865 6.1913318634 18.8531761169
-41.3650856018 6.1987962723 18.6622543335
-41.4069137573 6.2083926201 18.4745693207
-41.4616966248 6.2202606201 18.2903518677
-41.5269889832 6.2339711189 18.1089839935
-41.5980682373 6.2486958504 17.9292240143
-41.6693725586 6.2634587288 17.7496051788
-41.7353439331 6.2772860527 17.5686378479
-41.7909317017 6.2892918587 17.3849639893
-41.8322677612 6.2987971306 17.1975173950
-41.8576583862 6.3055062294 17.0058193207
-41.8688354492 6.3097238541 16.8103046417
-41.8715858459 6.3124632835 16.6125106812
-41.8742866516 6.3151936531 16.4146938324
-41.8841514587 6.3191809654 16.2188148499
-41.9039802551 6.3249144554 16.0256500244
-41.9325332642 6.3321776390 15.8348817825
-41.9676856995 6.3405971527 15.6459436417
-42.0079917908 6.3499193192 15.4584522247
-42.0512161255 6.3597531319 15.2718029022
-42.0927619934 6.3692922592 15.0847339630
-42.1269874573 6.3775472641 14.8956813812
-42.1503410339 6.3838968277 14.7036495209
-42.1630706787 6.3883848190 14.5086832047
-42.1683311462 6.3915634155 14.3116416931
-42.1703224182 6.3941693306 14.1136827469
-42.1731491089 6.3969221115 13.9159460068
-42.1807212830 6.4005060196 13.7195291519
-42.1969718933 6.4056105614 13.5255479813
-42.2254600525 6.4128594398 13.3350200653
-42.2679748535 6.4225654602 13.1484746933
-42.3231468201 6.4344878197 12.9655513763
-42.3864669800 6.4478373528 12.7849969864
-42.4518432617 6.4615464211 12.6050958633
-42.5135040283 6.4746031761 12.4242076874
-42.5673522949 6.4862914085 12.2411575317
-42.6119995117 6.4963669777 12.0555295944
-42.6492729187 6.5051512718 11.8678331375
-42.6833610535 6.5133762360 11.6792554855
-42.7179832458 6.5216951370 11.4908628464
-42.7528457642 6.5300550461 11.3025712967
-42.7820358276 6.5374221802 11.1126718521
-42.7968978882 6.5422797203 10.9186401367
-42.7919807434 6.5436735153 10.7188653946
-42.7695274353 6.5419979095 10.5139636993
-42.7398414612 6.5390558243 10.3069067001
-42.7185401917 6.5375823975 10.1022520065
-42.7217483521 6.5404000282 9.9047431946
-42.7594604492 6.5492582321 9.7173671722
-42.8300628662 6.5638737679 9.5397157669
-42.9206199646 6.5819816589 9.3680343628
-43.0139541626 6.6005749702 9.1972780228
-43.0975723267 6.6174650192 9.0237483978
-43.1677627563 6.6320052147 8.8463258743
-43.2275352478 6.6447205544 8.6658773422
-43.2825431824 6.6566009521 8.4840717316
-43.3384475708 6.6686382294 8.3025922775
-43.3988723755 6.6814656258 8.1225280762
-43.4632797241 6.6949887276 7.9437246323
-43.5265769958 6.7083177567 7.7646584511
-43.5816154480 6.7202000618 7.5831689835
-43.6229057312 6.7296762466 7.3975806236
-43.6489334106 6.7364816666 7.2074079514
-43.6619186401 6.7410054207 7.0132961273
-43.6660842896 6.7439866066 6.8165044785
-43.6661605835 6.7462515831 6.6184568405
-43.6666908264 6.7485961914 6.4205346107
-43.6717567444 6.7517347336 6.2239894867
-43.6848678589 6.7562804222 6.0299067497
-43.7085914612 6.7626824379 5.8390927315
-43.7432060242 6.7709889412 5.6516528130
-43.7843284607 6.7804331779 5.4662542343
-43.8224258423 6.7893476486 5.2799596786
-43.8472480774 6.7959403992 5.0895843506
-43.8550338745 6.7995538712 4.8939328194
-43.8515090942 6.8011894226 4.6947550774
-43.8472099304 6.8026905060 4.4953184128
-43.8498649597 6.8054070473 4.2980370522
-43.8607444763 6.8095622063 4.1033248901
-43.8769721985 6.8146514893 3.9102921486
-43.8961486816 6.8202567101 3.7181961536
-43.9189453125 6.8264942169 3.5272531509
-43.9479980469 6.8338260651 3.3383042812
-43.9852104187 6.8425836563 3.1519649029
-44.0303344727 6.8527235985 2.9681701660
-44.0814437866 6.8639092445 2.7863245010
-44.1361198425 6.8757181168 2.6056694984
-44.1922950745 6.8877873421 2.4255502224
-44.2485771179 6.8998756409 2.2455258369
-44.3038520813 6.9117865562 2.0652382374
-44.3564376831 6.9232268333 1.8841450214
-44.4041061401 6.9338073730 1.7015249729
-44.4453659058 6.9432673454 1.5168861151
-44.4805641174 6.9516682625 1.3303298950
-44.5116462708 6.9593491554 1.1424723864
-44.5407829285 6.9666900635 0.9540114999
-44.5688819885 6.9738492966 0.7652375698
-44.5951843262 6.9806942940 0.5759010911
-44.6189308167 6.9870934486 0.3857531250
-44.6422119141 6.9934096336 0.1954687983
-44.6713943481 7.0007572174 0.0071364706
-33.9898109436 16.0570449829 80.5582122803
-33.9943275452 16.0619564056 80.3613662720
-34.0088691711 16.0722160339 80.1652069092
-34.0367240906 16.0895748138 79.9699859619
-34.0760192871 16.1130371094 79.7756042480
-34.1191864014 16.1385631561 79.5815429688
-34.1570930481 16.1612834930 79.3871536255
-34.1845016479 16.1784057617 79.1920394897
-34.2023773193 16.1904411316 78.9962539673
-34.2159881592 16.2002010345 78.8001556396
-34.2308692932 16.2106380463 78.6041641235
-34.2491531372 16.2228908539 78.4084472656
-34.2681236267 16.2355098724 78.2127838135
-34.2819366455 16.2453765869 78.0167465210
-34.2852821350 16.2496623993 77.8199005127
-34.2764892578 16.2474746704 77.6220932007
-34.2583007813 16.2402782440 77.4235153198
-34.2364768982 16.2311420441 77.2246093750
-34.2168846130 16.2231941223 77.0258407593
-34.2027282715 16.2181491852 76.8274765015
-34.1937980652 16.2158889771 76.6295089722
-34.1878776550 16.2152347565 76.4317626953
-34.1826744080 16.2149639130 76.2340621948
-34.1768150330 16.2143440247 76.0362854004
-34.1698455811 16.2131309509 75.8383865356
-34.1618652344 16.2113800049 75.6403884888
-34.1532325745 16.2092800140 75.4423065186
-34.1443443298 16.2070465088 75.2441787720
-34.1355400085 16.2048587799 75.0460281372
-34.1270637512 16.2028427124 74.8478927612
-34.1191253662 16.2011165619 74.6497726440
-34.1119995117 16.1998214722 74.4517059326
-34.1059875488 16.1991233826 74.2537155151
-34.1013565063 16.1991577148 74.0558319092
-34.0982208252 16.1999931335 73.8580703735
-34.0965423584 16.2016048431 73.6604232788
-34.0961647034 16.2039089203 73.4628829956
-34.0968627930 16.2067871094 73.2654342651
-34.0984077454 16.2101173401 73.0680541992
-34.1005516052 16.2137680054 72.8707199097
-34.1030311584 16.2175960541 72.6734085083
-34.1055526733 16.2214469910 72.4760971069
-34.1078567505 16.2251834869 72.2787551880
-34.1097717285 16.2287101746 72.0813598633
-34.1112442017 16.2320041656 71.8839187622
-34.1123275757 16.2350883484 71.6864242554
-34.1131019592 16.2380084991 71.4888916016
-34.1136322021 16.2408008575 71.2913208008
-34.1140022278 16.2435054779 71.0937271118
-34.1143264771 16.2461853027 70.8961105347
-34.1148223877 16.2489585876 70.6985015869
-34.1158943176 16.2520389557 70.5009460449
-34.1182823181 16.2558174133 70.3035125732
-34.1231994629 16.2609481812 70.1063385010
-34.1323471069 16.2683334351 69.9096069336
-34.1471214294 16.2787151337 69.7134780884
-34.1670570374 16.2918491364 69.5179138184
-34.1887855530 16.3059368134 69.3225631714
-34.2069282532 16.3181133270 69.1268386841
-34.2165718079 16.3257617950 68.9301986694
-34.2151603699 16.3275184631 68.7323303223
-34.2029571533 16.3235263824 68.5332565308
-34.1828536987 16.3153228760 68.3332672119
-34.1596450806 16.3054656982 68.1328887939
-34.1382904053 16.2965946198 67.9326705933
-34.1218833923 16.2903633118 67.7329788208
-34.1112365723 16.2872009277 67.5339126587
-34.1063575745 16.2871112823 67.3354797363
-34.1080665588 16.2905330658 67.1378021240
-34.1178054810 16.2982349396 66.9410476685
-34.1358375549 16.3103523254 66.7452697754
-34.1597595215 16.3256092072 66.5502014160
-34.1851692200 16.3416576385 66.3553314209
-34.2079200745 16.3562927246 66.1601638794
-34.2258377075 16.3683490753 65.9644393921
-34.2387657166 16.3777465820 65.7681274414
-34.2477073669 16.3850212097 65.5713272095
-34.2539062500 16.3908348083 65.3741989136
-34.2581329346 16.3955993652 65.1768264771
-34.2602958679 16.3992633820 64.9791870117
-34.2595672607 16.4013862610 64.7811813354
-34.2550086975 16.4014701843 64.5826797485
-34.2464256287 16.3994083405 64.3836517334
-34.2349624634 16.3958148956 64.1842346191
-34.2230911255 16.3920040131 63.9847335815
-34.2139053345 16.3896236420 63.7855529785
-34.2101745605 16.3901500702 63.5870513916
-34.2135200500 16.3944435120 63.3894462585
-34.2238197327 16.4024429321 63.1927413940
-34.2392311096 16.4131641388 62.9967079163
-34.2572784424 16.4252910614 62.8010330200
-34.2761955261 16.4378795624 62.6054878235
-34.2944984436 16.4501419067 62.4098777771
-34.3092422485 16.4605064392 62.2138023376
-34.3164672852 16.4668693542 62.0167236328
-34.3149108887 16.4685535431 61.8184547424
-34.3086853027 16.4677524567 61.6195335388
-34.3049468994 16.4682750702 61.4209365845
-34.3083877563 16.4726200104 61.2233047485
-34.3180770874 16.4802951813 61.0265312195
-34.3293075562 16.4887886047 60.8299751282
-34.3377609253 16.4958057404 60.6330337524
-34.3418312073 16.5004863739 60.4354743958
-34.3419723511 16.5030765533 60.2373580933
-34.3389358521 16.5039730072 60.0387802124
-34.3328285217 16.5032367706 59.8397445679
-34.3238296509 16.5009593964 59.6402778625
-34.3138923645 16.4981842041 59.4406471252
-34.3071022034 16.4970836639 59.2414512634
-34.3069496155 16.4995174408 59.0431938171
-34.3129653931 16.5052375793 58.8458251953
-34.3210487366 16.5120563507 58.6487579346
-34.3274307251 16.5179710388 58.4514350891
-34.3316383362 16.5227279663 58.2537918091
-34.3359832764 16.5275573730 58.0561599731
-34.3433494568 16.5339927673 57.8589744568
-34.3553924561 16.5429210663 57.6624946594
-34.3715324402 16.5540294647 57.4666328430
-34.3889198303 16.5658035278 57.2709732056
-34.4039649963 16.5763282776 57.0749702454
-34.4144248962 16.5844135284 56.8782730103
-34.4201278687 16.5899677277 56.6808471680
-34.4218330383 16.5933914185 56.4827995300
-34.4198913574 16.5948734283 56.2841758728
-34.4141502380 16.5943355560 56.0849456787
-34.4048309326 16.5918903351 55.8851318359
-34.3929519653 16.5880870819 55.6848907471
-34.3799285889 16.5836696625 55.4844398499
-34.3670196533 16.5793170929 55.2839775085
-34.3552932739 16.5755939484 55.0836715698
-34.3455543518 16.5729274750 54.8836555481
-34.3381996155 16.5715312958 54.6839981079
-34.3335952759 16.5715999603 54.4847640991
-34.3327713013 16.5736827850 54.2861251831
-34.3376350403 16.5787906647 54.0883979797
-34.3501281738 16.5879573822 53.8919181824
-34.3707008362 16.6014270782 53.6967735291
-34.3976974487 16.6183128357 53.5027046204
-34.4285697937 16.6372623444 53.3093109131
-34.4616966248 16.6574115753 53.1163215637
-34.4962844849 16.6783370972 52.9236106873
-34.5308151245 16.6992301941 52.7309303284
-34.5624656677 16.7185916901 52.5377998352
-34.5880851746 16.7347450256 52.3436775208
-34.6050682068 16.7462997437 52.1481132507
-34.6117439270 16.7523708344 51.9507942200
-34.6080474854 16.7529239655 51.7516937256
-34.5957832336 16.7489147186 51.5511016846
-34.5776443481 16.7417831421 51.3494606018
-34.5563774109 16.7329864502 51.1472358704
-34.5354385376 16.7243633270 50.9450263977
-34.5196952820 16.7185077667 50.7436866760
-34.5137519836 16.7178668976 50.5440368652
-34.5186996460 16.7230186462 50.3462905884
-34.5308685303 16.7320137024 50.1498222351
-34.5444374084 16.7417545319 49.9536056519
-34.5553283691 16.7500686646 49.7569160461
-34.5628662109 16.7566013336 49.5596313477
-34.5685844421 16.7621631622 49.3620147705
-34.5743026733 16.7677249908 49.1643981934
-34.5812644958 16.7739505768 48.9669990540
-34.5904541016 16.7813606262 48.7700080872
-34.6031646729 16.7906436920 48.5736579895
-34.6207389832 16.8025131226 48.3782119751
-34.6433067322 16.8170394897 48.1837005615
-34.6686706543 16.8330535889 47.9897270203
-34.6929168701 16.8484706879 47.7955665588
-34.7123985291 16.8613567352 47.6005439758
-34.7252693176 16.8707218170 47.4042930603
-34.7314949036 16.8765544891 47.2068023682
-34.7322654724 16.8794860840 47.0082740784
-34.7295913696 16.8805847168 46.8090858459
-34.7261810303 16.8812923431 46.6097412109
-34.7249717712 16.8831710815 46.4107971191
-34.7283134460 16.8874721527 46.2127151489
-34.7375144958 16.8948860168 46.0157508850
-34.7531738281 16.9057369232 45.8200340271
-34.7758369446 16.9203109741 45.6256866455
-34.8056411743 16.9386844635 45.4327468872
-34.8407173157 16.9598617554 45.2408714294
-34.8761901855 16.9812469482 45.0491104126
-34.9059829712 16.9996128082 44.8562698364
-34.9263305664 17.0129547119 44.6615943909
-34.9373779297 17.0213508606 44.4650917053
-34.9415321350 17.0260810852 44.2672233582
-34.9407920837 17.0282096863 44.0683746338
-34.9353065491 17.0278148651 43.8685569763
-34.9236412048 17.0241336823 43.6674804688
-34.9047813416 17.0166263580 43.4649238586
-34.8810195923 17.0065135956 43.2613334656
-34.8589019775 16.9972763062 43.0580329895
-34.8458595276 16.9928646088 42.8565406799
-34.8453254700 16.9951038361 42.6575737000
-34.8555793762 17.0030803680 42.4608078003
-34.8727264404 17.0147209167 42.2654685974
-34.8931884766 17.0281219482 42.0708236694
-34.9137115479 17.0415573120 41.8762092590
-34.9313430786 17.0534553528 41.6810073853
-34.9445915222 17.0630245209 41.4849090576
-34.9542007446 17.0706539154 41.2880516052
-34.9623451233 17.0775089264 41.0908851624
-34.9715232849 17.0849113464 40.8939399719
-34.9841766357 17.0941619873 40.6977310181
-35.0028114319 17.1065940857 40.5027999878
-35.0294914246 17.1233005524 40.3095970154
-35.0642051697 17.1442775726 40.1181373596
-35.1033859253 17.1676292419 39.9276733398
-35.1407279968 17.1900005341 39.7368583679
-35.1704940796 17.2083454132 39.5444526672
-35.1904678345 17.2214870453 39.3499488831
-35.2018432617 17.2300548553 39.1535949707
-35.2067756653 17.2352008820 38.9558372498
-35.2064170837 17.2375335693 38.7569160461
-35.2010993958 17.2372322083 38.5568962097
-35.1923103333 17.2350845337 38.3560867310
-35.1843070984 17.2333545685 38.1554298401
-35.1835594177 17.2354812622 37.9563560486
-35.1958694458 17.2445468903 37.7601737976
-35.2230720520 17.2615299225 37.5673255920
-35.2616310120 17.2845458984 37.3770446777
-35.3044204712 17.3098106384 37.1877555847
-35.3448448181 17.3338165283 36.9979858398
-35.3801269531 17.3550910950 36.8070983887
-35.4114112854 17.3742389679 36.6153411865
-35.4411277771 17.3925533295 36.4232635498
-35.4700927734 17.4104690552 36.2310409546
-35.4965744019 17.4270648956 36.0382804871
-35.5178871155 17.4409141541 35.8443603516
-35.5328292847 17.4513740540 35.6489868164
-35.5423851013 17.4589748383 35.4523811340
-35.5485115051 17.4647541046 35.2549819946
-35.5526351929 17.4694671631 35.0571098328
-35.5552139282 17.4733619690 34.8588752747
-35.5559997559 17.4763011932 34.6602096558
-35.5543708801 17.4779605865 34.4609680176
-35.5496482849 17.4779758453 34.2609863281
-35.5419845581 17.4764270782 34.0602874756
-35.5337753296 17.4745903015 33.8594360352
-35.5301055908 17.4751663208 33.6596412659
-35.5367164612 17.4812011719 33.4622764587
-35.5569992065 17.4945030212 33.2681770325
-35.5908966064 17.5150356293 33.0773582458
-35.6357498169 17.5413875580 32.8892135620
-35.6869812012 17.5711269379 32.7026557922
-35.7381896973 17.6008548737 32.5161552429
-35.7823562622 17.6268386841 32.3280067444
-35.8143157959 17.6463413239 32.1369400024
-35.8326759338 17.6586170197 31.9425888062
-35.8394432068 17.6647357941 31.7454147339
-35.8378944397 17.6664352417 31.5461940765
-35.8304710388 17.6650161743 31.3455142975
-35.8181724548 17.6610069275 31.1436100006
-35.8016891479 17.6547756195 30.9406356812
-35.7833824158 17.6475753784 30.7371749878
-35.7684555054 17.6421718597 30.5345172882
-35.7638015747 17.6422252655 30.3343906403
-35.7750740051 17.6507377625 30.1382369995
-35.8039550781 17.6686019897 29.9465103149
-35.8472709656 17.6941318512 29.7584495544
-35.8982238770 17.7237167358 29.5723686218
-35.9492340088 17.7533321381 29.3863620758
-35.9951438904 17.7802371979 29.1991214752
-36.0347328186 17.8037853241 29.0103244781
-36.0694007874 17.8247203827 28.8203144073
-36.1005401611 17.8437805176 28.6294384003
-36.1283645630 17.8610782623 28.4377422333
-36.1527709961 17.8765621185 28.2451934814
-36.1742134094 17.8904724121 28.0519008636
-36.1936149597 17.9032993317 27.8580989838
-36.2121353149 17.9156551361 27.6640834808
-36.2311439514 17.9282703400 27.4702091217
-36.2518882751 17.9418106079 27.2768058777
-36.2749404907 17.9565734863 27.0840225220
-36.3001632690 17.9724884033 26.8918304443
-36.3269577026 17.9892368317 26.7000770569
-36.3540496826 18.0061454773 26.5084304810
-36.3796463013 18.0222587585 26.3164119720
-36.4026260376 18.0369815826 26.1237239838
-36.4236907959 18.0506877899 25.9305477142
-36.4450950623 18.0645751953 25.7374782562
-36.4690208435 18.0797996521 25.5451030731
-36.4957580566 18.0965156555 25.3535060883
-36.5230178833 18.1135101318 25.1620750427
-36.5470809937 18.1288070679 24.9698104858
-36.5650482178 18.1408672333 24.7759170532
-36.5762138367 18.1493148804 24.5801887512
-36.5817871094 18.1547985077 24.3829460144
-36.5838699341 18.1584243774 24.1847457886
-36.5845527649 18.1613101959 23.9861545563
-36.5855255127 18.1643486023 23.7876300812
-36.5878982544 18.1681327820 23.5894813538
-36.5923690796 18.1730289459 23.3919010162
-36.5996551514 18.1794185638 23.1950931549
-36.6110496521 18.1879901886 22.9994220734
-36.6283760071 18.1997089386 22.8054027557
-36.6529579163 18.2152805328 22.6134185791
-36.6847763062 18.2346897125 22.4234790802
-36.7230644226 18.2575340271 22.2353839874
-36.7674255371 18.2836017609 22.0490379333
-36.8171043396 18.3124885559 21.8642387390
-36.8688468933 18.3424720764 21.6800823212
-36.9167518616 18.3704166412 21.4949035645
-36.9553337097 18.3934154510 21.3071365356
-36.9827537537 18.4104881287 21.1162376404
-37.0010643005 18.4227256775 20.9227714539
-37.0140304565 18.4321269989 20.7277908325
-37.0250587463 18.4405021667 20.5322628021
-37.0365066528 18.4490985870 20.3368568420
-37.0500717163 18.4588165283 20.1420650482
-37.0673332214 18.4704990387 19.9483509064
-37.0897369385 18.4849071503 19.7561340332
-37.1176147461 18.5022201538 19.5655269623
-37.1489448547 18.5213661194 19.3759517670
-37.1790885925 18.5398826599 19.1860637665
-37.2026367188 18.5548973083 18.9942798615
-37.2168350220 18.5649528503 18.7997760773
-37.2240333557 18.5712909698 18.6032257080
-37.2306785583 18.5773391724 18.4065113068
-37.2436752319 18.5867557526 18.2116680145
-37.2671089172 18.6017093658 18.0199203491
-37.3006744385 18.6220378876 17.8311996460
-37.3393936157 18.6451015472 17.6440467834
-37.3754463196 18.6667480469 17.4561424255
-37.4022483826 18.6834888458 17.2655162811
-37.4180183411 18.6943759918 17.0716114044
-37.4256477356 18.7009410858 16.8752708435
-37.4297752380 18.7056522369 16.6778774261
-37.4341659546 18.7105026245 16.4805564880
-37.4408416748 18.7165641785 16.2839221954
-37.4504394531 18.7241764069 16.0881690979
-37.4628448486 18.7332782745 15.8932723999
-37.4777908325 18.7437267303 15.6991539001
-37.4953727722 18.7555732727 15.5058498383
-37.5163612366 18.7692279816 15.3136014938
-37.5420989990 18.7854003906 15.1228275299
-37.5736999512 18.8046836853 14.9338817596
-37.6107711792 18.8268661499 14.7466535568
-37.6505622864 18.8504924774 14.5603084564
-37.6884346008 18.8730983734 14.3734140396
-37.7192039490 18.8919353485 14.1843576431
-37.7387733459 18.9048347473 13.9918498993
-37.7461471558 18.9112663269 13.7955570221
-37.7450752258 18.9132175446 13.5966215134
-37.7432670593 18.9147796631 13.3974418640
-37.7493095398 18.9205036163 13.2007131577
-37.7696266174 18.9337978363 13.0084714890
-37.8068466187 18.9560585022 12.8215799332
-37.8592758179 18.9863796234 12.6395359039
-37.9216880798 19.0219974518 12.4607191086
-37.9877319336 19.0595359802 12.2831325531
-38.0520973206 19.0961856842 12.1050968170
-38.1110153198 19.1299457550 11.9254026413
-38.1619262695 19.1594600677 11.7432231903
-38.2039794922 19.1842765808 11.5582647324
-38.2388305664 19.2052726746 11.3710422516
-38.2702713013 19.2244606018 11.1827611923
-38.3024101257 19.2440185547 10.9947385788
-38.3377227783 19.2652587891 10.8077754974
-38.3763504028 19.2882556915 10.6219263077
-38.4168739319 19.3122577667 10.4367361069
-38.4573020935 19.3362083435 10.2515621185
-38.4954757690 19.3589630127 10.0656976700
-38.5294494629 19.3794898987 9.8785037994
-38.5581855774 19.3972396851 9.6896305084
-38.5815238953 19.4121284485 9.4990139008
-38.5991058350 19.4239654541 9.3065242767
-38.6101074219 19.4323139191 9.1118774414
-38.6146278381 19.4372253418 8.9150915146
-38.6148872375 19.4398803711 8.7168884277
-38.6145362854 19.4422111511 8.5184717178
-38.6173667908 19.4462280273 8.3211002350
-38.6271438599 19.4539260864 8.1260356903
-38.6476669312 19.4673233032 7.9345664978
-38.6813926697 19.4877147675 7.7475357056
-38.7272109985 19.5145168304 7.5645999908
-38.7800025940 19.5450134277 7.3840646744
-38.8328475952 19.5755386353 7.2036113739
-38.8799705505 19.6030311584 7.0212903023
-38.9186515808 19.6260471344 6.8361654282
-38.9497337341 19.6450366974 6.6485085487
-38.9770927429 19.6620521545 6.4596176147
-39.0059089661 19.6798362732 6.2712492943
-39.0400466919 19.7004451752 6.0847296715
-39.0796699524 19.7239570618 5.9001231194
-39.1208839417 19.7483119965 5.7161068916
-39.1581611633 19.7705821991 5.5307869911
-39.1876373291 19.7887172699 5.3428215981
-39.2087516785 19.8024196625 5.1520013809
-39.2238044739 19.8129081726 4.9591031075
-39.2362976074 19.8220443726 4.7653288841
-39.2491378784 19.8313617706 4.5716795921
-39.2635078430 19.8414897919 4.3785705566
-39.2789421082 19.8521823883 4.1858401299
-39.2941246033 19.8627395630 3.9930315018
-39.3079910278 19.8726024628 3.7997732162
-39.3208465576 19.8819274902 3.6061670780
-39.3350753784 19.8919811249 3.4130516052
-39.3547286987 19.9049072266 3.2218539715
-39.3838005066 19.9228267670 3.0339994431
-39.4245414734 19.9469242096 2.8503015041
-39.4770774841 19.9772720337 2.6708323956
-39.5400428772 20.0131416321 2.4951305389
-39.6106147766 20.0530433655 2.3222167492
-39.6839637756 20.0944156647 2.1503839493
-39.7538566589 20.1339530945 1.9774093628
-39.8152885437 20.1690082550 1.8014936447
-39.8668136597 20.1988143921 1.6221003532
-39.9096832275 20.2240352631 1.4396579266
-39.9448928833 20.2451972961 1.2545057535
-39.9720115662 20.2620716095 1.0664701462
-39.9908027649 20.2745361328 0.8754501939
-40.0031356812 20.2835788727 0.6821048260
-40.0132789612 20.2914619446 0.4879688323
-40.0272979736 20.3013973236 0.2952466607
-40.0525550842 20.3172874451 0.1066306904
-27.2109184265 25.6152935028 80.5449600220
-27.2071704865 25.6145858765 80.3474044800
-27.1999149323 25.6102371216 80.1495208740
-27.1877250671 25.6007671356 79.9511795044
-27.1713237762 25.5869235992 79.7524185181
-27.1529922485 25.5710754395 79.5534439087
-27.1349582672 25.5555400848 79.3544540405
-27.1188983917 25.5420513153 79.1556091309
-27.1069965363 25.5328826904 78.9571075439
-27.1025142670 25.5314159393 78.7592773438
-27.1080188751 25.5403194427 78.5623779297
-27.1227073669 25.5587558746 78.3663711548
-27.1421680450 25.5821456909 78.1708374023
-27.1611042023 25.6049919128 77.9752731323
-27.1758232117 25.6234588623 77.7793197632
-27.1843013763 25.6354465485 77.5827560425
-27.1852817535 25.6396522522 77.3854446411
-27.1787128448 25.6360206604 77.1873550415
-27.1668701172 25.6269149780 76.9887008667
-27.1537799835 25.6165161133 76.7898864746
-27.1429157257 25.6084270477 76.5912704468
-27.1355934143 25.6040153503 76.3929977417
-27.1312847137 25.6027317047 76.1950225830
-27.1287860870 25.6033287048 75.9972152710
-27.1269378662 25.6045989990 75.7994689941
-27.1248245239 25.6055946350 75.6016845703
-27.1218414307 25.6056900024 75.4037857056
-27.1177959442 25.6046810150 75.2057495117
-27.1128768921 25.6027660370 75.0075988770
-27.1074104309 25.6002845764 74.8093719482
-27.1016292572 25.5974731445 74.6110839844
-27.0957202911 25.5945320129 74.4127655029
-27.0901508331 25.5919437408 74.2144622803
-27.0858154297 25.5906352997 74.0162811279
-27.0838680267 25.5918064117 73.8183593750
-27.0853843689 25.5965728760 73.6208343506
-27.0911540985 25.6057529449 73.4238052368
-27.1015377045 25.6197204590 73.2273254395
-27.1161270142 25.6380538940 73.0313644409
-27.1331977844 25.6589603424 72.8357238770
-27.1496162415 25.6791915894 72.6400222778
-27.1618309021 25.6950607300 72.4438171387
-27.1674308777 25.7040615082 72.2468032837
-27.1660175323 25.7057895660 72.0489120483
-27.1592273712 25.7019348145 71.8503341675
-27.1504249573 25.6959934235 71.6514739990
-27.1438484192 25.6923618317 71.4528656006
-27.1425323486 25.6941909790 71.2549209595
-27.1463260651 25.7013206482 71.0576248169
-27.1522636414 25.7106742859 70.8606033325
-27.1571464539 25.7189350128 70.6634368896
-27.1596546173 25.7247314453 70.4659652710
-27.1604709625 25.7287731171 70.2682571411
-27.1612434387 25.7327671051 70.0705261230
-27.1638450623 25.7386608124 69.8730468750
-27.1701259613 25.7483730316 69.6760559082
-27.1815109253 25.7633781433 69.4797592163
-27.1980743408 25.7837581635 69.2841873169
-27.2179622650 25.8075847626 69.0891036987
-27.2382450104 25.8318214417 68.8940963745
-27.2568054199 25.8542709351 68.6988677979
-27.2734241486 25.8747081757 68.5033950806
-27.2891025543 25.8941669464 68.3078002930
-27.3044605255 25.9132919312 68.1121826172
-27.3188514709 25.9314155579 67.9164428711
-27.3309707642 25.9471817017 67.7203826904
-27.3401470184 25.9598960876 67.5239105225
-27.3468055725 25.9699954987 67.3270721436
-27.3517875671 25.9783573151 67.1299896240
-27.3555450439 25.9854488373 66.9327239990
-27.3580169678 25.9912071228 66.7352600098
-27.3590316772 25.9954547882 66.5375747681
-27.3586959839 25.9983005524 66.3396759033
-27.3574790955 26.0002326965 66.1416244507
-27.3560256958 26.0019207001 65.9435272217
-27.3549671173 26.0040187836 65.7454833984
-27.3547592163 26.0069980621 65.5475540161
-27.3554725647 26.0109329224 65.3497543335
-27.3565940857 26.0152912140 65.1520156860
-27.3571033478 26.0190162659 64.9541702271
-27.3558826447 26.0209465027 64.7560348511
-27.3521728516 26.0202941895 64.5574951172
-27.3459033966 26.0169868469 64.3585281372
-27.3378448486 26.0118274689 64.1592483521
-27.3293476105 26.0062122345 63.9598731995
-27.3215427399 26.0013141632 63.7605857849
-27.3143768311 25.9970817566 63.5613746643
-27.3062801361 25.9918823242 63.3619918823
-27.2949886322 25.9833698273 63.1620483398
-27.2793006897 25.9702987671 62.9613456726
-27.2604846954 25.9539871216 62.7600784302
-27.2420749664 25.9380950928 62.5588340759
-27.2282466888 25.9269542694 62.3583221436
-27.2221679688 25.9238510132 62.1590957642
-27.2251167297 25.9301090240 61.9613914490
-27.2359962463 25.9445896149 61.7650451660
-27.2509078979 25.9632530212 61.5694084167
-27.2636241913 25.9796390533 61.3734016418
-27.2679901123 25.9873676300 61.1759529114
-27.2613754272 25.9837093353 60.9765701294
-27.2462482452 25.9712238312 60.7756576538
-27.2282543182 25.9557685852 60.5742034912
-27.2127017975 25.9428462982 60.3731384277
-27.2025375366 25.9355087280 60.1730041504
-27.1987628937 25.9347972870 59.9739875793
-27.2017211914 25.9410667419 59.7761764526
-27.2115001678 25.9544086456 59.5796012878
-27.2272129059 25.9739017487 59.3841171265
-27.2464008331 25.9969978333 59.1892890930
-27.2658424377 26.0203552246 58.9945335388
-27.2833404541 26.0416984558 58.7994422913
-27.2986660004 26.0607891083 58.6039657593
-27.3125190735 26.0783519745 58.4082298279
-27.3244838715 26.0939579010 58.2121543884
-27.3322525024 26.1052131653 58.0152931213
-27.3333511353 26.1095542908 57.8171691895
-27.3276615143 26.1068592072 57.6177368164
-27.3177909851 26.0998306274 57.4174842834
-27.3070487976 26.0918979645 57.2170295715
-27.2975730896 26.0852794647 57.0167961121
-27.2901439667 26.0807819366 56.8169288635
-27.2849903107 26.0786437988 56.6174850464
-27.2824726105 26.0792388916 56.4185371399
-27.2833232880 26.0833244324 56.2202415466
-27.2884216309 26.0918140411 56.0227775574
-27.2981300354 26.1050815582 55.8262329102
-27.3117866516 26.1224403381 55.6304817200
-27.3281269073 26.1425819397 55.4352874756
-27.3460178375 26.1643295288 55.2404212952
-27.3638839722 26.1860504150 55.0455741882
-27.3787403107 26.2046546936 54.8501358032
-27.3877182007 26.2171611786 54.6535110474
-27.3913822174 26.2241630554 54.4557991028
-27.3942737579 26.2303657532 54.2579231262
-27.4012851715 26.2408351898 54.0608940125
-27.4137973785 26.2570075989 53.8650131226
-27.4291954041 26.2761707306 53.6697502136
-27.4432353973 26.2939243317 53.4742202759
-27.4526062012 26.3068408966 53.2777175903
-27.4560108185 26.3135738373 53.0799560547
-27.4541950226 26.3148975372 52.8810806274
-27.4500827789 26.3138408661 52.6816978455
-27.4485263824 26.3154315948 52.4828491211
-27.4539661407 26.3242759705 52.2854919434
-27.4664306641 26.3403987885 52.0896568298
-27.4797687531 26.3574237823 51.8940200806
-27.4855270386 26.3665962219 51.6967468262
-27.4799861908 26.3640613556 51.4969940186
-27.4673118591 26.3541336060 51.2956504822
-27.4553871155 26.3449840546 51.0944404602
-27.4490642548 26.3416385651 50.8944396973
-27.4478225708 26.3435592651 50.6955490112
-27.4486865997 26.3476619720 50.4971160889
-27.4496593475 26.3518772125 50.2986984253
-27.4505500793 26.3560066223 50.1002540588
-27.4522151947 26.3609390259 49.9019737244
-27.4559974670 26.3680648804 49.7041702271
-27.4636459351 26.3791961670 49.5072441101
-27.4768238068 26.3960571289 49.3115882874
-27.4959259033 26.4190559387 49.1173057556
-27.5191211700 26.4462947845 48.9239959717
-27.5428466797 26.4740791321 48.7308387756
-27.5634613037 26.4986438751 48.5369911194
-27.5785427094 26.5174732208 48.3418769836
-27.5870704651 26.5295162201 48.1452445984
-27.5891723633 26.5349006653 47.9470977783
-27.5859413147 26.5347595215 47.7476882935
-27.5792179108 26.5310039520 47.5474319458
-27.5711593628 26.5258636475 47.3468322754
-27.5637168884 26.5213623047 47.1463546753
-27.5583457947 26.5190067291 46.9463539124
-27.5559844971 26.5197715759 46.7470550537
-27.5571708679 26.5242080688 46.5485992432
-27.5620403290 26.5324611664 46.3510284424
-27.5702266693 26.5441493988 46.1542663574
-27.5808963776 26.5584087372 45.9581146240
-27.5930461884 26.5742034912 45.7623329163
-27.6060104370 26.5908393860 45.5667648315
-27.6198501587 26.6083831787 45.3714294434
-27.6351985931 26.6274890900 45.1764793396
-27.6523590088 26.6484718323 44.9819984436
-27.6703662872 26.6703300476 44.7877464294
-27.6871471405 26.6909179688 44.5932121277
-27.7007274628 26.7081928253 44.3978919983
-27.7102088928 26.7212200165 44.2015495300
-27.7158298492 26.7302494049 44.0042343140
-27.7188377380 26.7365741730 43.8062515259
-27.7215805054 26.7426242828 43.6081962585
-27.7271842957 26.7516365051 43.4108695984
