-6.2631826401 -41.5647354126 16.1319808960
-6.2659358978 -41.5675506592 15.9339742661
-6.2685060501 -41.5693168640 15.7356710434
-6.2713336945 -41.5725555420 15.5377597809
-6.2747731209 -41.5792808533 15.3407964706
-6.2789897919 -41.5904426575 15.1450481415
-6.2838997841 -41.6055603027 14.9503927231
-6.2892155647 -41.6229934692 14.7563829422
-6.2945871353 -41.6407432556 14.5624713898
-6.2997660637 -41.6573982239 14.3682651520
-6.3047285080 -41.6728134155 14.1737222672
-6.3097171783 -41.6883811951 13.9792289734
-6.3151683807 -41.7065887451 13.7854804993
-6.3215188980 -41.7299308777 13.5931806564
-6.3289594650 -41.7594947815 13.4026470184
-6.3373670578 -41.7945785522 13.2136926651
-6.3465332985 -41.8339958191 13.0259933472
-6.3564305305 -41.8775901794 12.8395128250
-6.3671030998 -41.9256095886 12.6543312073
-6.3782758713 -41.9764900208 12.4700117111
-6.3891911507 -42.0259017944 12.2853260040
-6.3989071846 -42.0684700012 12.0987386703
-6.4067840576 -42.1005439758 11.9091901779
-6.4127597809 -42.1217613220 11.7165565491
-6.4172611237 -42.1345634460 11.5215187073
-6.4209179878 -42.1425437927 11.3250951767
-6.4243440628 -42.1492080688 11.1282882690
-6.4281058311 -42.1577835083 10.9320316315
-6.4327549934 -42.1714286804 10.7372417450
-6.4387502670 -42.1927642822 10.5446920395
-6.4462461472 -42.2226676941 10.3546524048
-6.4549674988 -42.2595748901 10.1666841507
-6.4643816948 -42.3004417419 9.9799079895
-6.4739789963 -42.3423576355 9.7934799194
-6.4833002090 -42.3826942444 9.6066293716
-6.4917621613 -42.4181289673 9.4183740616
-6.4987187386 -42.4449653625 9.2276124954
-6.5038223267 -42.4612197876 9.0337409973
-6.5072779655 -42.4680519104 8.8370857239
-6.5097165108 -42.4690818787 8.6387004852
-6.5118684769 -42.4684677124 8.4398136139
-6.5143017769 -42.4694633484 8.2413940430
-6.5173325539 -42.4738693237 8.0439815521
-6.5211029053 -42.4825019836 7.8478293419
-6.5257492065 -42.4961433411 7.6531791687
-6.5315060616 -42.5161285400 7.4604444504
-6.5386509895 -42.5440483093 7.2701158524
-6.5474467278 -42.5814056396 7.0826635361
-6.5582065582 -42.6299896240 6.8986487389
-6.5712442398 -42.6915969849 6.7186388969
-6.5864210129 -42.7654342651 6.5424180031
-6.6026077271 -42.8450508118 6.3680424690
-6.6177783012 -42.9188652039 6.1919827461
-6.6298775673 -42.9751281738 6.0106315613
-6.6378698349 -43.0079116821 5.8221340179
-6.6422696114 -43.0201606750 5.6273498535
-6.6448769569 -43.0221633911 5.4294095039
-6.6478552818 -43.0262832642 5.2321128845
-6.6527037621 -43.0410957336 5.0381188393
-6.6597638130 -43.0685577393 4.8480529785
-6.6684565544 -43.1053543091 4.6609125137
-6.6779017448 -43.1464576721 4.4751472473
-6.6873707771 -43.1877021790 4.2894668579
-6.6963911057 -43.2263793945 4.1030240059
-6.7047467232 -43.2612609863 3.9154279232
-6.7125988007 -43.2932662964 3.7269601822
-6.7205581665 -43.3258781433 3.5387134552
-6.7294936180 -43.3640823364 3.3522584438
-6.7400383949 -43.4114952087 3.1687498093
-6.7519917488 -43.4669647217 2.9878432751
-6.7641072273 -43.5233688354 2.8072905540
-6.7746410370 -43.5707283020 2.6239221096
-6.7823076248 -43.6016845703 2.4353756905
-6.7867951393 -43.6144561768 2.2410495281
-6.7885808945 -43.6117630005 2.0417804718
-6.7885537148 -43.5987014771 1.8391692638
-6.7878718376 -43.5818901062 1.6353231668
-6.7878308296 -43.5687408447 1.4326217175
-6.7894062996 -43.5648422241 1.2328730822
-6.7927427292 -43.5710220337 1.0363633633
-6.7972078323 -43.5836563110 0.8419392705
-6.8020286560 -43.5983314514 0.6481798887
-6.8069047928 -43.6133232117 0.4545297325
-6.8121876717 -43.6306419373 0.2616442144
-6.8187704086 -43.6554031372 0.0711976364
-16.2091159821 -34.2842597961 80.9720764160
-16.2139377594 -34.2886161804 80.7754364014
-16.2197380066 -34.2948036194 80.5789260864
-16.2248573303 -34.2997131348 80.3823165894
-16.2300949097 -34.3048477173 80.1857223511
-16.2378139496 -34.3146324158 79.9894485474
-16.2497749329 -34.3323707581 79.7937393188
-16.2657012939 -34.3575439453 79.5985794067
-16.2833709717 -34.3859825134 79.4036712646
-16.2999725342 -34.4124259949 79.2086486816
-16.3136425018 -34.4333724976 79.0132446289
-16.3240013123 -34.4481086731 78.8173980713
-16.3316860199 -34.4578285217 78.6211853027
-16.3376636505 -34.4643478394 78.4247360229
-16.3428516388 -34.4693908691 78.2281646729
-16.3479957581 -34.4743499756 78.0315856934
-16.3535423279 -34.4800605774 77.8350601196
-16.3595561981 -34.4866523743 77.6385955811
-16.3657836914 -34.4936447144 77.4421615601
-16.3718414307 -34.5003128052 77.2457046509
-16.3774185181 -34.5060844421 77.0491714478
-16.3823795319 -34.5107002258 76.8525390625
-16.3867607117 -34.5142250061 76.6558074951
-16.3906898499 -34.5169067383 76.4590072632
-16.3943042755 -34.5189971924 76.2621383667
-16.3976726532 -34.5206222534 76.0652313232
-16.4007530212 -34.5217094421 75.8682632446
-16.4034099579 -34.5220031738 75.6712188721
-16.4054355621 -34.5211105347 75.4740600586
-16.4065818787 -34.5185737610 75.2767486572
-16.4065570831 -34.5138359070 75.0792236328
-16.4050712585 -34.5063552856 74.8814392090
-16.4019279480 -34.4957656860 74.6833572388
-16.3971710205 -34.4821510315 74.4849700928
-16.3913383484 -34.4665184021 74.2863693237
-16.3855648041 -34.4509963989 74.0877532959
-16.3810062408 -34.4377517700 73.8893051147
-16.3776950836 -34.4268455505 73.6910476685
-16.3743095398 -34.4157981873 73.4927444458
-16.3696422577 -34.4023475647 73.2941894531
-16.3642520905 -34.3875389099 73.0954742432
-16.3603992462 -34.3756141663 72.8970031738
-16.3604717255 -34.3710517883 72.6992111206
-16.3655948639 -34.3759651184 72.5023193359
-16.3752193451 -34.3893203735 72.3062438965
-16.3875217438 -34.4076995850 72.1106719971
-16.4005031586 -34.4273567200 71.9152450562
-16.4132022858 -34.4464797974 71.7197723389
-16.4260253906 -34.4658393860 71.5243453979
-16.4398441315 -34.4870643616 71.3291168213
-16.4547061920 -34.5102500916 71.1341171265
-16.4693946838 -34.5331115723 70.9390945435
-16.4822578430 -34.5525436401 70.7437438965
-16.4924831390 -34.5670318604 70.5478897095
-16.5004940033 -34.5773620605 70.3516082764
-16.5071964264 -34.5852394104 70.1550750732
-16.5130996704 -34.5916137695 69.9583740234
-16.5181369781 -34.5963668823 69.7615051270
-16.5221138000 -34.5991325378 69.5644149780
-16.5251998901 -34.6002197266 69.3671340942
-16.5280799866 -34.6009216309 69.1697998047
-16.5317687988 -34.6031455994 68.9726181030
-16.5371608734 -34.6085624695 68.7757873535
-16.5443687439 -34.6173858643 68.5793228149
-16.5521335602 -34.6272544861 68.3829879761
-16.5580844879 -34.6337203979 68.1862640381
-16.5602626801 -34.6331062317 67.9887313843
-16.5587577820 -34.6255798340 67.7904052734
-16.5556125641 -34.6149749756 67.5916976929
-16.5531139374 -34.6055793762 67.3931045532
-16.5523681641 -34.5994758606 67.1948699951
-16.5533485413 -34.5966110229 66.9969940186
-16.5556545258 -34.5962333679 66.7993850708
-16.5589904785 -34.5977897644 66.6020050049
-16.5631332397 -34.6008567810 66.4047851563
-16.5677833557 -34.6048812866 66.2076797485
-16.5725917816 -34.6091995239 66.0105972290
-16.5773983002 -34.6135139465 65.8135147095
-16.5825443268 -34.6184654236 65.6165008545
-16.5890464783 -34.6259651184 65.4197921753
-16.5983181000 -34.6386604309 65.2237243652
-16.6113624573 -34.6584358215 65.0285339355
-16.6279659271 -34.6848983765 64.8342056274
-16.6465854645 -34.7151412964 64.6403656006
-16.6652088165 -34.7453956604 64.4465637207
-16.6826934814 -34.7735099792 64.2525177002
-16.6995697021 -34.8004875183 64.0583572388
-16.7174739838 -34.8293914795 63.8644714355
-16.7374248505 -34.8621368408 63.6711120605
-16.7584171295 -34.8968391418 63.4780349731
-16.7773838043 -34.9277458191 63.2845039368
-16.7902164459 -34.9471321106 63.0894927979
-16.7933425903 -34.9482917786 62.8920974731
-16.7858810425 -34.9295768738 62.6920585632
-16.7711544037 -34.8972206116 62.4901618958
-16.7554740906 -34.8630714417 62.2879676819
-16.7447414398 -34.8382072449 62.0869636536
-16.7418479919 -34.8280639648 61.8879013062
-16.7465896606 -34.8322563171 61.6907653809
-16.7571105957 -34.8472976685 61.4951095581
-16.7712383270 -34.8691177368 61.3003921509
-16.7867393494 -34.8935127258 61.1060485840
-16.8010387421 -34.9156532288 60.9114151001
-16.8118743896 -34.9312934875 60.7158966064
-16.8188228607 -34.9396286011 60.5193595886
-16.8237342834 -34.9441375732 60.3222846985
-16.8289451599 -34.9492149353 60.1252861023
-16.8350563049 -34.9559745789 59.9285202026
-16.8407516479 -34.9619598389 59.7316398621
-16.8445472717 -34.9643745422 59.5342445374
-16.8461227417 -34.9626235962 59.3362350464
-16.8461627960 -34.9579811096 59.1377944946
-16.8456134796 -34.9522361755 58.9391708374
-16.8453922272 -34.9471092224 58.7406196594
-16.8462314606 -34.9439697266 58.5423431396
-16.8482074738 -34.9429664612 58.3443641663
-16.8504714966 -34.9425048828 58.1464538574
-16.8518447876 -34.9403686523 57.9482803345
-16.8520393372 -34.9360160828 57.7497596741
-16.8523483276 -34.9318809509 57.5512504578
-16.8553924561 -34.9328804016 57.3535041809
-16.8643169403 -34.9449234009 57.1574325562
-16.8814373016 -34.9723701477 56.9637222290
-16.9062023163 -35.0141677856 56.7722473145
-16.9340248108 -35.0617179871 56.5817108154
-16.9581756592 -35.1023712158 56.3901557922
-16.9736518860 -35.1267280579 56.1961097717
-16.9794960022 -35.1329879761 55.9992446899
-16.9780941010 -35.1256408691 55.8002357483
-16.9731159210 -35.1115684509 55.6001434326
-16.9678325653 -35.0969276428 55.3999252319
-16.9645462036 -35.0860328674 55.2002754211
-16.9649581909 -35.0820884705 55.0017089844
-16.9705562592 -35.0878868103 54.8046951294
-16.9820289612 -35.1047210693 54.6094589233
-16.9983215332 -35.1306114197 54.4157104492
-17.0167675018 -35.1605491638 54.2226448059
-17.0343322754 -35.1888351440 54.0293388367
-17.0488624573 -35.2114143372 53.8351211548
-17.0594615936 -35.2266120911 53.6397056580
-17.0664367676 -35.2350006104 53.4431686401
-17.0713405609 -35.2394943237 53.2459793091
-17.0767936707 -35.2450180054 53.0489616394
-17.0852909088 -35.2562675476 52.8528976440
-17.0976123810 -35.2747001648 52.6580543518
-17.1123809814 -35.2977371216 52.4640045166
-17.1273155212 -35.3210792542 52.2700271606
-17.1408233643 -35.3417396545 52.0756149292
-17.1525173187 -35.3589973450 51.8806343079
-17.1626262665 -35.3732757568 51.6851501465
-17.1715393066 -35.3853034973 51.4892883301
-17.1801242828 -35.3967170715 51.2933235168
-17.1896095276 -35.4098243713 51.0976562500
-17.2002315521 -35.4250679016 50.9023704529
-17.2103366852 -35.4393386841 50.7069244385
-17.2178077698 -35.4486579895 50.5106124878
-17.2225723267 -35.4528923035 50.3134002686
-17.2271862030 -35.4568405151 50.1161308289
-17.2349815369 -35.4667701721 49.9199218750
-17.2476787567 -35.4859161377 49.7253723145
-17.2639293671 -35.5117378235 49.5320396423
-17.2794075012 -35.5361099243 49.3384704590
-17.2891025543 -35.5496101379 49.1429481506
-17.2906532288 -35.5478019714 48.9446411133
-17.2857818604 -35.5339241028 48.7441101074
-17.2785358429 -35.5155792236 48.5427246094
-17.2724094391 -35.4993362427 48.3416900635
-17.2690563202 -35.4883079529 48.1415824890
-17.2688598633 -35.4832115173 47.9425544739
-17.2720088959 -35.4844093323 47.7446784973
-17.2789783478 -35.4927825928 47.5481414795
-17.2901535034 -35.5090637207 47.3530883789
-17.3049182892 -35.5320968628 47.1593246460
-17.3211250305 -35.5578422546 46.9660911560
-17.3357906342 -35.5806884766 46.7723350525
-17.3466262817 -35.5963363647 46.5772247314
-17.3529930115 -35.6035804749 46.3805122375
-17.3556785583 -35.6039009094 46.1824645996
-17.3560848236 -35.5999412537 45.9835777283
-17.3555965424 -35.5942916870 45.7843475342
-17.3552818298 -35.5889701843 45.5851631165
-17.3558444977 -35.5853004456 45.3862800598
-17.3576984406 -35.5840606689 45.1878547668
-17.3611354828 -35.5857925415 44.9899978638
-17.3665122986 -35.5911750793 44.7928543091
-17.3743801117 -35.6012382507 44.5966339111
-17.3853778839 -35.6171913147 44.4015884399
-17.3998050690 -35.6395912170 44.2078399658
-17.4169178009 -35.6670417786 44.0151214600
-17.4346008301 -35.6955680847 43.8226470947
-17.4500236511 -35.7198410034 43.6293449402
-17.4609451294 -35.7356491089 43.4343490601
-17.4664573669 -35.7412872314 43.2373008728
-17.4667148590 -35.7370414734 43.0382308960
-17.4624080658 -35.7242088318 42.8373870850
-17.4547748566 -35.7051239014 42.6352272034
-17.4457569122 -35.6834297180 42.4324913025
-17.4375228882 -35.6632080078 42.2300186157
-17.4315757751 -35.6472892761 42.0283927917
-17.4283905029 -35.6365623474 41.8278160095
-17.4279136658 -35.6309318542 41.6282768250
-17.4303188324 -35.6307220459 41.4298515320
-17.4363117218 -35.6372566223 41.2328338623
-17.4467620850 -35.6521797180 41.0375862122
-17.4618873596 -35.6758956909 40.8442039490
-17.4806766510 -35.7065048218 40.6523132324
-17.5012893677 -35.7405433655 40.4611816406
-17.5222053528 -35.7751541138 40.2702140808
-17.5430374146 -35.8096084595 40.0792465210
-17.5642948151 -35.8448638916 39.8884887695
-17.5865745544 -35.8820419312 39.6981849670
-17.6101226807 -35.9216117859 39.5084419250
-17.6349525452 -35.9635887146 39.3192634583
-17.6605548859 -36.0070228577 39.1304550171
-17.6849403381 -36.0481681824 38.9411926270
-17.7046108246 -36.0804405212 38.7500305176
-17.7166557312 -36.0983695984 38.5557441711
-17.7211036682 -36.1020050049 38.3583068848
-17.7207965851 -36.0966949463 38.1588783264
-17.7191505432 -36.0888633728 37.9588737488
-17.7185249329 -36.0829505920 37.7592697144
-17.7203540802 -36.0816574097 37.5606803894
-17.7258548737 -36.0872726440 37.3636322021
-17.7359523773 -36.1015396118 37.1685256958
-17.7503833771 -36.1239585876 36.9752731323
-17.7670669556 -36.1506195068 36.7830009460
-17.7826938629 -36.1752891541 36.5903053284
-17.7941150665 -36.1920433044 36.3958244324
-17.7994003296 -36.1972541809 36.1987113953
-17.7981987000 -36.1902580261 35.9987907410
-17.7918357849 -36.1735458374 35.7966079712
-17.7830734253 -36.1523170471 35.5933456421
-17.7750663757 -36.1325111389 35.3903732300
-17.7699699402 -36.1181831360 35.1886291504
-17.7683086395 -36.1103172302 34.9883651733
-17.7694206238 -36.1076698303 34.7892951965
-17.7722568512 -36.1082649231 34.5909729004
-17.7758769989 -36.1103439331 34.3929862976
-17.7796974182 -36.1127891541 34.1950759888
-17.7836799622 -36.1155471802 33.9972343445
-17.7884864807 -36.1198539734 33.7997512817
-17.7951812744 -36.1277084351 33.6031074524
-17.8044624329 -36.1404418945 33.4076271057
-17.8160820007 -36.1575660706 33.2132072449
-17.8291530609 -36.1774330139 33.0194587708
-17.8431358337 -36.1990089417 32.8261413574
-17.8583106995 -36.2228317261 32.6333847046
-17.8753280640 -36.2501258850 32.4414901733
-17.8943614960 -36.2812118530 32.2505493164
-17.9148025513 -36.3149528503 32.0602836609
-17.9356956482 -36.3495445251 31.8702659607
-17.9562397003 -36.3834800720 31.6801242828
-17.9758872986 -36.4157257080 31.4896030426
-17.9944362640 -36.4459037781 31.2986068726
-18.0123825073 -36.4749488831 31.1073589325
-18.0308113098 -36.5049057007 30.9163684845
-18.0504512787 -36.5371437073 30.7259769440
-18.0707836151 -36.5706863403 30.5359439850
-18.0901279449 -36.6023635864 30.3454818726
-18.1063442230 -36.6281585693 30.1535739899
-18.1175537109 -36.6445236206 29.9593143463
-18.1230258942 -36.6500892639 29.7623386383
-18.1239318848 -36.6470527649 29.5631809235
-18.1228504181 -36.6402778625 29.3630542755
-18.1222019196 -36.6343154907 29.1631126404
-18.1231727600 -36.6314010620 28.9639301300
-18.1259975433 -36.6319770813 28.7656250000
-18.1307811737 -36.6362419128 28.5682582855
-18.1379795074 -36.6450538635 28.3720550537
-18.1483402252 -36.6598243713 28.1773929596
-18.1624336243 -36.6816215515 27.9845600128
-18.1799659729 -36.7098960876 27.7934322357
-18.1995353699 -36.7420082092 27.6033306122
-18.2193012238 -36.7744865417 27.4133586884
-18.2379646301 -36.8048973083 27.2228794098
-18.2548885345 -36.8320274353 27.0315704346
-18.2694644928 -36.8547363281 26.8391246796
-18.2809658051 -36.8716583252 26.6451702118
-18.2891235352 -36.8822784424 26.4495582581
-18.2944087982 -36.8874893188 26.2525119781
-18.2975177765 -36.8886032104 26.0543689728
-18.2986507416 -36.8859939575 25.8552227020
-18.2972679138 -36.8786430359 25.6547908783
-18.2926292419 -36.8651618958 25.4526901245
-18.2848682404 -36.8457984924 25.2489738464
-18.2757778168 -36.8239326477 25.0445423126
-18.2684803009 -36.8054389954 24.8409786224
-18.2661666870 -36.7963294983 24.6399250031
-18.2710189819 -36.8007240295 24.4425182343
-18.2838878632 -36.8202171326 24.2492256165
-18.3043155670 -36.8539543152 24.0598449707
-18.3306674957 -36.8988494873 23.8735618591
-18.3605308533 -36.9503631592 23.6891498566
-18.3915119171 -37.0039825439 23.5053806305
-18.4217948914 -37.0562896729 23.3213138580
-18.4499931335 -37.1046676636 23.1362228394
-18.4746150970 -37.1463127136 22.9493179321
-18.4940795898 -37.1782417297 22.7597522736
-18.5073089600 -37.1984252930 22.5669403076
-18.5141716003 -37.2066040039 22.3707866669
-18.5155429840 -37.2044448853 22.1717281342
-18.5133838654 -37.1956329346 21.9707813263
-18.5104446411 -37.1853485107 21.7693939209
-18.5089302063 -37.1777496338 21.5687408447
-18.5089664459 -37.1730690002 21.3688907623
-18.5087699890 -37.1679496765 21.1688976288
-18.5066413879 -37.1591911316 20.9678478241
-18.5026168823 -37.1468582153 20.7657508850
-18.4981536865 -37.1337013245 20.5633888245
-18.4947185516 -37.1224746704 20.3615493774
-18.4929637909 -37.1144218445 20.1605949402
-18.4928703308 -37.1094932556 19.9605197906
-18.4942207336 -37.1072845459 19.7612133026
-18.4971866608 -37.1081237793 19.5627746582
-18.5029602051 -37.1142539978 19.3658618927
-18.5138339996 -37.1299934387 19.1717491150
-18.5323810577 -37.1601982117 18.9818744659
-18.5601310730 -37.2077484131 18.7971134186
-18.5962200165 -37.2710151672 18.6170253754
-18.6366786957 -37.3425216675 18.4394435883
-18.6755371094 -37.4110145569 18.2610607147
-18.7076263428 -37.4667472839 18.0789909363
-18.7308750153 -37.5058174133 17.8920478821
-18.7462940216 -37.5301361084 17.7007598877
-18.7563362122 -37.5443153381 17.5064754486
-18.7633743286 -37.5528335571 17.3105068207
-18.7691097260 -37.5588951111 17.1138019562
-18.7746143341 -37.5645217896 16.9169635773
-18.7806091309 -37.5710716248 16.7203998566
-18.7877311707 -37.5797500610 16.5244750977
-18.7964859009 -37.5915069580 16.3294811249
-18.8067665100 -37.6061363220 16.1353626251
-18.8175449371 -37.6217041016 15.9415378571
-18.8274230957 -37.6355781555 15.7472076416
-18.8357219696 -37.6464729309 15.5519762039
-18.8429756165 -37.6553993225 15.3561458588
-18.8505210876 -37.6648712158 15.1604843140
-18.8598442078 -37.6777000427 14.9658546448
-18.8722438812 -37.6963272095 14.7730188370
-18.8885269165 -37.7222785950 14.5824594498
-18.9086322784 -37.7554359436 14.3941574097
-18.9317569733 -37.7942848206 14.2076578140
-18.9571914673 -37.8374938965 14.0225572586
-18.9847068787 -37.8846244812 13.8387298584
-19.0134563446 -37.9340858459 13.6556863785
-19.0408058167 -37.9809074402 13.4718761444
-19.0633621216 -38.0186920166 13.2852840424
-19.0795669556 -38.0445022583 13.0949659348
-19.0909614563 -38.0612411499 12.9018125534
-19.1009769440 -38.0753784180 12.7078475952
-19.1127891541 -38.0929069519 12.5149660110
-19.1278495789 -38.1165580750 12.3240432739
-19.1456050873 -38.1452941895 12.1347589493
-19.1643562317 -38.1759071350 11.9461040497
-19.1824588776 -38.2052993774 11.7570905685
-19.1988048553 -38.2313804626 11.5670452118
-19.2125492096 -38.2525558472 11.3754510880
-19.2229080200 -38.2673416138 11.1818189621
-19.2294406891 -38.2749137878 10.9858675003
-19.2324542999 -38.2758522034 10.7877702713
-19.2331123352 -38.2723426819 10.5882205963
-19.2332000732 -38.2677574158 10.3883047104
-19.2347469330 -38.2659263611 10.1892671585
-19.2396087646 -38.2703475952 9.9922533035
-19.2491989136 -38.2836837769 9.7981491089
-19.2643623352 -38.3075370789 9.6074972153
-19.2849712372 -38.3416633606 9.4202423096
-19.3091049194 -38.3824348450 9.2352123260
-19.3328418732 -38.4224624634 9.0499820709
-19.3517532349 -38.4533882141 8.8617887497
-19.3631649017 -38.4701690674 8.6689424515
-19.3671379089 -38.4729118347 8.4714479446
-19.3657321930 -38.4655075073 8.2705688477
-19.3619518280 -38.4536285400 8.0681734085
-19.3589534760 -38.4432182312 7.8662400246
-19.3589763641 -38.4385108948 7.6661891937
-19.3623313904 -38.4400901794 7.4682292938
-19.3676433563 -38.4453582764 7.2715005875
-19.3733272552 -38.4513282776 7.0750036240
-19.3787403107 -38.4567909241 6.8783316612
-19.3841648102 -38.4622726440 6.6816620827
-19.3901939392 -38.4688911438 6.4853749275
-19.3973255157 -38.4775962830 6.2897930145
-19.4058322906 -38.4888916016 6.0950946808
-19.4157009125 -38.5027580261 5.9012784958
-19.4267215729 -38.5187988281 5.7082138062
-19.4388237000 -38.5368843079 5.5158605576
-19.4525032043 -38.5579414368 5.3245434761
-19.4688777924 -38.5840873718 5.1349964142
-19.4890785217 -38.6174507141 4.9479656219
-19.5132865906 -38.6583824158 4.7635879517
-19.5402526855 -38.7045135498 4.5810599327
-19.5678081512 -38.7517623901 4.3989734650
-19.5940551758 -38.7965469360 4.2160859108
-19.6181545258 -38.8372764587 4.0318369865
-19.6400356293 -38.8738174438 3.8461723328
-19.6596546173 -38.9060897827 3.6590533257
-19.6769771576 -38.9340362549 3.4704506397
-19.6927890778 -38.9591217041 3.2808716297
-19.7090530396 -38.9850692749 3.0916197300
-19.7281112671 -39.0162887573 2.9042541981
-19.7511825562 -39.0550842285 2.7196011543
-19.7773685455 -39.0997581482 2.5370774269
-19.8038921356 -39.1450729370 2.3548333645
-19.8274269104 -39.1847457886 2.1706342697
-19.8456401825 -39.2143745422 1.9828989506
-19.8579692841 -39.2328987122 1.7912254333
-19.8652400970 -39.2418708801 1.5961457491
-19.8686447144 -39.2435493469 1.3984490633
-19.8689346313 -39.2393455505 1.1986284256
-19.8662395477 -39.2295074463 0.9967586398
-19.8605003357 -39.2139205933 0.7927876711
-19.8523521423 -39.1937904358 0.5871373415
-19.8440418243 -39.1733436584 0.3813325763
-19.8394889832 -39.1599960327 0.1780627966
-26.3060359955 -27.8792247772 80.7993011475
-26.2983646393 -27.8687801361 80.6017837524
-26.2881126404 -27.8558464050 80.4040222168
-26.2834053040 -27.8482551575 80.2066955566
-26.2888221741 -27.8504142761 80.0102081299
-26.3023605347 -27.8603954315 79.8144226074
-26.3172931671 -27.8717193604 79.6187667847
-26.3271293640 -27.8781337738 79.4226684570
-26.3292598724 -27.8771266937 79.2258834839
-26.3251132965 -27.8700733185 79.0285186768
-26.3183174133 -27.8604679108 78.8308868408
-26.3126907349 -27.8519897461 78.6333389282
-26.3105182648 -27.8468360901 78.4360885620
-26.3118991852 -27.8451080322 78.2391433716
-26.3157806396 -27.8457832336 78.0424270630
-26.3212604523 -27.8480014801 77.8458480835
-26.3275032043 -27.8509559631 77.6493453979
-26.3327941895 -27.8529891968 77.4527359009
-26.3347377777 -27.8518009186 77.2557983398
-26.3319492340 -27.8460521698 77.0583724976
-26.3252925873 -27.8365783691 76.8605422974
-26.3172073364 -27.8257274628 76.6625442505
-26.3100719452 -27.8157920837 76.4646148682
-26.3052978516 -27.8081283569 76.2668914795
-26.3034172058 -27.8032531738 76.0694427490
-26.3043994904 -27.8011379242 75.8722763062
-26.3077945709 -27.8013458252 75.6753463745
-26.3126964569 -27.8030033112 75.4785690308
-26.3178119659 -27.8048686981 75.2817993164
-26.3220977783 -27.8059329987 75.0849380493
-26.3259906769 -27.8066196442 74.8880310059
-26.3320026398 -27.8093471527 74.6913375854
-26.3434829712 -27.8173427582 74.4952392578
-26.3625335693 -27.8326339722 74.2999954224
-26.3891601563 -27.8552246094 74.1056060791
-26.4217967987 -27.8836059570 73.9119262695
-26.4578609467 -27.9152927399 73.7186813354
-26.4941234589 -27.9471702576 73.5255050659
-26.5271739960 -27.9759540558 73.3320007324
-26.5536365509 -27.9983882904 73.1377716064
-26.5704784393 -28.0115547180 72.9424514771
-26.5763740540 -28.0141696930 72.7458496094
-26.5732173920 -28.0080661774 72.5481719971
-26.5654315948 -27.9974975586 72.3499069214
-26.5569267273 -27.9862384796 72.1515350342
-26.5486488342 -27.9751949310 71.9531555176
-26.5390586853 -27.9628868103 71.7545852661
-26.5266132355 -27.9478282928 71.5556335449
-26.5114116669 -27.9301109314 71.3563003540
-26.4949188232 -27.9111499786 71.1567611694
-26.4792957306 -27.8930263519 70.9572906494
-26.4673328400 -27.8784294128 70.7582397461
-26.4620170593 -27.8702373505 70.5599975586
-26.4651241302 -27.8701629639 70.3628082275
-26.4759788513 -27.8775577545 70.1666183472
-26.4918117523 -27.8897495270 69.9710693359
-26.5097255707 -27.9039459229 69.7758102417
-26.5286922455 -27.9191589355 69.5807037354
-26.5496044159 -27.9362468719 69.3858718872
-26.5732650757 -27.9559822083 69.1914291382
-26.5984554291 -27.9771957397 68.9972152710
-26.6221199036 -27.9969367981 68.8028259277
-26.6410999298 -28.0121631622 68.6078186035
-26.6534290314 -28.0209808350 68.4119186401
-26.6582851410 -28.0225925446 68.2149963379
-26.6556053162 -28.0169391632 68.0170135498
-26.6463909149 -28.0049877167 67.8180999756
-26.6336460114 -27.9896335602 67.6186523438
-26.6226043701 -27.9759197235 67.4194183350
-26.6189861298 -27.9693622589 67.2211990356
-26.6260776520 -27.9731273651 67.0244903564
-26.6432495117 -27.9866104126 66.8292312622
-26.6673450470 -28.0067691803 66.6349868774
-26.6950454712 -28.0304050446 66.4412994385
-26.7236404419 -28.0549011230 66.2477722168
-26.7503986359 -28.0776290894 66.0540084839
-26.7726650238 -28.0960254669 65.8596115112
-26.7890262604 -28.1087284088 65.6643447876
-26.7998733521 -28.1161174774 65.4682769775
-26.8065757751 -28.1195087433 65.2715759277
-26.8102569580 -28.1199874878 65.0744094849
-26.8113269806 -28.1179485321 64.8768386841
-26.8097572327 -28.1133632660 64.6788482666
-26.8055458069 -28.1062335968 64.4804306030
-26.7989845276 -28.0968341827 64.2816238403
-26.7905540466 -28.0856342316 64.0824966431
-26.7807350159 -28.0730934143 63.8831176758
-26.7702331543 -28.0598945618 63.6836013794
-26.7606811523 -28.0476112366 63.4841995239
-26.7547454834 -28.0388145447 63.2853393555
-26.7546386719 -28.0356369019 63.0873947144
-26.7602748871 -28.0379962921 62.8903579712
-26.7695083618 -28.0438270569 62.6939010620
-26.7806873322 -28.0515327454 62.4977607727
-26.7950344086 -28.0622940063 62.3021469116
-26.8163642883 -28.0797901154 62.1076927185
-26.8475952148 -28.1068344116 61.9149017334
-26.8864936829 -28.1412734985 61.7234306335
-26.9251098633 -28.1754398346 61.5319595337
-26.9543972015 -28.2006130219 61.3389701843
-26.9699916840 -28.2125778198 61.1436958313
-26.9742584229 -28.2136211395 60.9465026855
-26.9740581512 -28.2103538513 60.7485351563
-26.9767036438 -28.2098312378 60.5510406494
-26.9865016937 -28.2162055969 60.3547744751
-27.0031871796 -28.2292270660 60.1597023010
-27.0226974487 -28.2449684143 59.9651412964
-27.0397357941 -28.2583293915 59.7701606750
-27.0505809784 -28.2657146454 59.5741004944
-27.0542201996 -28.2661495209 59.3767662048
-27.0514221191 -28.2603759766 59.1782760620
-27.0430507660 -28.2492275238 58.9787635803
-27.0292587280 -28.2328491211 58.7782478333
-27.0104446411 -28.2116260529 58.5767822266
-26.9892959595 -28.1881465912 58.3748435974
-26.9713535309 -28.1677627563 58.1734352112
-26.9622058868 -28.1558609009 57.9735946655
-26.9635963440 -28.1541252136 57.7756652832
-26.9729232788 -28.1600437164 57.5791893005
-26.9865684509 -28.1701297760 57.3835182190
-27.0029754639 -28.1828784943 57.1883697510
-27.0225620270 -28.1986961365 56.9938354492
-27.0455398560 -28.2177848816 56.7999534607
-27.0704536438 -28.2387428284 56.6064643860
-27.0947971344 -28.2591514587 56.4128952026
-27.1164340973 -28.2769470215 56.2188339233
-27.1339416504 -28.2907600403 56.0240020752
-27.1461563110 -28.2994670868 55.8281593323
-27.1526470184 -28.3026523590 55.6312141418
-27.1545696259 -28.3014278412 55.4333724976
-27.1539821625 -28.2977848053 55.2350273132
-27.1526737213 -28.2934436798 55.0365257263
-27.1526298523 -28.2903213501 54.8382530212
-27.1565341949 -28.2910079956 54.6407432556
-27.1656818390 -28.2967567444 54.4442749023
-27.1775970459 -28.3051738739 54.2483558655
-27.1872119904 -28.3113708496 54.0519790649
-27.1907863617 -28.3117408752 53.8543853760
-27.1885471344 -28.3065013885 53.6556015015
-27.1844406128 -28.2994575500 53.4564208984
-27.1840152740 -28.2959671021 53.2579650879
-27.1919517517 -28.3005447388 53.0612106323
-27.2101688385 -28.3150444031 52.8665771484
-27.2371425629 -28.3379917145 52.6737709045
-27.2685832977 -28.3652534485 52.4819221497
-27.2992820740 -28.3917980194 52.2899627686
-27.3252086639 -28.4137382507 52.0970344543
-27.3448333740 -28.4295978546 51.9028129578
-27.3590927124 -28.4402790070 51.7074699402
-27.3704357147 -28.4481468201 51.5115203857
-27.3817520142 -28.4559860229 51.3155670166
-27.3952770233 -28.4659595490 51.1200904846
-27.4114379883 -28.4784755707 50.9251861572
-27.4283752441 -28.4917411804 50.7304649353
-27.4431095123 -28.5028820038 50.5352783203
-27.4536609650 -28.5099849701 50.3391876221
-27.4601516724 -28.5131683350 50.1422157288
-27.4641628265 -28.5139598846 49.9446945190
-27.4674606323 -28.5140609741 49.7470054626
-27.4712371826 -28.5146255493 49.5494117737
-27.4760208130 -28.5161609650 49.3520317078
-27.4818420410 -28.5186996460 49.1548767090
-27.4884033203 -28.5219497681 48.9578781128
-27.4951648712 -28.5253944397 48.7609214783
-27.5014686584 -28.5283966064 48.5638580322
-27.5067100525 -28.5303745270 48.3665504456
-27.5105247498 -28.5309753418 48.1689071655
-27.5128822327 -28.5301666260 47.9709243774
-27.5140743256 -28.5282344818 47.7726631165
-27.5146446228 -28.5257015228 47.5742416382
-27.5152015686 -28.5231552124 47.3758049011
-27.5161628723 -28.5210018158 47.1774444580
-27.5174942017 -28.5192012787 46.9791526794
-27.5185527802 -28.5171375275 46.7807884216
-27.5181388855 -28.5136547089 46.5820617676
-27.5148200989 -28.5073661804 46.3826370239
-27.5076503754 -28.4973583221 46.1822776794
-27.4972038269 -28.4841861725 45.9811134338
-27.4859981537 -28.4702835083 45.7797355652
-27.4775600433 -28.4590492249 45.5789794922
-27.4747829437 -28.4532794952 45.3795509338
-27.4791450500 -28.4544067383 45.1818199158
-27.4909534454 -28.4627208710 44.9858741760
-27.5095710754 -28.4776077271 44.7915840149
-27.5333976746 -28.4975299835 44.5985794067
-27.5602016449 -28.5203227997 44.4063262939
-27.5875835419 -28.5436763763 44.2142448425
-27.6132450104 -28.5653686523 44.0217704773
-27.6353969574 -28.5836734772 43.8284606934
-27.6535987854 -28.5981616974 43.6341972351
-27.6689929962 -28.6099414825 43.4392509460
-27.6834373474 -28.6208038330 43.2440795898
-27.6983013153 -28.6320686340 43.0490188599
-27.7139530182 -28.6440963745 42.8541679382
-27.7301044464 -28.6566085815 42.6594543457
-27.7464447021 -28.6693019867 42.4647979736
-27.7627944946 -28.6820030212 42.2701606750
-27.7784252167 -28.6940116882 42.0753517151
-27.7914161682 -28.7034702301 41.8798751831
-27.7993240356 -28.7080211639 41.6831054688
-27.8011856079 -28.7067317963 41.4847793579
-27.7992362976 -28.7017631531 41.2854537964
-27.7987365723 -28.6981925964 41.0864830017
-27.8056049347 -28.7017364502 40.8894119263
-27.8233127594 -28.7157516479 40.6951637268
-27.8513031006 -28.7396984100 40.5036201477
-27.8859519958 -28.7700767517 40.3138580322
-27.9229450226 -28.8027210236 40.1247596741
-27.9589958191 -28.8344535828 39.9354591370
-27.9918804169 -28.8631305695 39.7453689575
-28.0196361542 -28.8868541718 39.5539550781
-28.0405597687 -28.9039764404 39.3607482910
-28.0542221069 -28.9140872955 39.1656150818
-28.0620231628 -28.9185352325 38.9689178467
-28.0663986206 -28.9196758270 38.7712936401
-28.0696353912 -28.9197139740 38.5733489990
-28.0733394623 -28.9202041626 38.3755264282
-28.0785198212 -28.9221210480 38.1780929565
-28.0857448578 -28.9260120392 37.9812088013
-28.0951690674 -28.9320278168 37.7849235535
-28.1066703796 -28.9400520325 37.5892143250
-28.1202526093 -28.9500846863 37.3940811157
-28.1363601685 -28.9625587463 37.1996536255
-28.1555538177 -28.9780120850 37.0060920715
-28.1774101257 -28.9960384369 36.8132934570
-28.1997127533 -29.0144996643 36.6206398010
-28.2190322876 -29.0300750732 36.4271736145
-28.2323570251 -29.0398616791 36.2320404053
-28.2382774353 -29.0424938202 36.0348281860
-28.2369384766 -29.0381107330 35.8355522156
-28.2297039032 -29.0280303955 35.6345863342
-28.2193813324 -29.0149688721 35.4327125549
-28.2104663849 -29.0032634735 35.2312049866
-28.2081604004 -28.9979476929 35.0315589905
-28.2161846161 -29.0026111603 34.8348617554
-28.2349586487 -29.0176601410 34.6412582397
-28.2616767883 -29.0403862000 34.4499664307
-28.2922115326 -29.0668029785 34.2598152161
-28.3230323792 -29.0934944153 34.0697860718
-28.3515853882 -29.1179962158 33.8791313171
-28.3757400513 -29.1382484436 33.6872253418
-28.3940238953 -29.1528263092 33.4936218262
-28.4066505432 -29.1619396210 33.2983665466
-28.4157676697 -29.1676597595 33.1020812988
-28.4243488312 -29.1728610992 32.9056396484
-28.4349079132 -29.1799774170 32.7097816467
-28.4490909576 -29.1905918121 32.5150070190
-28.4677104950 -29.2054977417 32.3215675354
-28.4905719757 -29.2245025635 32.1294136047
-28.5162258148 -29.2462043762 31.9381256104
-28.5423336029 -29.2683486938 31.7470016479
-28.5664615631 -29.2885780334 31.5553112030
-28.5866298676 -29.3049793243 31.3624439240
-28.6015777588 -29.3163375854 31.1680088043
-28.6110076904 -29.3223609924 30.9719009399
-28.6157550812 -29.3238601685 30.7743606567
-28.6176624298 -29.3226127625 30.5759410858
-28.6188220978 -29.3206424713 30.3772773743
-28.6204967499 -29.3191719055 30.1787586212
-28.6230449677 -29.3185443878 29.9804973602
-28.6274776459 -29.3197364807 29.7828083038
-28.6366825104 -29.3255424500 29.5865974426
-28.6536979675 -29.3388996124 29.3928222656
-28.6776638031 -29.3589744568 29.2012386322
-28.7018260956 -29.3792400360 29.0097408295
-28.7165374756 -29.3903694153 28.8152961731
-28.7150611877 -29.3858509064 28.6157493591
-28.6970958710 -29.3653907776 28.4109630585
-28.6680622101 -29.3342323303 28.2026157379
-28.6361656189 -29.3003025055 27.9932899475
-28.6095447540 -29.2714729309 27.7855739594
-28.5938301086 -29.2531871796 27.5812873840
-28.5903396606 -29.2467174530 27.3808784485
-28.5963249207 -29.2494068146 27.1834964752
-28.6075572968 -29.2571735382 26.9878044128
-28.6212787628 -29.2673435211 26.7929210663
-28.6373538971 -29.2797908783 26.5988082886
-28.6573982239 -29.2960739136 26.4060001373
-28.6828556061 -29.3175945282 26.2149772644
-28.7132949829 -29.3439292908 26.0256137848
-28.7459583282 -29.3724155426 25.8370151520
-28.7768440247 -29.3991851807 25.6478767395
-28.8026313782 -29.4210243225 25.4570922852
-28.8223381042 -29.4369850159 25.2643260956
-28.8379096985 -29.4489479065 25.0702095032
-28.8535938263 -29.4610195160 24.8761386871
-28.8743495941 -29.4779930115 24.6837711334
-28.9033966064 -29.5029869080 24.4941959381
-28.9398632050 -29.5351562500 24.3071441650
-28.9787673950 -29.5696830750 24.1209583282
-29.0145320892 -29.6011734009 23.9337673187
-29.0452518463 -29.6277866364 23.7449188232
-29.0733013153 -29.6518192291 23.5552043915
-29.1018295288 -29.6763153076 23.3656864166
-29.1312255859 -29.7016506195 23.1764965057
-29.1591415405 -29.7255554199 22.9868392944
-29.1832485199 -29.7457752228 22.7959098816
-29.2032165527 -29.7619934082 22.6035861969
-29.2202472687 -29.7753715515 22.4102706909
-29.2354793549 -29.7870101929 22.2163505554
-29.2488517761 -29.7968502045 22.0217952728
-29.2589988708 -29.8035736084 21.8261299133
-29.2643108368 -29.8056163788 21.6287860870
-29.2646007538 -29.8028049469 21.4296836853
-29.2617969513 -29.7969989777 21.2294845581
-29.2587738037 -29.7909793854 21.0291862488
-29.2577896118 -29.7869338989 20.8295841217
-29.2601242065 -29.7860984802 20.6311302185
-29.2666091919 -29.7892761230 20.4341297150
-29.2777500153 -29.7969570160 20.2387714386
-29.2930488586 -29.8086605072 20.0448932648
-29.3105125427 -29.8224582672 19.8517951965
-29.3274726868 -29.8357696533 19.6585311890
-29.3421649933 -29.8468875885 19.4644699097
-29.3545627594 -29.8557834625 19.2695980072
-29.3659191132 -29.8636741638 19.0743560791
-29.3780460358 -29.8723125458 18.8793964386
-29.3930416107 -29.8837223053 18.6854763031
-29.4130649567 -29.8999977112 18.4933853149
-29.4394187927 -29.9223995209 18.3036117554
-29.4711399078 -29.9499912262 18.1158199310
-29.5044231415 -29.9790954590 17.9286384583
-29.5340290070 -30.0046443939 17.7401542664
-29.5559864044 -30.0227928162 17.5489063263
-29.5695686340 -30.0328388214 17.3546028137
-29.5772228241 -30.0371494293 17.1581268311
-29.5828895569 -30.0395355225 16.9609127045
-29.5897731781 -30.0431022644 16.7641429901
-29.5985622406 -30.0485095978 16.5680770874
-29.6074180603 -30.0539836884 16.3720340729
-29.6143970490 -30.0576400757 16.1752910614
-29.6205139160 -30.0604629517 15.9782209396
-29.6300773621 -30.0666217804 15.7824373245
-29.6474475861 -30.0803337097 15.5895824432
-29.6732769012 -30.1022319794 15.3999252319
-29.7040252686 -30.1288890839 15.2121505737
-29.7349929810 -30.1557598114 15.0244989395
-29.7633495331 -30.1801033020 14.8358955383
-29.7882232666 -30.2010784149 14.6460046768
-29.8094120026 -30.2184867859 14.4547376633
-29.8272571564 -30.2326622009 14.2622175217
-29.8433818817 -30.2451705933 14.0690546036
-29.8605651855 -30.2587032318 13.8763093948
-29.8815364838 -30.2759037018 13.6850337982
-29.9075412750 -30.2979755402 13.4957170486
-29.9377460480 -30.3241119385 13.3080520630
-29.9700145721 -30.3522472382 13.1212224960
-30.0022621155 -30.3803615570 12.9344263077
-30.0328311920 -30.4068527222 12.7470188141
-30.0599994659 -30.4300537109 12.5583238602
-30.0821170807 -30.4483661652 12.3676891327
-30.0985183716 -30.4611454010 12.1748409271
-30.1098251343 -30.4689941406 11.9800062180
-30.1171836853 -30.4730224609 11.7836236954
-30.1215381622 -30.4741420746 11.5860538483
-30.1237201691 -30.4731597900 11.3876180649
-30.1250152588 -30.4713172913 11.1888179779
-30.1275272369 -30.4706535339 10.9904870987
-30.1341247559 -30.4739437103 10.7937669754
-30.1480636597 -30.4843425751 10.5999698639
-30.1722259521 -30.5046348572 10.4102621078
-30.2078132629 -30.5359878540 10.2251548767
-30.2532730103 -30.5768985748 10.0440549850
-30.3048686981 -30.6237506866 9.8654870987
-30.3587760925 -30.6728420258 9.6879253387
-30.4122638702 -30.7215270996 9.5102758408
-30.4626464844 -30.7672080994 9.3314476013
-30.5061759949 -30.8062553406 9.1499128342
-30.5391483307 -30.8350830078 8.9641475677
-30.5599346161 -30.8521156311 8.7734603882
-30.5693225861 -30.8581104279 8.5781402588
-30.5692462921 -30.8549423218 8.3789463043
-30.5619277954 -30.8447647095 8.1767663956
-30.5503101349 -30.8304233551 7.9727892876
-30.5385246277 -30.8159198761 7.7687063217
-30.5311126709 -30.8056468964 7.5663905144
-30.5313701630 -30.8028030396 7.3672180176
-30.5402774811 -30.8083324432 7.1716156006
-30.5565319061 -30.8209762573 6.9790654182
-30.5774879456 -30.8381729126 6.7884845734
-30.6007118225 -30.8575649261 6.5988712311
-30.6251964569 -30.8781776428 6.4098105431
-30.6508426666 -30.8999176025 6.2212638855
-30.6767349243 -30.9218940735 6.0328493118
-30.7004451752 -30.9417572021 5.8435463905
-30.7191600800 -30.9567871094 5.6521630287
-30.7310504913 -30.9652061462 5.4579119682
-30.7356166840 -30.9665317535 5.2605633736
-30.7335224152 -30.9614086151 5.0603799820
-30.7268066406 -30.9518108368 4.8582105637
-30.7192592621 -30.9414062500 4.6556587219
-30.7158279419 -30.9349880219 4.4548339844
-30.7205047607 -30.9364204407 4.2574567795
-30.7343177795 -30.9467029572 4.0639905930
-30.7556381226 -30.9642543793 3.8737592697
-30.7822036743 -30.9868850708 3.6858079433
-30.8122978210 -31.0129337311 3.4994111061
-30.8444843292 -31.0410118103 3.3139572144
-30.8776435852 -31.0700321198 3.1289653778
-30.9118366241 -31.1000537872 2.9444651604
-30.9483566284 -31.1323299408 2.7610232830
-30.9879150391 -31.1675510406 2.5789549351
-31.0285243988 -31.2037887573 2.3974001408
-31.0656356812 -31.2366390228 2.2143692970
-31.0948371887 -31.2618312836 2.0279185772
-31.1144905090 -31.2777729034 1.8373056650
-31.1258697510 -31.2857017517 1.6430658102
-31.1314086914 -31.2879714966 1.4462513924
-31.1331291199 -31.2865447998 1.2477418184
-31.1321907043 -31.2825393677 1.0480394363
-31.1292610168 -31.2766075134 0.8474346399
-31.1255779266 -31.2699451447 0.6464732289
-31.1243991852 -31.2657070160 0.4466049075
-31.1314620972 -31.2694511414 0.2504002452
-31.1531124115 -31.2873306274 0.0607237257
-33.6434364319 -18.3904476166 80.7999496460
-33.6316261292 -18.3822593689 80.6023483276
-33.6118316650 -18.3701896667 80.4041824341
-33.5911445618 -18.3576831818 80.2059173584
-33.5769004822 -18.3483104706 80.0080413818
-33.5734901428 -18.3442020416 79.8108901978
-33.5806655884 -18.3452415466 79.6144561768
-33.5945587158 -18.3495426178 79.4184951782
-33.6105346680 -18.3548603058 79.2226943970
-33.6258010864 -18.3598327637 79.0268402100
-33.6398506165 -18.3642120361 78.8309097290
-33.6531372070 -18.3682212830 78.6349258423
-33.6657333374 -18.3718948364 78.4388961792
-33.6770210266 -18.3749313354 78.2427673340
-33.6861114502 -18.3768997192 78.0464706421
-33.6922569275 -18.3774375916 77.8499526978
-33.6950263977 -18.3763332367 77.6531677246
-33.6943550110 -18.3735542297 77.4561080933
-33.6906433105 -18.3692989349 77.2587890625
-33.6847839355 -18.3640003204 77.0612792969
-33.6779479980 -18.3582248688 76.8636703491
-33.6712799072 -18.3525295258 76.6660461426
-33.6657104492 -18.3473701477 76.4684906006
-33.6619911194 -18.3431091309 76.2710647583
-33.6607322693 -18.3400440216 76.0738220215
-33.6623992920 -18.3384017944 75.8768081665
-33.6673049927 -18.3383350372 75.6800537109
-33.6757049561 -18.3399658203 75.4835815430
-33.6880416870 -18.3435134888 75.2874526978
-33.7050476074 -18.3493289948 75.0917205811
-33.7270851135 -18.3575935364 74.8964309692
-33.7527160645 -18.3676052094 74.7014770508
-33.7778205872 -18.3773612976 74.5065002441
-33.7967071533 -18.3840942383 74.3109893799
-33.8046035767 -18.3854808807 74.1145019531
-33.7997398376 -18.3806610107 73.9168624878
-33.7840194702 -18.3705635071 73.7182083130
-33.7622070313 -18.3575000763 73.5189590454
-33.7397041321 -18.3440990448 73.3196105957
-33.7200737000 -18.3320960999 73.1204757690
-33.7041091919 -18.3218784332 72.9216384888
-33.6906929016 -18.3128948212 72.7230148315
-33.6779708862 -18.3042526245 72.5244140625
-33.6640434265 -18.2950210571 72.3256683350
-33.6476631165 -18.2845973969 72.1266555786
-33.6295356750 -18.2733230591 71.9274368286
-33.6131057739 -18.2628726959 71.7283325195
-33.6034507751 -18.2557182312 71.5298690796
-33.6048355103 -18.2539348602 71.3324737549
-33.6189804077 -18.2583599091 71.1363372803
-33.6448783875 -18.2684993744 70.9413909912
-33.6796607971 -18.2829647064 70.7473678589
-33.7197494507 -18.3000106812 70.5539169312
-33.7614593506 -18.3178443909 70.3606796265
-33.8010330200 -18.3346405029 70.1672592163
-33.8350257874 -18.3487243652 69.9733047485
-33.8614273071 -18.3591117859 69.7785797119
-33.8803329468 -18.3658542633 69.5830841064
-33.8934974670 -18.3698024750 69.3869934082
-33.9035453796 -18.3722343445 69.1905746460
-33.9134674072 -18.3746051788 68.9941329956
-33.9259071350 -18.3782005310 68.7979736328
-33.9418411255 -18.3834953308 68.6021881104
-33.9596519470 -18.3897075653 68.4066238403
-33.9760131836 -18.3952102661 68.2109069824
-33.9878654480 -18.3985214233 68.0146942139
-33.9935569763 -18.3988342285 67.8177947998
-33.9923095703 -18.3957691193 67.6201095581
-33.9834403992 -18.3889942169 67.4215469360
-33.9667472839 -18.3784122467 67.2220611572
-33.9437484741 -18.3647613525 67.0218124390
-33.9180488586 -18.3497962952 66.8212051392
-33.8936119080 -18.3354434967 66.6206970215
-33.8721389771 -18.3225326538 66.4204864502
-33.8522720337 -18.3104038239 66.2204132080
-33.8318176270 -18.2979869843 66.0202331543
-33.8114242554 -18.2856006622 65.8200149536
-33.7966156006 -18.2759323120 65.6204223633
-33.7958831787 -18.2731151581 65.4224853516
-33.8154983521 -18.2802009583 65.2269973755
-33.8545303345 -18.2967376709 65.0338821411
-33.9041976929 -18.3184528351 64.8421096802
-33.9524841309 -18.3394966125 64.6502227783
-33.9905738831 -18.3555774689 64.4571228027
-34.0161018372 -18.3655414581 64.2624969482
-34.0317459106 -18.3706970215 64.0666580200
-34.0418243408 -18.3731422424 63.8701248169
-34.0498771667 -18.3746013641 63.6733322144
-34.0580863953 -18.3761367798 63.4765586853
-34.0677680969 -18.3783893585 63.2799682617
-34.0797882080 -18.3817806244 63.0836791992
-34.0940284729 -18.3862514496 62.8876800537
-34.1082382202 -18.3907089233 62.6916770935
-34.1181411743 -18.3930683136 62.4951210022
-34.1201934814 -18.3916072845 62.2975273132
-34.1149482727 -18.3865909576 62.0989608765
-34.1073875427 -18.3804473877 61.9000625610
-34.1036605835 -18.3761711121 61.7016525269
-34.1073379517 -18.3754997253 61.5042152405
-34.1174659729 -18.3779678345 61.3076400757
-34.1289100647 -18.3810768127 61.1112403870
-34.1351623535 -18.3816604614 60.9141349792
-34.1326065063 -18.3779506683 60.7158164978
-34.1229095459 -18.3707656860 60.5164947510
-34.1113967896 -18.3626956940 60.3168945313
-34.1032943726 -18.3562889099 60.1177368164
-34.1015853882 -18.3529930115 59.9194450378
-34.1072158813 -18.3532695770 59.7221717834
-34.1195678711 -18.3568210602 59.5258369446
-34.1360397339 -18.3623790741 59.3300933838
-34.1523323059 -18.3678474426 59.1343307495
-34.1645660400 -18.3713436127 58.9379920959
-34.1711578369 -18.3720874786 58.7408447266
-34.1719627380 -18.3700160980 58.5428543091
-34.1668090820 -18.3650417328 58.3439826965
-34.1563224792 -18.3574695587 58.1443099976
-34.1435928345 -18.3488025665 57.9442749023
-34.1328582764 -18.3411083221 57.7445068359
-34.1261749268 -18.3353881836 57.5453071594
-34.1225318909 -18.3311462402 57.3465347290
-34.1204452515 -18.3276634216 57.1479759216
-34.1200828552 -18.3250217438 56.9496574402
-34.1223793030 -18.3236732483 56.7517280579
-34.1276512146 -18.3237743378 56.5542373657
-34.1361618042 -18.3254528046 56.3572311401
-34.1488456726 -18.3291645050 56.1608619690
-34.1664199829 -18.3352584839 55.9652481079
-34.1888847351 -18.3437366486 55.7704010010
-34.2165832520 -18.3547630310 55.5763816833
-34.2507057190 -18.3689174652 55.3833885193
-34.2916679382 -18.3864097595 55.1915016174
-34.3375091553 -18.4062747955 55.0004234314
-34.3845405579 -18.4267234802 54.8095855713
-34.4292068481 -18.4460182190 54.6184196472
-34.4682502747 -18.4625740051 54.4264068604
-34.4977531433 -18.4744834900 54.2329025269
-34.5138549805 -18.4798622131 54.0372734070
-34.5157165527 -18.4783039093 53.8393478394
-34.5074424744 -18.4718055725 53.6397628784
-34.4964675903 -18.4639930725 53.4397163391
-34.4900627136 -18.4584045410 53.2403831482
-34.4929008484 -18.4573211670 53.0425453186
-34.5064926147 -18.4614772797 52.8464736938
-34.5297889709 -18.4703617096 52.6520156860
-34.5605621338 -18.4828891754 52.4588203430
-34.5967369080 -18.4980525970 52.2665557861
-34.6365127563 -18.5149688721 52.0749320984
-34.6776351929 -18.5325412750 51.8835754395
-34.7174644470 -18.5494861603 51.6920433044
-34.7536201477 -18.5646400452 51.4999275208
-34.7841949463 -18.5770740509 51.3068962097
-34.8078384399 -18.5861320496 51.1127052307
-34.8242797852 -18.5916786194 50.9172897339
-34.8344993591 -18.5941925049 50.7208099365
-34.8400459290 -18.5944309235 50.5235137939
-34.8421058655 -18.5929660797 50.3256072998
-34.8411598206 -18.5900402069 50.1271629333
-34.8371696472 -18.5856285095 49.9281654358
-34.8298263550 -18.5795822144 49.7285575867
-34.8191604614 -18.5719146729 49.5283355713
-34.8066444397 -18.5633468628 49.3277549744
-34.7958717346 -18.5556259155 49.1274528503
-34.7913932800 -18.5509757996 48.9282455444
-34.7962951660 -18.5508956909 48.7307090759
-34.8106651306 -18.5554351807 48.5348701477
-34.8320770264 -18.5634040833 48.3403129578
-34.8567123413 -18.5729427338 48.1463584900
-34.8799018860 -18.5817813873 47.9521636963
-34.8967666626 -18.5875339508 47.7568206787
-34.9043617249 -18.5887680054 47.5597839355
-34.9047431946 -18.5864868164 47.3614082336
-34.9050407410 -18.5841617584 47.1630020142
-34.9121360779 -18.5851516724 46.9658470154
-34.9265136719 -18.5896911621 46.7700462341
-34.9426765442 -18.5951042175 46.5745887756
-34.9555969238 -18.5989322662 46.3785285950
-34.9649848938 -18.6010417938 46.1818008423
-34.9736480713 -18.6027965546 45.9849357605
-34.9836120605 -18.6051845551 45.7883186340
-34.9945716858 -18.6080589294 45.5918846130
-35.0049247742 -18.6106395721 45.3953399658
