5.4299764633 -45.9535369873 42.7138519287
5.4242296219 -45.8993949890 42.5095634460
5.4171891212 -45.8350334167 42.3035163879
5.4110221863 -45.7775650024 42.0985221863
5.4090166092 -45.7529602051 41.8989105225
5.4143896103 -45.7866249084 41.7089767456
5.4281415939 -45.8864746094 41.5301513672
5.4477849007 -46.0328559875 41.3592529297
5.4688181877 -46.1902236938 41.1903762817
5.4879331589 -46.3324508667 41.0191192627
5.5048770905 -46.4575309753 40.8451156616
5.5214333534 -46.5795593262 40.6707344055
5.5388507843 -46.7083969116 40.4976539612
5.5562686920 -46.8372459412 40.3247261047
5.5714612007 -46.9485168457 40.1489181519
5.5827870369 -47.0292472839 39.9679565430
5.5902118683 -47.0791664124 39.7817382813
5.5947632790 -47.1063842773 39.5916213989
5.5975227356 -47.1194496155 39.3990592957
5.5991458893 -47.1235313416 39.2049255371
5.5999159813 -47.1208763123 39.0096054077
5.5999155045 -47.1121292114 38.8131980896
5.5990619659 -47.0966453552 38.6155738831
5.5969967842 -47.0715827942 38.4162216187
5.5929737091 -47.0310478210 38.2140731812
5.5861005783 -46.9679908752 38.0078353882
5.5761709213 -46.8807754517 37.7971725464
5.5646281242 -46.7808036804 37.5841026306
5.5546340942 -46.6930694580 37.3731079102
5.5498085022 -46.6461715698 37.1694030762
5.5524616241 -46.6583824158 36.9763908386
5.5625896454 -46.7296676636 36.7941665649
5.5782871246 -46.8449783325 36.6200828552
5.5971984863 -46.9856910706 36.4507980347
5.6176557541 -47.1386375427 36.2839317322
5.6385731697 -47.2952232361 36.1179161072
5.6589765549 -47.4477577209 35.9513282776
5.6783919334 -47.5924873352 35.7834625244
5.6973123550 -47.7333145142 35.6150360107
5.7163715363 -47.8752403259 35.4469795227
5.7349476814 -48.0133628845 35.2783699036
5.7510790825 -48.1321601868 35.1062736511
5.7627806664 -48.2159423828 34.9276847839
5.7691993713 -48.2579612732 34.7412605286
5.7706861496 -48.2609939575 34.5474548340
5.7680802345 -48.2316627502 34.3474578857
5.7620282173 -48.1750869751 34.1421928406
5.7531442642 -48.0961112976 33.9325447083
5.7429580688 -48.0068397522 33.7208023071
5.7343220711 -47.9298133850 33.5113143921
5.7301397324 -47.8880043030 33.3085556030
5.7311725616 -47.8874320984 33.1137695313
5.7351155281 -47.9098739624 32.9234695435
5.7382307053 -47.9257698059 32.7319068909
5.7382287979 -47.9170150757 32.5355033875
5.7357525826 -47.8886871338 32.3352241516
5.7334356308 -47.8616218567 32.1351509094
5.7339377403 -47.8568458557 31.9394588470
5.7386837006 -47.8856391907 31.7504310608
5.7476792336 -47.9480438232 31.5681362152
5.7600250244 -48.0369491577 31.3912143707
5.7747755051 -48.1448822021 31.2182121277
5.7914433479 -48.2679901123 31.0483894348
5.8094849586 -48.4019660950 30.8809013367
5.8274688721 -48.5354957581 30.7134780884
5.8433394432 -48.6523132324 30.5428123474
5.8556990623 -48.7413597107 30.3666172028
5.8645634651 -48.8027610779 30.1848697662
5.8709244728 -48.8443641663 29.9991264343
5.8759307861 -48.8752441406 29.8112201691
5.8803749084 -48.9016838074 29.6224269867
5.8844132423 -48.9249076843 29.4329910278
5.8874526024 -48.9402313232 29.2419338226
5.8884296417 -48.9392356873 29.0474891663
5.8863005638 -48.9136657715 28.8479061127
5.8802909851 -48.8573837280 28.6418533325
5.8700685501 -48.7677612305 28.4287223816
5.8562169075 -48.6494178772 28.2094249725
5.8405647278 -48.5168151855 27.9869632721
5.8255834579 -48.3895149231 27.7654552460
5.8133406639 -48.2838783264 27.5483818054
5.8052000999 -48.2107048035 27.3380851746
5.8023514748 -48.1794052124 27.1366367340
5.8061227798 -48.2005043030 26.9463634491
5.8172969818 -48.2801933289 26.7686939240
5.8346972466 -48.4091682434 26.6017303467
5.8544902802 -48.5570869446 26.4390087128
5.8716197014 -48.6839332581 26.2718906403
5.8826174736 -48.7622451782 26.0943756104
5.8872699738 -48.7903327942 25.9060020447
5.8878788948 -48.7864112854 25.7106609344
5.8872385025 -48.7726020813 25.5131397247
5.8870797157 -48.7626037598 25.3164291382
5.8877620697 -48.7592620850 25.1211643219
5.8888487816 -48.7591247559 24.9265937805
5.8897719383 -48.7576866150 24.7317256927
5.8901424408 -48.7518730164 24.5358753204
5.8897595406 -48.7400970459 24.3386783600
5.8885569572 -48.7218246460 24.1400089264
5.8865356445 -48.6970748901 23.9398555756
5.8837060928 -48.6659202576 23.7382259369
5.8800659180 -48.6283416748 23.5351028442
5.8758125305 -48.5859069824 23.3308258057
5.8718628883 -48.5458793640 23.1270351410
5.8700823784 -48.5230216980 22.9270820618
5.8723039627 -48.5318565369 22.7343082428
5.8785943985 -48.5729179382 22.5488910675
5.8868217468 -48.6293182373 22.3670253754
5.8943195343 -48.6799430847 22.1838932037
5.8997111320 -48.7138938904 21.9969768524
5.9030694962 -48.7317352295 21.8063774109
5.9049887657 -48.7381820679 21.6131553650
5.9060339928 -48.7377090454 21.4183254242
5.9067878723 -48.7349205017 21.2229499817
5.9077939987 -48.7341346741 21.0280265808
5.9091959000 -48.7364807129 20.8338260651
5.9106864929 -48.7395286560 20.6397838593
5.9119367599 -48.7406730652 20.4452877045
5.9128246307 -48.7389488220 20.2501087189
5.9131703377 -48.7329254150 20.0539035797
5.9126248360 -48.7198410034 19.8560085297
5.9110841751 -48.6988716125 19.6562175751
5.9090785980 -48.6742172241 19.4555149078
5.9074554443 -48.6525917053 19.2554950714
5.9064097404 -48.6355400085 19.0565319061
5.9046707153 -48.6129913330 18.8562240601
5.8997559547 -48.5652809143 18.6498260498
5.8895363808 -48.4755249023 18.4332256317
5.8742475510 -48.3455924988 18.2067985535
5.8572778702 -48.2023353577 17.9769725800
5.8437104225 -48.0860328674 17.7535114288
5.8376784325 -48.0294418335 17.5444374084
5.8406023979 -48.0438270569 17.3526134491
5.8510346413 -48.1177177429 17.1753578186
5.8656282425 -48.2245979309 17.0062789917
5.8809094429 -48.3369331360 16.8386631012
5.8951210976 -48.4407920837 16.6690864563
5.9086747169 -48.5394439697 16.4983367920
5.9227333069 -48.6421012878 16.3286933899
5.9374098778 -48.7496643066 16.1603851318
5.9513926506 -48.8517303467 15.9908304214
5.9630661011 -48.9354972839 15.8168220520
5.9716129303 -48.9944801331 15.6367063522
5.9770169258 -49.0285568237 15.4504051208
5.9795546532 -49.0399055481 15.2584218979
5.9797096252 -49.0323638916 15.0616817474
5.9783205986 -49.0125808716 14.8618297577
5.9763369560 -48.9880790710 14.6607494354
5.9743723869 -48.9637336731 14.4596681595
5.9726028442 -48.9409255981 14.2589406967
5.9709863663 -48.9193305969 14.0584859848
5.9694595337 -48.8984489441 13.8581771851
5.9680414200 -48.8784255981 13.6580533981
5.9670209885 -48.8615570068 13.4587068558
5.9671640396 -48.8539047241 13.2617044449
5.9695320129 -48.8639068604 13.0692405701
5.9749331474 -48.8979568481 12.8830041885
5.9836654663 -48.9584312439 12.7036542892
5.9958167076 -49.0460243225 12.5314197540
6.0113639832 -49.1605529785 12.3663034439
6.0296573639 -49.2968673706 12.2070112228
6.0490694046 -49.4420661926 12.0502004623
6.0674700737 -49.5792465210 11.8914537430
6.0831131935 -49.6945610046 11.7271156311
6.0952591896 -49.7821464539 11.5555953979
6.1043376923 -49.8453979492 11.3777418137
6.1115765572 -49.8940582275 11.1960926056
6.1180438995 -49.9366035461 11.0128688812
6.1235504150 -49.9715309143 10.8276605606
6.1264219284 -49.9855499268 10.6369085312
6.1247506142 -49.9635314941 10.4365310669
6.1182651520 -49.9033126831 10.2258796692
6.1089658737 -49.8207702637 10.0091495514
6.0998129845 -49.7393836975 9.7926197052
6.0927915573 -49.6749000549 9.5805435181
6.0881748199 -49.6294975281 9.3735370636
6.0852165222 -49.5972480774 9.1700315475
6.0831465721 -49.5720481873 8.9683923721
6.0816297531 -49.5512351990 8.7679071426
6.0807614326 -49.5355644226 8.5687894821
6.0809721947 -49.5284576416 8.3719873428
6.0829615593 -49.5354652405 8.1790342331
6.0874886513 -49.5626144409 7.9916143417
6.0950069427 -49.6135025024 7.8107533455
6.1054229736 -49.6873931885 7.6362924576
6.1182789803 -49.7806510925 7.4672694206
6.1331138611 -49.8896217346 7.3027057648
6.1496210098 -50.0118713379 7.1419553757
6.1675610542 -50.1455001831 6.9845128059
6.1864748001 -50.2868652344 6.8293838501
6.2052779198 -50.4273605347 6.6741743088
6.2222456932 -50.5532913208 6.5150470734
6.2357769012 -50.6519508362 6.3484063148
6.2452950478 -50.7187538147 6.1729116440
6.2513422966 -50.7580070496 5.9897193909
6.2549357414 -50.7777824402 5.8010597229
6.2569565773 -50.7850685120 5.6088776588
6.2579994202 -50.7845916748 5.4144911766
6.2584843636 -50.7796859741 5.2188339233
6.2587084770 -50.7727088928 5.0225725174
6.2588601112 -50.7651557922 4.8261270523
6.2592096329 -50.7591705322 4.6301136017
6.2603597641 -50.7595443726 4.4359064102
6.2630300522 -50.7719879150 4.2451634407
6.2674398422 -50.7982444763 4.0584063530
6.2731328011 -50.8346977234 3.8746163845
6.2796230316 -50.8774795532 3.6926939487
6.2870464325 -50.9276733398 3.5129644871
6.2960166931 -50.9901542664 3.3368587494
6.3068966866 -51.0678062439 3.1652388573
6.3193731308 -51.1581420898 2.9974067211
6.3328289986 -51.2562637329 2.8319532871
6.3469738960 -51.3598632813 2.6682159901
6.3617982864 -51.4688644409 2.5061836243
6.3768811226 -51.5799217224 2.3448810577
6.3910322189 -51.6835861206 2.1815252304
6.4027838707 -51.7681922913 2.0126547813
6.4111027718 -51.8255348206 1.8358038664
6.4156231880 -51.8527030945 1.6500602961
6.4164438248 -51.8504829407 1.4556005001
6.4138450623 -51.8210983276 1.2530335188
6.4081025124 -51.7667312622 1.0429623127
6.3995370865 -51.6899337769 0.8261026144
6.3889002800 -51.5966720581 0.6042034626
6.3776731491 -51.4987182617 0.3807706833
6.3675813675 -51.4097747803 0.1599216610
-54.4117546082 -8.8014240265 87.0358200073
-54.4165115356 -8.8021097183 86.8496475220
-54.4239807129 -8.8031711578 86.6635894775
-54.4412689209 -8.8055925369 86.4779663086
-54.4786834717 -8.8107995987 86.2932662964
-54.5431671143 -8.8197536469 86.1098403931
-54.6301498413 -8.8318223953 85.9275360107
-54.7234687805 -8.8447675705 85.7456207275
-54.8061218262 -8.8562364578 85.5633163452
-54.8722991943 -8.8654251099 85.3803024292
-54.9294853210 -8.8733692169 85.1969375610
-54.9900054932 -8.8817739487 85.0137939453
-55.0605697632 -8.8915700912 84.8312225342
-55.1372642517 -8.9022140503 84.6490402222
-55.2064971924 -8.9118261337 84.4665679932
-55.2458496094 -8.9173002243 84.2826232910
-55.2245750427 -8.9143829346 84.0955276489
-55.1146278381 -8.8991909027 83.9036788940
-54.9153060913 -8.8716268539 83.7068710327
-54.6683883667 -8.8374738693 83.5072097778
-54.4385108948 -8.8056793213 83.3081741333
-54.2716751099 -8.7826118469 83.1123504639
-54.1737174988 -8.7690792084 82.9201965332
-54.1262435913 -8.7625350952 82.7307815552
-54.1159858704 -8.7611436844 82.5434417725
-54.1455955505 -8.7652692795 82.3584060669
-54.2205886841 -8.7756786346 82.1760787964
-54.3338546753 -8.7913856506 81.9961090088
-54.4653434753 -8.8096141815 81.8173675537
-54.5909347534 -8.8270273209 81.6384277344
-54.6891784668 -8.8406543732 81.4579544067
-54.7450218201 -8.8484125137 81.2749710083
-54.7523727417 -8.8494577408 81.0890121460
-54.7149276733 -8.8443012238 80.9002227783
-54.6468582153 -8.8349065781 80.7094116211
-54.5732383728 -8.8247432709 80.5181579590
-54.5265312195 -8.8183050156 80.3285522461
-54.5366783142 -8.8197374344 80.1426162720
-54.6170082092 -8.8308849335 79.9613571167
-54.7521820068 -8.8496236801 79.7838592529
-54.8999595642 -8.8701076508 79.6073837280
-55.0140609741 -8.8859300613 79.4287872314
-55.0728149414 -8.8940906525 79.2465057373
-55.0863494873 -8.8959922791 79.0611419678
-55.0787811279 -8.8949718475 78.8743057251
-55.0682601929 -8.8935432434 78.6872482300
-55.0614776611 -8.8926324844 78.5004348755
-55.0581359863 -8.8921966553 78.3138504028
-55.0542297363 -8.8916835785 78.1272125244
-55.0396804810 -8.8896970749 77.9397811890
-54.9919166565 -8.8831129074 77.7498626709
-54.8735733032 -8.8667593002 77.5546188354
-54.6482353210 -8.8355941772 77.3511581421
-54.3157882690 -8.7896022797 77.1392745972
-53.9381179810 -8.7373504639 76.9235076904
-53.6190948486 -8.6932172775 76.7117767334
-53.4492111206 -8.6697282791 76.5112380981
-53.4658050537 -8.6720533371 76.3251037598
-53.6529159546 -8.6979818344 76.1524505615
-53.9578666687 -8.7402229309 75.9894180298
-54.3057136536 -8.7884006500 75.8302078247
-54.6196174622 -8.8318805695 75.6686782837
-54.8491592407 -8.8636827469 75.5006561279
-54.9859275818 -8.8826427460 75.3252944946
-55.0522041321 -8.8918447495 75.1442565918
-55.0757980347 -8.8951377869 74.9597244263
-55.0725326538 -8.8947134018 74.7729644775
-55.0440635681 -8.8908004761 74.5840530396
-54.9851913452 -8.8826780319 74.3925094604
-54.8924865723 -8.8698740005 74.1979675293
-54.7697181702 -8.8529071808 74.0007019043
-54.6284942627 -8.8333854675 73.8016586304
-54.4841270447 -8.8134298325 73.6021499634
-54.3492240906 -8.7947835922 73.4032974243
-54.2309570313 -8.7784395218 73.2057418823
-54.1338272095 -8.7650222778 73.0099334717
-54.0617675781 -8.7550754547 72.8162536621
-54.0156364441 -8.7487173080 72.6248397827
-53.9908752441 -8.7453174591 72.4353179932
-53.9797782898 -8.7438087463 72.2470092773
-53.9756393433 -8.7432641983 72.0593338013
-53.9747123718 -8.7431640625 71.8719406128
-53.9756431580 -8.7433195114 71.6847152710
-53.9780998230 -8.7436876297 71.4976348877
-53.9817390442 -8.7442188263 71.3106536865
-53.9857559204 -8.7448024750 71.1237030029
-53.9890899658 -8.7452926636 70.9366912842
-53.9909286499 -8.7455739975 70.7495269775
-53.9910736084 -8.7456226349 70.5621871948
-53.9899711609 -8.7454977036 70.3747177124
-53.9884910583 -8.7453203201 70.1872024536
-53.9876213074 -8.7452268600 69.9997406006
-53.9881019592 -8.7453212738 69.8124008179
-53.9901962280 -8.7456388474 69.6252212524
-53.9936904907 -8.7461509705 69.4381713867
-53.9981231689 -8.7467918396 69.2512207031
-54.0029678345 -8.7474899292 69.0643081665
-54.0075912476 -8.7481575012 68.8773651123
-54.0109062195 -8.7486448288 68.6902923584
-54.0096588135 -8.7484998703 68.5027313232
-53.9939842224 -8.7463579178 68.3136367798
-53.9405593872 -8.7389898300 68.1205139160
-53.8113937378 -8.7211380005 67.9192199707
-53.5736579895 -8.6882581711 67.7060928345
-53.2407379150 -8.6422033310 67.4823684692
-52.8976135254 -8.5947351456 67.2571029663
-52.6662445068 -8.5627365112 67.0436172485
-52.6251983643 -8.5570831299 66.8507614136
-52.7560272217 -8.5752201080 66.6768569946
-52.9643211365 -8.6040802002 66.5117187500
-53.1478576660 -8.6295137405 66.3440704346
-53.2504425049 -8.6437416077 66.1675338745
-53.2695808411 -8.6464176178 65.9816894531
-53.2315788269 -8.6411857605 65.7893524170
-53.1644706726 -8.6319246292 65.5936355591
-53.0861282349 -8.6211080551 65.3965301514
-53.0066413879 -8.6101331711 65.1991806030
-52.9343566895 -8.6001548767 65.0025634766
-52.8779602051 -8.5923767090 64.8077087402
-52.8433837891 -8.5876188278 64.6153335571
-52.8284683228 -8.5855817795 64.4252319336
-52.8200492859 -8.5844440460 64.2358779907
-52.7951622009 -8.5810270309 64.0445404053
-52.7245750427 -8.5712842941 63.8476676941
-52.5812072754 -8.5514678955 63.6419181824
-52.3581314087 -8.5206174850 63.4263038635
-52.0854721069 -8.4829044342 63.2043533325
-51.8227500916 -8.4465665817 62.9832687378
-51.6246337891 -8.4191713333 62.7698020935
-51.5112648010 -8.4035072327 62.5665779114
-51.4691581726 -8.3977069855 62.3720741272
-51.4725570679 -8.3982048035 62.1832008362
-51.5000419617 -8.4020376205 61.9973526001
-51.5377998352 -8.4072914124 61.8128318787
-51.5768470764 -8.4127244949 61.6285133362
-51.6106491089 -8.4174308777 61.4435653687
-51.6333694458 -8.4206047058 61.2572288513
-51.6394538879 -8.4214744568 61.0687713623
-51.6258087158 -8.4196138382 60.8777542114
-51.5949401855 -8.4153690338 60.6844711304
-51.5552253723 -8.4098997116 60.4899826050
-51.5176315308 -8.4047241211 60.2957153320
-51.4923133850 -8.4012479782 60.1030120850
-51.4872016907 -8.4005680084 59.9129524231
-51.5064430237 -8.4032592773 59.7261276245
-51.5468902588 -8.4088859558 59.5421562195
-51.5962867737 -8.4157514572 59.3594322205
-51.6384735107 -8.4216184616 59.1757888794
-51.6624946594 -8.4249715805 58.9897232056
-51.6667900085 -8.4255943298 58.8009834290
-51.6555252075 -8.4240627289 58.6101112366
-51.6329345703 -8.4209642410 58.4176521301
-51.6013183594 -8.4166154861 58.2239074707
-51.5621795654 -8.4112262726 58.0290718079
-51.5166664124 -8.4049549103 57.8332862854
-51.4633255005 -8.3975992203 57.6363334656
-51.3963394165 -8.3883552551 57.4373855591
-51.3094062805 -8.3763504028 57.2355155945
-51.2046966553 -8.3618850708 57.0310058594
-51.0979423523 -8.3471364975 56.8260574341
-51.0116806030 -8.3352251053 56.6239089966
-50.9617729187 -8.3283443451 56.4268798828
-50.9477958679 -8.3264379501 56.2349815369
-50.9493484497 -8.3266811371 56.0453147888
-50.9281692505 -8.3237771988 55.8523216248
-50.8446540833 -8.3122463226 55.6501541138
-50.6854324341 -8.2902355194 55.4367218018
-50.4730567932 -8.2608671188 55.2152137756
-50.2441673279 -8.2292137146 54.9909782410
-50.0257148743 -8.1990051270 54.7680015564
-49.8378677368 -8.1730327606 54.5493240356
-49.7068748474 -8.1549291611 54.3389549255
-49.6564865112 -8.1479825974 54.1405906677
-49.6814842224 -8.1514711380 53.9535865784
-49.7404823303 -8.1596651077 53.7717895508
-49.7875061035 -8.1662025452 53.5882301331
-49.8088035583 -8.1691780090 53.4007644653
-49.8205871582 -8.1708374023 53.2118530273
-49.8365516663 -8.1730756760 53.0235939026
-49.8503379822 -8.1750125885 52.8350105286
-49.8474540710 -8.1746406555 52.6438293457
-49.8224906921 -8.1712141037 52.4491767883
-49.7818946838 -8.1656236649 52.2520256042
-49.7360191345 -8.1593017578 52.0539779663
-49.6917037964 -8.1531963348 51.8561096191
-49.6494598389 -8.1473770142 51.6585083008
-49.6046867371 -8.1412076950 51.4604377747
-49.5517921448 -8.1339149475 51.2610015869
-49.4900016785 -8.1253910065 51.0600547791
-49.4261360168 -8.1165790558 50.8586883545
-49.3703269958 -8.1088829041 50.6585388184
-49.3277206421 -8.1030139923 50.4604606628
-49.2949752808 -8.0985097885 50.2639389038
-49.2653312683 -8.0944347382 50.0678787231
-49.2368507385 -8.0905208588 49.8719596863
-49.2164573669 -8.0877265930 49.6773414612
-49.2176704407 -8.0879230499 49.4862785339
-49.2538414001 -8.0929574966 49.3010444641
-49.3287963867 -8.1033601761 49.1223449707
-49.4296531677 -8.1173486710 48.9480934143
-49.5305252075 -8.1313390732 48.7739639282
-49.6071586609 -8.1419744492 48.5958442688
-49.6501846313 -8.1479578018 48.4120941162
-49.6666603088 -8.1502656937 48.2238616943
-49.6718330383 -8.1510105133 48.0337028503
-49.6790924072 -8.1520433426 47.8438987732
-49.6935691833 -8.1540756226 47.6553459167
-49.7106094360 -8.1564617157 47.4672470093
-49.7181892395 -8.1575393677 47.2775115967
-49.7024574280 -8.1553907394 47.0837135315
-49.6554679871 -8.1489143372 46.8844070435
-49.5818748474 -8.1387567520 46.6803588867
-49.4984550476 -8.1272392273 46.4744720459
-49.4242973328 -8.1170034409 46.2701148987
-49.3695564270 -8.1094551086 46.0691032410
-49.3324470520 -8.1043462753 45.8711585999
-49.3048858643 -8.1005601883 45.6748695374
-49.2793235779 -8.0970506668 45.4788932800
-49.2514610291 -8.0932216644 45.2824630737
-49.2184677124 -8.0886840820 45.0850601196
-49.1754379272 -8.0827560425 44.8857879639
-49.1154441833 -8.0744810104 44.6833610535
-49.0366554260 -8.0636043549 44.4774131775
-48.9498939514 -8.0516242981 44.2698936462
-48.8755836487 -8.0413665771 44.0645484924
-48.8304786682 -8.0351524353 43.8644943237
-48.8180885315 -8.0334653854 43.6704368591
-48.8295288086 -8.0350780487 43.4807891846
-48.8473930359 -8.0375785828 43.2923469543
-48.8489265442 -8.0378189087 43.1008567810
-48.8165092468 -8.0333604813 42.9029846191
-48.7525444031 -8.0245351791 42.6991157532
-48.6783409119 -8.0142936707 42.4932212830
-48.6117362976 -8.0051031113 42.2886657715
-48.5495491028 -7.9965243340 42.0848579407
-48.4756164551 -7.9863195419 41.8787193298
-48.3809585571 -7.9732470512 41.6685066223
-48.2727432251 -7.9582972527 41.4555549622
-48.1689834595 -7.9439644814 41.2433204651
-48.0895576477 -7.9329996109 41.0356559753
-48.0496406555 -7.9275031090 40.8355522156
-48.0550384521 -7.9282789230 40.6442222595
-48.1001129150 -7.9345459938 40.4606475830
-48.1700057983 -7.9442481995 40.2819900513
-48.2464866638 -7.9548621178 40.1047096252
-48.3128585815 -7.9640769958 39.9255218506
-48.3566894531 -7.9701719284 39.7419471741
-48.3728103638 -7.9724311829 39.5529098511
-48.3646469116 -7.9713301659 39.3590507507
-48.3383331299 -7.9677166939 39.1615371704
-48.2944679260 -7.9616737366 38.9604644775
-48.2293014526 -7.9526824951 38.7550430298
-48.1439704895 -7.9409003258 38.5454597473
-48.0485687256 -7.9277248383 38.3337173462
-47.9562950134 -7.9149818420 38.1224822998
-47.8758964539 -7.9038825035 37.9135398865
-47.8096160889 -7.8947377205 37.7073745728
-47.7560272217 -7.8873486519 37.5037155151
-47.7145538330 -7.8816370964 37.3024749756
-47.6886672974 -7.8780827522 37.1043891907
-47.6858253479 -7.8777179718 36.9110298157
-47.7147712708 -7.8817524910 36.7242584229
-47.7807960510 -7.8909196854 36.5452346802
-47.8783454895 -7.9044494629 36.3728675842
-47.9862594604 -7.9194140434 36.2027931213
-48.0734176636 -7.9315056801 36.0284805298
-48.1124916077 -7.9369421005 35.8441390991
-48.0913810730 -7.9340486526 35.6471176147
-48.0178108215 -7.9238948822 35.4389343262
-47.9181785583 -7.9101333618 35.2251091003
-47.8295173645 -7.8978910446 35.0134849548
-47.7853736877 -7.8918094635 34.8112678528
-47.8004608154 -7.8939266205 34.6216964722
-47.8585548401 -7.9019956589 34.4413871765
-47.9118843079 -7.9094047546 34.2601165771
-47.9030303955 -7.9082078934 34.0654449463
-47.8020439148 -7.8942599297 33.8507499695
-47.6277313232 -7.8701624870 33.6199493408
-47.4322509766 -7.8431353569 33.3842926025
-47.2651062012 -7.8200302124 33.1545867920
-47.1495475769 -7.8040652275 32.9359931946
-47.0848579407 -7.7951402664 32.7284507751
-47.0622406006 -7.7920384407 32.5301132202
-47.0757293701 -7.7939338684 32.3397369385
-47.1213302612 -7.8002738953 32.1565055847
-47.1914138794 -7.8100023270 31.9787826538
-47.2730522156 -7.8213300705 31.8037204742
-47.3511772156 -7.8321714401 31.6279659271
-47.4137573242 -7.8408617973 31.4488105774
-47.4559898376 -7.8467350006 31.2651386261
-47.4804191589 -7.8501448631 31.0774879456
-47.4929275513 -7.8519043922 30.8871574402
-47.4983940125 -7.8526897430 30.6952342987
-47.4987678528 -7.8527698517 30.5021495819
-47.4918174744 -7.8518366814 30.3073825836
-47.4684753418 -7.8486347198 30.1088390350
-47.4124412537 -7.8409075737 29.9027442932
-47.3086357117 -7.8265695572 29.6855583191
-47.1572494507 -7.8056459427 29.4572334290
-46.9787597656 -7.7809705734 29.2224254608
-46.8036155701 -7.7567586899 28.9881591797
-46.6589393616 -7.7367644310 28.7607631683
-46.5633468628 -7.7235627174 28.5446434021
-46.5263442993 -7.7184700966 28.3421211243
-46.5469245911 -7.7213468552 28.1530742645
-46.6138229370 -7.7306346893 27.9749565125
-46.7105293274 -7.7440476418 27.8039569855
-46.8232574463 -7.7596778870 27.6368656158
-46.9472732544 -7.7768702507 27.4725933075
-47.0865631104 -7.7961773872 27.3121070862
-47.2463493347 -7.8183207512 27.1566829681
-47.4258613586 -7.8431940079 27.0061779022
-47.6172485352 -7.8697104454 26.8587436676
-47.8058929443 -7.8958477974 26.7108840942
-47.9692726135 -7.9184885025 26.5571613312
-48.0818595886 -7.9340991974 26.3913459778
-48.1279602051 -7.9405083656 26.2095375061
-48.1106529236 -7.9381413460 26.0123538971
-48.0486869812 -7.9295935631 25.8042507172
-47.9656753540 -7.9181337357 25.5909137726
-47.8772621155 -7.9059252739 25.3761367798
-47.7802848816 -7.8925323486 25.1591339111
-47.6512374878 -7.8747005463 24.9340953827
-47.4609985352 -7.8484005928 24.6937675476
-47.2015724182 -7.8125243187 24.4360485077
-46.9047317505 -7.7714700699 24.1686992645
-46.6324844360 -7.7338194847 23.9070873260
-46.4448776245 -7.7078833580 23.6662464142
-46.3731727600 -7.6979880333 23.4541625977
-46.4143791199 -7.7037200928 23.2703075409
-46.5396194458 -7.7210817337 23.1076335907
-46.7062988281 -7.7441787720 22.9555606842
-46.8721199036 -7.7671570778 22.8034763336
-47.0073776245 -7.7859053612 22.6438484192
-47.0994529724 -7.7986774445 22.4734115601
-47.1483573914 -7.8054738045 22.2920875549
-47.1601371765 -7.8071331978 22.1013374329
-47.1456222534 -7.8051528931 21.9038639069
-47.1230506897 -7.8020577431 21.7042942047
-47.1135139465 -7.8007664680 21.5080394745
-47.1260490417 -7.8025302887 21.3174591064
-47.1480865479 -7.8056082726 21.1293411255
-47.1540756226 -7.8064661026 20.9370841980
-47.1231651306 -7.8022165298 20.7352390289
-47.0503082275 -7.7921624184 20.5224208832
-46.9474182129 -7.7779512405 20.3016586304
-46.8364562988 -7.7626228333 20.0786437988
-46.7376098633 -7.7489714622 19.8586578369
-46.6611976624 -7.7384247780 19.6444377899
-46.6095008850 -7.7312989235 19.4366264343
-46.5822067261 -7.7275500298 19.2351932526
-46.5766105652 -7.7268037796 19.0394630432
-46.5855712891 -7.7280731201 18.8475837708
-46.6001434326 -7.7301182747 18.6571998596
-46.6146316528 -7.7321524620 18.4668064117
-46.6279373169 -7.7340226173 18.2761058807
-46.6410102844 -7.7358603477 18.0853500366
-46.6544647217 -7.7377514839 17.8947048187
-46.6679916382 -7.7396521568 17.7040882111
-46.6806907654 -7.7414383888 17.5132579803
-46.6914520264 -7.7429566383 17.3219108582
-46.6991119385 -7.7440452576 17.1297264099
-46.7023200989 -7.7445178032 16.9363327026
-46.6988029480 -7.7440600395 16.7411022186
-46.6839790344 -7.7420372963 16.5427684784
-46.6498756409 -7.7373461723 16.3391265869
-46.5862846375 -7.7285737991 16.1273384094
-46.4859619141 -7.7147183418 15.9053535461
-46.3521194458 -7.6962242126 15.6739873886
-46.2010383606 -7.6753435135 15.4376754761
-46.0534553528 -7.6549472809 15.2021322250
-45.9208869934 -7.6366295815 14.9705619812
-45.8017311096 -7.6201677322 14.7425460815
-45.6901359558 -7.6047520638 14.5164785385
-45.5846939087 -7.5901880264 14.2919797897
-45.4884071350 -7.5768914223 14.0699052811
-45.4056396484 -7.5654654503 13.8514966965
-45.3421859741 -7.5567126274 13.6384105682
-45.3052024841 -7.5516233444 13.4327049255
-45.2994842529 -7.5508608818 13.2357854843
-45.3237075806 -7.5542416573 13.0473375320
-45.3708992004 -7.5608019829 12.8654384613
-45.4318733215 -7.5692696571 12.6875143051
-45.4980926514 -7.5784626007 12.5111570358
-45.5625801086 -7.5874166489 12.3343811035
-45.6196556091 -7.5953440666 12.1555538177
-45.6644248962 -7.6015686989 11.9732551575
-45.6925125122 -7.6054849625 11.7862024307
-45.7007408142 -7.6066522598 11.5934457779
-45.6891365051 -7.6050753593 11.3949546814
-45.6621170044 -7.6013646126 11.1919717789
-45.6265678406 -7.5964736938 10.9864683151
-45.5886764526 -7.5912590027 10.7802305222
-45.5531082153 -7.5863652229 10.5746116638
-45.5238342285 -7.5823431015 10.3707799911
-45.5038719177 -7.5796093941 10.1696300507
-45.4941749573 -7.5782957077 9.9714612961
-45.4935531616 -7.5782389641 9.7759437561
-45.4992408752 -7.5790548325 9.5822772980
-45.5065345764 -7.5800933838 9.3890848160
-45.5085144043 -7.5803956985 9.1943178177
-45.4984130859 -7.5790266991 8.9959583282
-45.4750938416 -7.5758285522 8.7936449051
-45.4468154907 -7.5719437599 8.5898141861
-45.4281425476 -7.5693883896 8.3888092041
-45.4318923950 -7.5699362755 8.1944856644
-45.4639472961 -7.5744013786 8.0086536407
-45.5242958069 -7.5827817917 7.8313617706
-45.6093330383 -7.5945796967 7.6615805626
-45.7102966309 -7.6085810661 7.4967083931
-45.8110618591 -7.6225552559 7.3318986893
-45.8926811218 -7.6338796616 7.1614012718
-45.9434318542 -7.6409320831 6.9816179276
-45.9647254944 -7.6439075470 6.7929186821
-45.9677886963 -7.6443600655 6.5986738205
-45.9653739929 -7.6440548897 6.4027485847
-45.9651222229 -7.6440486908 6.2074756622
-45.9680290222 -7.6444802284 6.0131640434
-45.9712104797 -7.6449489594 5.8189306259
-45.9709701538 -7.6449451447 5.6236386299
-45.9630889893 -7.6438827515 5.4259753227
-45.9417610168 -7.6409606934 5.2241306305
-45.9015731812 -7.6354274750 5.0163955688
-45.8430747986 -7.6273608208 4.8029055595
-45.7760009766 -7.6181073189 4.5866608620
-45.7137413025 -7.6095199585 4.3718247414
-45.6632156372 -7.6025567055 4.1605720520
-45.6219978333 -7.5968809128 3.9521639347
-45.5862922668 -7.5919690132 3.7454276085
-45.5595550537 -7.5882978439 3.5414593220
-45.5510215759 -7.5871458054 3.3431909084
-45.5665817261 -7.5893282890 3.1525194645
-45.6030158997 -7.5943989754 2.9684710503
-45.6506919861 -7.6010260582 2.7880289555
-45.6994552612 -7.6078028679 2.6079840660
-45.7417945862 -7.6136913300 2.4259469509
-45.7735366821 -7.6181130409 2.2405714989
-45.7941055298 -7.6209883690 2.0516541004
-45.8059692383 -7.6226592064 1.8599628210
-45.8125572205 -7.6235995293 1.6665829420
-45.8160018921 -7.6241054535 1.4721924067
-45.8159980774 -7.6241335869 1.2766841650
-45.8099975586 -7.6233325005 1.0792311430
-45.7948112488 -7.6212596893 0.8787864447
-45.7689285278 -7.6177067757 0.6748431325
-45.7336997986 -7.6128602028 0.4678201377
-45.6916923523 -7.6070761681 0.2585356832
-45.6441307068 -7.6005225182 0.0473749451
-11.2148351669 -26.5261688232 90.4408340454
-11.2199096680 -26.5421524048 90.2375717163
-11.2319355011 -26.5757465363 90.0346145630
-11.2486886978 -26.6213226318 89.8319015503
-11.2680587769 -26.6735267639 89.6293563843
-11.2894582748 -26.7308750153 89.4269638062
-11.3139047623 -26.7959423065 89.2247848511
-11.3424139023 -26.8713035583 89.0228805542
-11.3743419647 -26.9553260803 88.8212509155
-11.4073753357 -27.0421447754 88.6197738647
-11.4391555786 -27.1257915497 88.4183273315
-11.4688310623 -27.2041015625 88.2168579102
-11.4967575073 -27.2779788971 88.0153732300
-11.5227413177 -27.3469314575 87.8138580322
-11.5450391769 -27.4065437317 87.6121902466
-11.5613737106 -27.4510459900 87.4102096558
-11.5706214905 -27.4775924683 87.2078094482
-11.5732717514 -27.4874229431 87.0049896240
-11.5706481934 -27.4838905334 86.8018112183
-11.5644512177 -27.4713058472 86.5983657837
-11.5576000214 -27.4570636749 86.3948516846
-11.5553121567 -27.4543819427 86.1916351318
-11.5641679764 -27.4799346924 85.9892501831
-11.5887651443 -27.5453681946 85.7880935669
-11.6289510727 -27.6502933502 85.5882415771
-11.6803960800 -27.7837409973 85.3894042969
-11.7371826172 -27.9307231903 85.1911697388
-11.7935895920 -28.0767364502 84.9930801392
-11.8449487686 -28.2099590302 84.7947387695
-11.8890390396 -28.3247661591 84.5959320068
-11.9276132584 -28.4255962372 84.3967742920
-11.9657497406 -28.5253143311 84.1976928711
-12.0080366135 -28.6355476379 83.9991073608
-12.0540962219 -28.7553348541 83.8010101318
-12.0978164673 -28.8691940308 83.6028289795
-12.1316528320 -28.9580135345 83.4038391113
-12.1521034241 -29.0129203796 83.2036361694
-12.1613969803 -29.0395660400 83.0023803711
-12.1647891998 -29.0512619019 82.8005523682
-12.1664896011 -29.0586700439 82.5985641479
-12.1672401428 -29.0636749268 82.3964691162
-12.1644744873 -29.0597705841 82.1939926147
-12.1545753479 -29.0377998352 81.9907379150
-12.1367092133 -28.9956474304 81.7865753174
-12.1160373688 -28.9463863373 81.5820388794
-12.1020078659 -28.9139575958 81.3781738281
-12.1013660431 -28.9154357910 81.1757812500
-12.1134023666 -28.9490280151 80.9748535156
-12.1335020065 -29.0030422211 80.7749099731
-12.1598939896 -29.0729923248 80.5757675171
-12.1948814392 -29.1647148132 80.3777389526
-12.2406797409 -29.2838172913 80.1811447144
-12.2963142395 -29.4278278351 79.9859085083
-12.3581323624 -29.5875015259 79.7916259766
-12.4213695526 -29.7507648468 79.5977172852
-12.4807958603 -29.9043712616 79.4035186768
-12.5314407349 -30.0357379913 79.2083587646
-12.5703248978 -30.1373119354 79.0118103027
-12.5976686478 -30.2096576691 78.8138351440
-12.6158046722 -30.2586822510 78.6146926880
-12.6265106201 -30.2888908386 78.4145965576
-12.6293926239 -30.2992820740 78.2134323120
-12.6228322983 -30.2857608795 78.0109558105
-12.6066846848 -30.2479591370 77.8070907593
-12.5843334198 -30.1944503784 77.6022796631
-12.5623292923 -30.1418170929 77.3974380493
-12.5478715897 -30.1083011627 77.1936264038
-12.5462369919 -30.1072559357 76.9916610718
-12.5597820282 -30.1446533203 76.7919616699
-12.5884943008 -30.2204589844 76.5945968628
-12.6310491562 -30.3313179016 76.3994369507
-12.6854991913 -30.4722957611 76.2062530518
-12.7491731644 -30.6366310120 76.0146865845
-12.8181581497 -30.8144111633 75.8241577148
-12.8872976303 -30.9925785065 75.6338653564
-12.9512739182 -31.1576690674 75.4429626465
-13.0061044693 -31.2995967865 75.2507705688
-13.0500831604 -31.4140434265 75.0569686890
-13.0838060379 -31.5025177002 74.8615951538
-13.1092853546 -31.5701198578 74.6649475098
-13.1286535263 -31.6222457886 74.4673385620
-13.1435222626 -31.6629753113 74.2690124512
-13.1555671692 -31.6965560913 74.0702438354
-13.1673784256 -31.7295455933 73.8714752197
-13.1817636490 -31.7690486908 73.6731796265
-13.1992416382 -31.8163852692 73.4754791260
-13.2161760330 -31.8623409271 73.2777328491
-13.2262201309 -31.8908538818 73.0787887573
-13.2244415283 -31.8894309998 72.8777160645
-13.2107820511 -31.8579273224 72.6744384766
-13.1906595230 -31.8100605011 72.4699172974
-13.1729316711 -31.7682590485 72.2657699585
-13.1663560867 -31.7546939850 72.0636672974
-13.1761732101 -31.7826309204 71.8646621704
-13.2026882172 -31.8528423309 71.6688842773
-13.2424974442 -31.9567108154 71.4757690430
-13.2908983231 -32.0823287964 71.2844543457
-13.3435716629 -32.2187614441 71.0941314697
-13.3971471786 -32.3574714661 70.9041595459
-13.4493799210 -32.4927864075 70.7140808105
-13.4992713928 -32.6221656799 70.5236892700
-13.5467090607 -32.7453346252 70.3329620361
-13.5916061401 -32.8620681763 70.1418533325
-13.6333065033 -32.9707069397 69.9502334595
-13.6705589294 -33.0680809021 69.7578048706
-13.7017240524 -33.1500473022 69.5642242432
-13.7252559662 -33.2126884460 69.3691177368
-13.7405729294 -33.2545318604 69.1723251343
-13.7485713959 -33.2778472900 68.9740066528
-13.7512273788 -33.2876396179 68.7745513916
-13.7507658005 -33.2895431519 68.5744171143
-13.7492017746 -33.2886505127 68.3740386963
-13.7484426498 -33.2897987366 68.1738204956
-13.7506704330 -33.2985076904 67.9742660522
-13.7587022781 -33.3219108582 67.7760086060
-13.7761774063 -33.3692131042 67.5799102783
-13.8072929382 -33.4510421753 67.3869781494
-13.8558197021 -33.5769424438 67.1981353760
-13.9234189987 -33.7511138916 67.0138549805
-14.0081195831 -33.9685668945 66.8337631226
-14.1038951874 -34.2140464783 66.6565475464
-14.2016525269 -34.4645423889 66.4800949097
-14.2913722992 -34.6946868896 66.3020553589
-14.3650264740 -34.8841667175 66.1204452515
-14.4192457199 -35.0244522095 65.9343948364
-14.4559946060 -35.1205139160 65.7442703247
-14.4805412292 -35.1856918335 65.5512771606
-14.4981842041 -35.2334022522 65.3566665649
-14.5119123459 -35.2711982727 65.1611404419
-14.5220499039 -35.2999076843 64.9647521973
-14.5276308060 -35.3170852661 64.7672500610
-14.5285024643 -35.3223419189 64.5685729980
-14.5267896652 -35.3210601807 64.3692321777
-14.5265340805 -35.3234634399 64.1702575684
-14.5315723419 -35.3392677307 63.9726333618
-14.5437116623 -35.3730392456 63.7768630981
-14.5632734299 -35.4255981445 63.5830535889
-14.5911321640 -35.4991531372 63.3914794922
-14.6293258667 -35.5988578796 63.2027168274
-14.6794958115 -35.7288703918 63.0172500610
-14.7411270142 -35.8878860474 62.8349990845
-14.8112783432 -36.0684547424 62.6552352905
-14.8856143951 -36.2596130371 62.4768218994
-14.9595928192 -36.4498596191 62.2985496521
-15.0288877487 -36.6282539368 62.1192283630
-15.0897064209 -36.7851982117 61.9377937317
-15.1398792267 -36.9151954651 61.7536087036
-15.1796445847 -37.0188598633 61.5666809082
-15.2104749680 -37.0999069214 61.3773727417
-15.2331037521 -37.1602020264 61.1858520508
-15.2472887039 -37.1991348267 60.9920043945
-15.2535066605 -37.2179031372 60.7959251404
-15.2545499802 -37.2235794067 60.5983810425
-15.2557668686 -37.2296943665 60.4008827209
-15.2638635635 -37.2532196045 60.2053756714
-15.2843427658 -37.3080711365 60.0135002136
-15.3182010651 -37.3967742920 59.8256034851
-15.3606357574 -37.5071754456 59.6403388977
-15.4045219421 -37.6212501526 59.4556388855
-15.4464406967 -37.7303428650 59.2704849243
-15.4889917374 -37.8410339355 59.0856552124
-15.5369672775 -37.9654464722 58.9025917053
-15.5919666290 -38.1076240540 58.7218055725
-15.6513404846 -38.2608718872 58.5425224304
-15.7114772797 -38.4160461426 58.3636627197
-15.7702121735 -38.5676689148 58.1845588684
-15.8255310059 -38.7106475830 58.0045852661
-15.8739576340 -38.8361854553 57.8226432800
-15.9122323990 -38.9360389709 57.6376762390
-15.9404716492 -39.0105018616 57.4496765137
-15.9626474380 -39.0696258545 57.2598457336
-15.9837837219 -39.1261138916 57.0697517395
-16.0065269470 -39.1866722107 56.8802337646
-16.0297393799 -39.2484130859 56.6909332275
-16.0498924255 -39.3024139404 56.5007171631
-16.0638370514 -39.3407096863 56.3085517883
-16.0706729889 -39.3610191345 56.1141052246
-16.0718975067 -39.3671340942 55.9178428650
-16.0707588196 -39.3672714233 55.7207984924
-16.0716133118 -39.3724517822 55.5244026184
-16.0789337158 -39.3939895630 55.3301506042
-16.0957641602 -39.4395828247 55.1390953064
-16.1226139069 -39.5105171204 54.9514465332
-16.1578998566 -39.6027908325 54.7667236328
-16.1994171143 -39.7108230591 54.5842208862
-16.2455520630 -39.8305358887 54.4034194946
-16.2955913544 -39.9601249695 54.2240943909
-16.3488235474 -40.0977821350 54.0460281372
-16.4027099609 -40.2370986938 53.8683547974
-16.4523773193 -40.3657341003 53.6893844604
-16.4930019379 -40.4714965820 53.5074195862
-16.5229282379 -40.5502014160 53.3218383789
-16.5441303253 -40.6068344116 53.1332740784
-16.5599288940 -40.6498031616 52.9428672791
-16.5726146698 -40.6848945618 52.7513999939
-16.5827217102 -40.7134628296 52.5590515137
-16.5898208618 -40.7344245911 52.3656463623
-16.5936717987 -40.7471694946 52.1710929871
-16.5947494507 -40.7529029846 51.9755439758
-16.5940589905 -40.7541656494 51.7793502808
-16.5928497314 -40.7541122437 51.5829544067
-16.5927162170 -40.7567825317 51.3869476318
-16.5959644318 -40.7680053711 51.1921768188
-16.6054363251 -40.7949676514 50.9997138977
-16.6232891083 -40.8431243896 50.8103828430
-16.6495113373 -40.9124450684 50.6242294312
-16.6820430756 -40.9977226257 50.4405212402
-16.7187976837 -41.0936775208 50.2584991455
-16.7591743469 -41.1987915039 50.0779609680
-16.8032169342 -41.3131713867 49.8989372253
-16.8500213623 -41.4345359802 49.7211036682
-16.8981437683 -41.5592308044 49.5439224243
-16.9477100372 -41.6875762939 49.3674507141
-17.0007724762 -41.8247566223 49.1924781799
-17.0578594208 -41.9721145630 49.0192375183
-17.1141605377 -42.1174812317 48.8458709717
-17.1608619690 -42.2385711670 48.6689300537
-17.1914443970 -42.3188972473 48.4858055115
-17.2064990997 -42.3599624634 48.2966537476
-17.2123527527 -42.3777542114 48.1039047241
-17.2151489258 -42.3878173828 47.9099502563
-17.2161388397 -42.3933181763 47.7152824402
-17.2122211456 -42.3864059448 47.5186424255
-17.2004623413 -42.3596611023 47.3188285828
-17.1813011169 -42.3142089844 47.1159820557
-17.1575317383 -42.2571029663 46.9111938477
-17.1317653656 -42.1949462891 46.7055130005
-17.1067123413 -42.1345977783 46.5000305176
-17.0880699158 -42.0904617310 46.2970924377
-17.0852222443 -42.0862541199 46.1005973816
-17.1065196991 -42.1431007385 45.9140815735
-17.1523952484 -42.2620887756 45.7378349304
-17.2134895325 -42.4195480347 45.5680809021
-17.2766761780 -42.5822982788 45.3993949890
-17.3334960938 -42.7289466858 45.2282371521
-17.3833694458 -42.8580284119 45.0543251038
-17.4300632477 -42.9790687561 44.8792228699
-17.4761123657 -43.0984802246 44.7039947510
-17.5202121735 -43.2129554749 44.5280761719
-17.5584983826 -43.3127365112 44.3498039246
-17.5875282288 -43.3891181946 44.1676750183
-17.6063175201 -43.4396018982 43.9812088013
-17.6162719727 -43.4677505493 43.7909698486
-17.6197204590 -43.4794540405 43.5979270935
-17.6185760498 -43.4795455933 43.4028854370
-17.6138858795 -43.4706764221 43.2062759399
-17.6059513092 -43.4536056519 43.0082244873
-17.5943870544 -43.4273567200 42.8085327148
-17.5780658722 -43.3890876770 42.6066894531
-17.5556888580 -43.3355064392 42.4020957947
-17.5274200439 -43.2670326233 42.1947898865
-17.4966545105 -43.1922531128 41.9862709045
-17.4700546265 -43.1280021667 41.7795143127
-17.4558811188 -43.0951652527 41.5782737732
-17.4624290466 -43.1147079468 41.3863716125
-17.4964637756 -43.2037277222 41.2069778442
-17.5594387054 -43.3658981323 41.0408935547
-17.6432800293 -43.5808067322 40.8845634460
-17.7319908142 -43.8080253601 40.7307434082
-17.8102550507 -44.0088310242 40.5723838806
-17.8708667755 -44.1650161743 40.4061088562
-17.9145050049 -44.2782936096 40.2321395874
-17.9450092316 -44.3583755493 40.0521888733
-17.9663772583 -44.4153633118 39.8680572510
-17.9824142456 -44.4588775635 39.6814880371
-17.9967079163 -44.4979782104 39.4941406250
-18.0117416382 -44.5389556885 39.3071899414
-18.0276870728 -44.5822334290 39.1207084656
-18.0419712067 -44.6213111877 38.9334869385
-18.0504837036 -44.6458015442 38.7435493469
-18.0496215820 -44.6466026306 38.5491409302
-18.0375862122 -44.6191596985 38.3493499756
-18.0143451691 -44.5634002686 38.1441116333
-17.9810199738 -44.4821586609 37.9339065552
-17.9396228790 -44.3805160522 37.7196655273
-17.8939838409 -44.2681579590 37.5032196045
-17.8509712219 -44.1624336243 37.2878990173
-17.8195705414 -44.0860633850 37.0781326294
-17.8075923920 -44.0587768555 36.8778152466
-17.8185310364 -44.0894050598 36.6887702942
-17.8504943848 -44.1731605530 36.5101737976
-17.8974514008 -44.2948074341 36.3391265869
-17.9524955750 -44.4368858337 36.1722640991
-18.0107173920 -44.5869979858 36.0071678162
-18.0690917969 -44.7374916077 35.8423309326
-18.1249847412 -44.8817062378 35.6764259338
-18.1764812469 -45.0148124695 35.5084800720
-18.2234802246 -45.1365509033 35.3384132385
-18.2667522430 -45.2488670349 35.1665992737
-18.3057403564 -45.3503570557 34.9927368164
-18.3378925323 -45.4345779419 34.8154983521
-18.3599777222 -45.4933509827 34.6331863403
-18.3696002960 -45.5206375122 34.4445228577
-18.3661918640 -45.5149955750 34.2491493225
-18.3521099091 -45.4823875427 34.0482254028
-18.3339233398 -45.4394035339 33.8451156616
-18.3214454651 -45.4108505249 33.6449203491
-18.3225994110 -45.4167404175 33.4518089294
-18.3365612030 -45.4549865723 33.2654190063
-18.3518848419 -45.4966735840 33.0797882080
-18.3538551331 -45.5046272278 32.8871459961
-18.3359260559 -45.4622993469 32.6839599609
-18.3040847778 -45.3848228455 32.4733161926
-18.2698135376 -45.3012084961 32.2612648010
-18.2400341034 -45.2289466858 32.0514984131
-18.2145233154 -45.1674728394 31.8439197540
-18.1909751892 -45.1109542847 31.6373081207
-18.1699733734 -45.0608711243 31.4319839478
-18.1550350189 -45.0261077881 31.2298698425
-18.1495037079 -45.0151138306 31.0328083038
-18.1542186737 -45.0300025940 30.8413009644
-18.1675548553 -45.0666732788 30.6545143127
-18.1869812012 -45.1187248230 30.4711017609
-18.2104663849 -45.1810302734 30.2899742126
-18.2363033295 -45.2492790222 30.1102180481
-18.2617778778 -45.3166084290 29.9303379059
-18.2827625275 -45.3726005554 29.7480449677
-18.2952232361 -45.4070510864 29.5610771179
-18.2970161438 -45.4145545959 29.3681926727
-18.2883872986 -45.3957328796 29.1694793701
-18.2713871002 -45.3557624817 28.9660358429
-18.2488536835 -45.3018188477 28.7594184875
-18.2230682373 -45.2396621704 28.5508861542
-18.1947555542 -45.1711235046 28.3408336639
-18.1637191772 -45.0957031250 28.1291351318
-18.1305446625 -45.0148849487 27.9161128998
-18.0976791382 -44.9348449707 27.7031517029
-18.0694007874 -44.8663940430 27.4927043915
-18.0509510040 -44.8227767944 27.2877998352
-18.0465698242 -44.8146934509 27.0909271240
-18.0574111938 -44.8450584412 26.9028244019
-18.0815658569 -44.9090538025 26.7224578857
-18.1158733368 -44.9986877441 26.5480594635
-18.1569232941 -45.1053504944 26.3776950836
-18.2009258270 -45.2194709778 26.2091808319
-18.2445240021 -45.3325653076 26.0405693054
-18.2869968414 -45.4428176880 25.8714332581
-18.3312168121 -45.5574798584 25.7034606934
-18.3806400299 -45.6852798462 25.5386981964
-18.4340305328 -45.8231010437 25.3764400482
-18.4835319519 -45.9510917664 25.2120418549
-18.5190906525 -46.0438690186 25.0394992828
-18.5352001190 -46.0875282288 24.8554553986
-18.5337581635 -46.0868606567 24.6609535217
-18.5214691162 -46.0587959290 24.4599266052
-18.5048141479 -46.0197067261 24.2562274933
-18.4862403870 -45.9757728577 24.0513095856
-18.4636344910 -45.9216537476 23.8438835144
-18.4332427979 -45.8478775024 23.6316528320
-18.3939781189 -45.7516937256 23.4139156342
-18.3495368958 -45.6424407959 23.1928882599
-18.3059616089 -45.5353736877 22.9722366333
-18.2668628693 -45.4396209717 22.7541847229
-18.2315120697 -45.3533287048 22.5383014679
-18.1978111267 -45.2712020874 22.3233146667
-18.1668663025 -45.1960411072 22.1099147797
-18.1445941925 -45.1427841187 21.9017848969
-18.1387290955 -45.1309547424 21.7037734985
-18.1534042358 -45.1709976196 21.5185394287
-18.1860733032 -45.2564735413 21.3445911407
-18.2297191620 -45.3696632385 21.1776218414
-18.2773952484 -45.4930267334 21.0133190155
-18.3239154816 -45.6134757996 20.8484401703
-18.3648929596 -45.7199211121 20.6802082062
-18.3968353271 -45.8035545349 20.5063838959
-18.4186611176 -45.8616371155 20.3262367249
-18.4319038391 -45.8980522156 20.1406936646
-18.4390640259 -45.9191055298 19.9513072968
-18.4420166016 -45.9295387268 19.7592487335
-18.4416370392 -45.9315567017 19.5650558472
-18.4380836487 -45.9255599976 19.3688144684
-18.4308948517 -45.9103851318 19.1702136993
-18.4188480377 -45.8829498291 18.9684429169
-18.4002380371 -45.8389396667 18.7623748779
-18.3740577698 -45.7758216858 18.5513248444
-18.3414497375 -45.6964683533 18.3359947205
-18.3060512543 -45.6100769043 18.1187305450
-18.2727146149 -45.5288963318 17.9026947021
-18.2454299927 -45.4629936218 17.6905136108
-18.2259769440 -45.4168663025 17.4833889008
-18.2142467499 -45.3902359009 17.2812843323
-18.2099094391 -45.3822669983 17.0840225220
-18.2139701843 -45.3955001831 16.8923034668
-18.2286319733 -45.4354972839 16.7076339722
-18.2550163269 -45.5050926208 16.5308151245
-18.2905158997 -45.5976867676 16.3601570129
-18.3287696838 -45.6972389221 16.1914558411
-18.3631534576 -45.7870216370 16.0202770233
-18.3907756805 -45.8597259521 15.8446569443
-18.4136257172 -45.9203872681 15.6659069061
-18.4365768433 -45.9813041687 15.4872922897
-18.4637393951 -46.0528526306 15.3116016388
-18.4950428009 -46.1348495483 15.1388044357
-18.5255260468 -46.2147712708 14.9655456543
-18.5487213135 -46.2762985229 14.7874088287
-18.5611248016 -46.3105812073 14.6019611359
-18.5630760193 -46.3184814453 14.4093818665
-18.5560550690 -46.3037338257 14.2106370926
-18.5404777527 -46.2673912048 14.0059690475
-18.5163135529 -46.2093772888 13.7953166962
-18.4850997925 -46.1335639954 13.5796966553
-18.4508113861 -46.0500030518 13.3618373871
-18.4187984467 -45.9721755981 13.1454410553
-18.3937568665 -45.9119529724 12.9337930679
-18.3784275055 -45.8762397766 12.7288417816
-18.3737792969 -45.8674888611 12.5313158035
-18.3798141479 -45.8857040405 12.3412685394
-18.3956985474 -45.9287719727 12.1581640244
-18.4194774628 -45.9917716980 11.9806747437
-18.4483489990 -46.0676193237 11.8068571091
-18.4792804718 -46.1486625671 11.6345872879
-18.5094203949 -46.2277107239 11.4618511200
-18.5367889404 -46.2997589111 11.2872362137
-18.5613288879 -46.3646736145 11.1106872559
-18.5846977234 -46.4266242981 10.9333734512
-18.6081066132 -46.4886817932 10.7561607361
-18.6303825378 -46.5478706360 10.5782032013
-18.6484241486 -46.5963821411 10.3972654343
-18.6593952179 -46.6270446777 10.2112779617
-18.6619758606 -46.6365318298 10.0192499161
-18.6559276581 -46.6242408752 9.8209695816
-18.6415481567 -46.5909347534 9.6166105270
-18.6202507019 -46.5401611328 9.4071578979
-18.5951938629 -46.4799118042 9.1948881149
-18.5703601837 -46.4202194214 8.9826908112
-18.5485210419 -46.3680839539 8.7726020813
-18.5302810669 -46.3250350952 8.5650806427
-18.5149326324 -46.2892875671 8.3596229553
-18.5018348694 -46.2592163086 8.1557693481
-18.4910430908 -46.2349662781 7.9535737038
-18.4831485748 -46.2180290222 7.7534842491
-18.4788093567 -46.2100601196 7.5560045242
-18.4783840179 -46.2119674683 7.3614187241
-18.4818096161 -46.2235908508 7.1697006226
-18.4886951447 -46.2439460754 6.9805741310
-18.4983615875 -46.2713165283 6.7935504913
-18.5095596313 -46.3025512695 6.6077022552
-18.5201339722 -46.3322143555 6.4214158058
-18.5276718140 -46.3542137146 6.2328658104
-18.5311470032 -46.3659629822 6.0412640572
