-26.2923412323 29.0745716095 67.6784591675
-26.4928436279 29.3111133575 67.5129928589
-26.6905784607 29.5443878174 67.3474578857
-26.8641967773 29.7492046356 67.1784515381
-27.0115127563 29.9229850769 67.0055389404
-27.1356277466 30.0693912506 66.8291549683
-27.2346324921 30.1861686707 66.6489181519
-27.3055534363 30.2698078156 66.4642639160
-27.3509407043 30.3233184814 66.2755355835
-27.3779983521 30.3552017212 66.0838546753
-27.3937950134 30.3737964630 65.8903427124
-27.4028396606 30.3844242096 65.6957244873
-27.4074535370 30.3898239136 65.5003662109
-27.4085159302 30.3910312653 65.3044052124
-27.4051685333 30.3870372772 65.1076889038
-27.3938560486 30.3736457825 64.9095840454
-27.3682308197 30.3433647156 64.7089920044
-27.3222541809 30.2890701294 64.5048141479
-27.2564373016 30.2113647461 64.2970733643
-27.1826953888 30.1243057251 64.0878143311
-27.1226062775 30.0533599854 63.8808059692
-27.1007156372 30.0274848938 63.6804428101
-27.1377601624 30.0711517334 63.4905281067
-27.2436313629 30.1960315704 63.3130035400
-27.4090251923 30.3911437988 63.1463966370
-27.6035537720 30.6206359863 62.9853744507
-27.7883701324 30.8386688232 62.8229560852
-27.9357547760 31.0125312805 62.6540336609
-28.0395145416 31.1349220276 62.4773635864
-28.1107597351 31.2189445496 62.2948760986
-28.1661739349 31.2842864990 62.1095695496
-28.2173614502 31.3446407318 61.9235763550
-28.2663879395 31.4024467468 61.7372665405
-28.3087024689 31.4523315430 61.5497741699
-28.3395900726 31.4887332916 61.3601875305
-28.3579769135 31.5103836060 61.1682701111
-28.3651847839 31.5188446045 60.9742355347
-28.3613014221 31.5142192841 60.7780685425
-28.3426380157 31.4921531677 60.5790214539
-28.3028488159 31.4451580048 60.3758201599
-28.2384166718 31.3690853119 60.1677131653
-28.1549320221 31.2705326080 59.9557266235
-28.0673866272 31.1671886444 59.7427711487
-27.9925518036 31.0788421631 59.5321540833
-27.9405021667 31.0173797607 59.3259315491
-27.9130496979 30.9849433899 59.1245307922
-27.9086093903 30.9796600342 58.9277038574
-27.9280128479 31.0025100708 58.7356834412
-27.9772224426 31.0605316162 58.5497512817
-28.0652313232 31.1643333435 58.3718376160
-28.1966991425 31.3194179535 58.2030029297
-28.3629093170 31.5154953003 58.0415840149
-28.5390529633 31.7232952118 57.8825340271
-28.6935043335 31.9054985046 57.7193031311
-28.8044128418 32.0363235474 57.5472564697
-28.8700065613 32.1136779785 57.3658905029
-28.9038562775 32.1535758972 57.1779441833
-28.9218387604 32.1747474670 56.9866905212
-28.9336090088 32.1885948181 56.7941398621
-28.9424171448 32.1989440918 56.6009674072
-28.9483165741 32.2058601379 56.4071807861
-28.9503860474 32.2082557678 56.2125701904
-28.9470195770 32.2042388916 56.0167732239
-28.9350051880 32.1900215149 55.8190803528
-28.9084663391 32.1586608887 55.6181716919
-28.8598575592 32.1012611389 55.4123535156
-28.7843818665 32.0121574402 55.2005004883
-28.6853923798 31.8953075409 54.9832801819
-28.5754890442 31.7655811310 54.7634239197
-28.4715061188 31.6428394318 54.5446739197
-28.3878803253 31.5441188812 54.3302841187
-28.3334636688 31.4798660278 54.1223182678
-28.3125858307 31.4551849365 53.9218368530
-28.3280830383 31.4734268188 53.7295837402
-28.3826789856 31.5378036499 53.5462913513
-28.4769172668 31.6489582062 53.3721961975
-28.6067085266 31.8020648956 53.2064666748
-28.7632637024 31.9867515564 53.0471801758
-28.9327793121 32.1867294312 52.8911972046
-29.0953292847 32.3784904480 52.7339134216
-29.2296104431 32.5368957520 52.5703086853
-29.3238258362 32.6480216980 52.3975257874
-29.3815917969 32.7161407471 52.2163047791
-29.4173984528 32.7583503723 52.0299758911
-29.4488086700 32.7953681946 51.8426589966
-29.4906444550 32.8446884155 51.6578903198
-29.5465526581 32.9106140137 51.4765739441
-29.5972461700 32.9703865051 51.2940979004
-29.6010742188 32.9748611450 51.1003646851
-29.5201835632 32.8793640137 50.8860359192
-29.3537616730 32.6829490662 50.6506576538
-29.1426315308 32.4337768555 50.4039955139
-28.9403285980 32.1950187683 50.1590843201
-28.7828292847 32.0091285706 49.9248390198
-28.6815261841 31.8895492554 49.7042121887
-28.6334419250 31.8327674866 49.4966316223
-28.6319885254 31.8310089111 49.3006057739
-28.6712303162 31.8772678375 49.1147766113
-28.7465476990 31.9660968781 48.9381027222
-28.8572063446 32.0966262817 48.7705001831
-29.0098590851 32.2767105103 48.6137657166
-29.2135047913 32.5169639587 48.4703102112
-29.4606094360 32.8084983826 48.3383560181
-29.7100296021 33.1027641296 48.2074699402
-29.8942375183 33.3200798035 48.0602531433
-29.9503650665 33.3862648010 47.8802566528
-29.8545207977 33.2731285095 47.6609001160
-29.6452903748 33.0261955261 47.4117965698
-29.4220714569 32.7627601624 47.1586227417
-29.2989425659 32.6174240112 46.9312820435
-29.3309364319 32.6551322937 46.7445755005
-29.4771633148 32.8276329041 46.5881385803
-29.6378765106 33.0172271729 46.4358215332
-29.7243423462 33.1192131042 46.2640266418
-29.7001266479 33.0905914307 46.0627937317
-29.5818099976 32.9509353638 45.8362464905
-29.4197940826 32.7597160339 45.5976905823
-29.2714862823 32.5846710205 45.3625144958
-29.1755523682 32.4714279175 45.1412544250
-29.1429042816 32.4328613281 44.9370269775
-29.1662673950 32.4603843689 44.7480354309
-29.2314720154 32.5372772217 44.5705566406
-29.3197841644 32.6414413452 44.3995552063
-29.4087848663 32.7464179993 44.2289047241
-29.4790592194 32.8292961121 44.0532302856
-29.5212154388 32.8789939880 43.8698654175
-29.5355854034 32.8959083557 43.6788139343
-29.5272808075 32.8860626221 43.4814338684
-29.5038471222 32.8583679199 43.2797813416
-29.4760208130 32.8254890442 43.0768318176
-29.4564266205 32.8023223877 42.8761482239
-29.4549789429 32.8005714417 42.6805725098
-29.4746799469 32.8237762451 42.4910125732
-29.5102405548 32.8656921387 42.3060150146
-29.5495052338 32.9119796753 42.1221389771
-29.5774593353 32.9449195862 41.9350776672
-29.5812454224 32.9493446350 41.7410812378
-29.5538406372 32.9169616699 41.5380439758
-29.4963397980 32.8490676880 41.3261947632
-29.4190483093 32.7578201294 41.1084518433
-29.3384876251 32.6627159119 40.8895912170
-29.2694034576 32.5811538696 40.6739349365
-29.2182769775 32.5207786560 40.4634284973
-29.1854343414 32.4819831848 40.2582206726
-29.1730880737 32.4673690796 40.0590171814
-29.1888351440 32.4859046936 39.8681449890
-29.2397518158 32.5459442139 39.6877899170
-29.3260040283 32.6476745605 39.5181121826
-29.4439277649 32.7867774963 39.3581123352
-29.5916538239 32.9610519409 39.2073173523
-29.7635002136 33.1637840271 39.0640983582
-29.9394474030 33.3713569641 38.9224472046
-30.0892276764 33.5480499268 38.7731666565
-30.1904525757 33.6674499512 38.6093406677
-30.2397441864 33.7255706787 38.4297943115
-30.2472953796 33.7344360352 38.2375068665
-30.2254066467 33.7085647583 38.0361480713
-30.1811962128 33.6563529968 37.8278350830
-30.1146850586 33.5778236389 37.6125106812
-30.0222835541 33.4687461853 37.3889884949
-29.9054985046 33.3308982849 37.1576690674
-29.7779445648 33.1803398132 36.9227371216
-29.6609306335 33.0422210693 36.6908607483
-29.5698299408 32.9346771240 36.4669113159
-29.5053558350 32.8585548401 36.2511940002
-29.4582080841 32.8028755188 36.0408363342
-29.4204826355 32.7583198547 35.8333740234
-29.3929595947 32.7257957458 35.6290855408
-29.3840541840 32.7152442932 35.4306907654
-29.4038715363 32.7385826111 35.2414894104
-29.4582939148 32.8027572632 35.0634613037
-29.5449790955 32.9049987793 34.8959465027
-29.6515731812 33.0307350159 34.7350387573
-29.7583770752 33.1567230225 34.5744018555
-29.8471336365 33.2614097595 34.4080810547
-29.9107208252 33.3363990784 34.2337036133
-29.9554119110 33.3890876770 34.0532417297
-29.9943580627 33.4349975586 33.8709716797
-30.0386638641 33.4872360229 33.6905403137
-30.0915374756 33.5495834351 33.5130157471
-30.1472034454 33.6152267456 33.3365135193
-30.1947231293 33.6712532043 33.1573982239
-30.2245445251 33.7063980103 32.9724655151
-30.2333602905 33.7167587280 32.7805557251
-30.2238597870 33.7055015564 32.5825042725
-30.1999664307 33.6772651672 32.3795814514
-30.1619892120 33.6324081421 32.1718521118
-30.1071605682 33.5676651001 31.9583320618
-30.0361194611 33.4837913513 31.7391948700
-29.9581203461 33.3917083740 31.5175418854
-29.8876762390 33.3085403442 31.2983055115
-29.8355522156 33.2469902039 31.0851974487
-29.8039321899 33.2096328735 30.8790206909
-29.7895126343 33.1925773621 30.6786975861
-29.7893714905 33.1923675537 30.4832668304
-29.8044681549 33.2101364136 30.2931060791
-29.8394737244 33.2513961792 30.1098785400
-29.8986320496 33.3211593628 29.9351234436
-29.9790000916 33.4159507751 29.7678833008
-30.0671806335 33.5199584961 29.6035270691
-30.1452732086 33.6120643616 29.4357910156
-30.2016239166 33.6785125732 29.2605419159
-30.2356777191 33.7186508179 29.0775203705
-30.2538166046 33.7400131226 28.8889217377
-30.2628479004 33.7506256104 28.6971149445
-30.2667446136 33.7551803589 28.5034885406
-30.2660999298 33.7543754578 28.3082389832
-30.2577285767 33.7444496155 28.1102142334
-30.2347030640 33.7172355652 27.9069042206
-30.1899223328 33.6643524170 27.6957073212
-30.1234645844 33.5858879089 27.4765911102
-30.0470676422 33.4956932068 27.2537384033
-29.9785385132 33.4147834778 27.0335845947
-29.9301357269 33.3576278687 26.8206119537
-29.9028568268 33.3253936768 26.6152420044
-29.8906440735 33.3109359741 26.4153232574
-29.8874187469 33.3070869446 26.2186679840
-29.8903827667 33.3105392456 26.0242748260
-29.8998546600 33.3216743469 25.8322792053
-29.9186115265 33.3437614441 25.6437263489
-29.9512615204 33.3822441101 25.4603519440
-30.0014533997 33.4414291382 25.2835521698
-30.0667114258 33.5183868408 25.1124572754
-30.1358299255 33.5999031067 24.9429244995
-30.1940727234 33.6685867310 24.7694435120
-30.2323455811 33.7137031555 24.5885658264
-30.2506523132 33.7352600098 24.4002361298
-30.2530651093 33.7380638123 24.2059326172
-30.2412509918 33.7240791321 24.0062408447
-30.2138214111 33.6916656494 23.8005886078
-30.1712017059 33.6413345337 23.5890960693
-30.1195049286 33.5802841187 23.3740482330
-30.0679550171 33.5194129944 23.1589469910
-30.0224876404 33.4657173157 22.9460697174
-29.9822616577 33.4182052612 22.7351074219
-29.9413623810 33.3698997498 22.5237998962
-29.8928585052 33.3126182556 22.3094654083
-29.8331298828 33.2420959473 22.0906810760
-29.7651348114 33.1618156433 21.8685588837
-29.6985569000 33.0832099915 21.6468486786
-29.6463336945 33.0215415955 21.4306011200
-29.6203708649 32.9908599854 21.2245178223
-29.6293354034 33.0013961792 21.0320739746
-29.6779251099 33.0586853027 20.8552207947
-29.7651824951 33.1616058350 20.6936950684
-29.8825798035 33.3000907898 20.5442409515
-30.0147171021 33.4559707642 20.4008483887
-30.1427917480 33.6070556641 20.2560920715
-30.2479667664 33.7311210632 20.1024608612
-30.3140888214 33.8091011047 19.9334411621
-30.3316783905 33.8298110962 19.7451286316
-30.3037509918 33.7968139648 19.5385875702
-30.2481784821 33.7311935425 19.3208694458
-30.1895408630 33.6619567871 19.1017971039
-30.1443500519 33.6085853577 18.8880348206
-30.1141452789 33.5728988647 18.6802444458
-30.0916233063 33.5462760925 18.4755058289
-30.0692691803 33.5198554993 18.2707824707
-30.0418128967 33.4874114990 18.0639228821
-30.0055179596 33.4445381165 17.8533897400
-29.9593734741 33.3900451660 17.6387405396
-29.9063796997 33.3274650574 17.4211769104
-29.8512630463 33.2623863220 17.2026290894
-29.7969856262 33.1982917786 16.9843101501
-29.7454547882 33.1374397278 16.7670116425
-29.7019138336 33.0860176086 16.5529174805
-29.6767845154 33.0563201904 16.3463840485
-29.6820678711 33.0625076294 16.1524658203
-29.7248401642 33.1129341125 15.9742050171
-29.8014736176 33.2033195496 15.8101968765
-29.8971290588 33.3161506653 15.6543111801
-29.9936161041 33.4299621582 15.4989547729
-30.0799560547 33.5318031311 15.3395004272
-30.1546573639 33.6199035645 15.1752882004
-30.2187919617 33.6955413818 15.0067386627
-30.2700881958 33.7560272217 14.8328552246
-30.3043899536 33.7964591980 14.6518344879
-30.3200874329 33.8149375916 14.4629354477
-30.3189697266 33.8135757446 14.2668724060
-30.3033924103 33.7951507568 14.0646038055
-30.2739849091 33.7604026794 13.8563566208
-30.2297611237 33.7081756592 13.6416664124
-30.1693000793 33.6367835999 13.4198760986
-30.0924663544 33.5460739136 13.1908807755
-30.0034027100 33.4409332275 12.9564256668
-29.9122734070 33.3333549500 12.7208919525
-29.8324642181 33.2391357422 12.4900970459
-29.7754116058 33.1717681885 12.2690658569
-29.7490711212 33.1406402588 12.0613422394
-29.7600021362 33.1534957886 11.8698930740
-29.8128147125 33.2157707214 11.6968507767
-29.9044818878 33.3238945007 11.5410079956
-30.0197448730 33.4598617554 11.3957443237
-30.1346416473 33.5954017639 11.2505369186
-30.2263393402 33.7035598755 11.0952653885
-30.2809619904 33.7679710388 10.9236993790
-30.2954788208 33.7850570679 10.7343816757
-30.2758884430 33.7618980408 10.5298690796
-30.2343082428 33.7127876282 10.3154792786
-30.1851425171 33.6547241211 10.0976009369
-30.1408061981 33.6023635864 9.8817853928
-30.1089134216 33.5646858215 9.6714744568
-30.0918140411 33.5444641113 9.4677639008
-30.0870151520 33.5387535095 9.2695693970
-30.0870342255 33.5387344360 9.0735387802
-30.0799312592 33.5303077698 8.8742675781
-30.0536689758 33.4992752075 8.6662597656
-30.0036659241 33.4402236938 8.4473676682
-29.9371299744 33.3616638184 8.2208147049
-29.8691082001 33.2813529968 7.9934439659
-29.8135566711 33.2157554626 7.7716517448
-29.7774047852 33.1730537415 7.5586619377
-29.7611904144 33.1538734436 7.3547792435
-29.7633438110 33.1563720703 7.1593379974
-29.7839870453 33.1806869507 6.9724483490
-29.8256206512 33.2297706604 6.7953233719
-29.8896293640 33.3052558899 6.6286692619
-29.9706878662 33.4008636475 6.4700727463
-30.0550518036 33.5003700256 6.3131680489
-30.1267356873 33.5849151611 6.1504912376
-30.1766090393 33.6437225342 5.9777255058
-30.2055492401 33.6778297424 5.7952184677
-30.2201156616 33.6949729919 5.6059951782
-30.2267456055 33.7027511597 5.4130496979
-30.2290306091 33.7054061890 5.2180552483
-30.2275295258 33.7035865784 5.0212631226
-30.2199707031 33.6946258545 4.8215861320
-30.2016487122 33.6729621887 4.6167669296
-30.1674690247 33.6325836182 4.4043474197
-30.1161327362 33.5719604492 4.1836609840
-30.0533008575 33.4977722168 3.9573643208
-29.9895343781 33.4224815369 3.7304887772
-29.9341716766 33.3571052551 3.5075154305
-29.8912639618 33.3064308167 3.2904217243
-29.8607215881 33.2703475952 3.0791988373
-29.8412647247 33.2473411560 2.8732655048
-29.8315620422 33.2358474731 2.6720094681
-29.8298778534 33.2338142395 2.4746170044
-29.8340015411 33.2386360168 2.2800366879
-29.8417587280 33.2477455139 2.0872271061
-29.8517436981 33.2594833374 1.8955116272
-29.8642864227 33.2742385864 1.7050580978
-29.8827438354 33.2959747314 1.5175203085
-29.9138202667 33.3325996399 1.3362078667
-29.9642715454 33.3920936584 1.1644848585
-30.0340995789 33.4744453430 1.0024077892
-30.1125087738 33.5669250488 0.8446990848
-30.1831569672 33.6502494812 0.6832936406
-30.2348709106 33.7112274170 0.5126246810
-30.2668533325 33.7489242554 0.3322401345
-30.2846565247 33.7698898315 0.1448474973
-23.9215888977 -3.8801736832 90.9932403564
-23.9873828888 -3.8939847946 90.7879257202
-24.1113948822 -3.9189696312 90.5835113525
-24.2740306854 -3.9513671398 90.3798065186
-24.4569892883 -3.9876639843 90.1765975952
-24.6453208923 -4.0249905586 89.9736938477
-24.8258724213 -4.0608234406 89.7708740234
-24.9864025116 -4.0928120613 89.5679244995
-25.1169509888 -4.1190457344 89.3646240234
-25.2124729156 -4.1385564804 89.1608276367
-25.2744178772 -4.1516227722 88.9564971924
-25.3086719513 -4.1593747139 88.7516937256
-25.3204250336 -4.1628084183 88.5464630127
-25.3114337921 -4.1622610092 88.3408050537
-25.2835083008 -4.1580810547 88.1347198486
-25.2436733246 -4.1516151428 87.9283294678
-25.2030143738 -4.1449918747 87.7218627930
-25.1696701050 -4.1397724152 87.5155105591
-25.1443119049 -4.1360859871 87.3092956543
-25.1225433350 -4.1330881119 87.1031265259
-25.1006088257 -4.1300587654 86.8969192505
-25.0800914764 -4.1273012161 86.6907119751
-25.0708179474 -4.1267018318 86.4847640991
-25.0918846130 -4.1319231987 86.2796173096
-25.1674423218 -4.1475996971 86.0759811401
-25.3141765594 -4.1769309044 85.8744277954
-25.5263996124 -4.2188262939 85.6749267578
-25.7735195160 -4.2674145699 85.4766921997
-26.0162811279 -4.3151655197 85.2786178589
-26.2276515961 -4.3568921089 85.0798797607
-26.3995952606 -4.3910541534 84.8801498413
-26.5347595215 -4.4181590080 84.6794509888
-26.6365108490 -4.4388532639 84.4778289795
-26.7065563202 -4.4534649849 84.2752761841
-26.7477035522 -4.4625329971 84.0718307495
-26.7655658722 -4.4671339989 83.8676300049
-26.7670974731 -4.4686021805 83.6628646851
-26.7578353882 -4.4679999352 83.4577178955
-26.7396888733 -4.4656939507 83.2522277832
-26.7105770111 -4.4612846375 83.0463027954
-26.6671562195 -4.4541316032 82.8398056030
-26.6102085114 -4.4443836212 82.6327285767
-26.5479984283 -4.4336271286 82.4253768921
-26.4932422638 -4.4243006706 82.2182235718
-26.4565792084 -4.4184451103 82.0117187500
-26.4435443878 -4.4171209335 81.8061065674
-26.4557380676 -4.4206357002 81.6015014648
-26.4914588928 -4.4286627769 81.3978729248
-26.5458068848 -4.4402618408 81.1950683594
-26.6144332886 -4.4545984268 80.9929275513
-26.6986732483 -4.4719290733 80.7915344238
-26.8044338226 -4.4933862686 80.5911788940
-26.9347267151 -4.5195465088 80.3920364380
-27.0846080780 -4.5494627953 80.1939315796
-27.2433147430 -4.5810699463 79.9963912964
-27.3992481232 -4.6121449471 79.7989120483
-27.5421962738 -4.6407284737 79.6010055542
-27.6627464294 -4.6650166512 79.4021987915
-27.7525997162 -4.6834177971 79.2020416260
-27.8071708679 -4.6950535774 79.0002746582
-27.8282184601 -4.7002615929 78.7969055176
-27.8239574432 -4.7006168365 78.5922851563
-27.8061828613 -4.6983814240 78.3869705200
-27.7854404449 -4.6955761909 78.1814651489
-27.7665996552 -4.6931366920 77.9760284424
-27.7475395203 -4.6906552315 77.7705535889
-27.7208805084 -4.6867170334 77.5646362305
-27.6767787933 -4.6794347763 77.3577423096
-27.6063423157 -4.6671047211 77.1493606567
-27.5070571899 -4.6492447853 76.9392929077
-27.3890514374 -4.6277966499 76.7280654907
-27.2779712677 -4.6076769829 76.5170669556
-27.2103786469 -4.5958943367 76.3083953857
-27.2205963135 -4.5990281105 76.1040878296
-27.3235263824 -4.6199336052 75.9051437378
-27.5045166016 -4.6558008194 75.7108840942
-27.7257823944 -4.6993875504 75.5192108154
-27.9461975098 -4.7428092957 75.3277511597
-28.1405143738 -4.7812275887 75.1349792480
-28.3054981232 -4.8140220642 74.9406433105
-28.4508838654 -4.8430590630 74.7452926636
-28.5847606659 -4.8698892593 74.5493927002
-28.7058334351 -4.8942646980 74.3528442383
-28.8065567017 -4.9147396088 74.1551437378
-28.8809051514 -4.9301581383 73.9558639526
-28.9289531708 -4.9405364990 73.7549743652
-28.9557514191 -4.9468421936 73.5527496338
-28.9674663544 -4.9502568245 73.3495483398
-28.9685668945 -4.9516372681 73.1456527710
-28.9614372253 -4.9514403343 72.9412002563
-28.9474830627 -4.9499363899 72.7362594604
-28.9284667969 -4.9474625587 72.5309524536
-28.9073143005 -4.9445791245 72.3254623413
-28.8882408142 -4.9420938492 72.1200866699
-28.8765926361 -4.9410324097 71.9151992798
-28.8789653778 -4.9426574707 71.7112731934
-28.9030685425 -4.9484462738 71.5088882446
-28.9557476044 -4.9597105980 71.3085784912
-29.0389003754 -4.9768128395 71.1105346680
-29.1466617584 -4.9986300468 70.9143829346
-29.2675247192 -5.0229568481 70.7193145752
-29.3894023895 -5.0474772453 70.5244598389
-29.5026226044 -5.0703377724 70.3290939331
-29.6001091003 -5.0901832581 70.1326751709
-29.6781616211 -5.1063051224 69.9348754883
-29.7381095886 -5.1189579964 69.7357788086
-29.7852478027 -5.1291565895 69.5357589722
-29.8243694305 -5.1378188133 69.3351516724
-29.8562545776 -5.1450953484 69.1340179443
-29.8789882660 -5.1506175995 68.9321899414
-29.8923988342 -5.1543545723 68.7296371460
-29.9012050629 -5.1572089195 68.5267181396
-29.9143466949 -5.1608939171 68.3241577148
-29.9410762787 -5.1671814919 68.1227035522
-29.9860649109 -5.1769666672 67.9227828979
-30.0479125977 -5.1899809837 67.7242965698
-30.1238403320 -5.2056918144 67.5270538330
-30.2156562805 -5.2244453430 67.3312301636
-30.3286800385 -5.2472600937 67.1373062134
-30.4641208649 -5.2743673325 66.9454193115
-30.6146221161 -5.3043584824 66.7549819946
-30.7683143616 -5.3349599838 66.5649948120
-30.9158840179 -5.3643875122 66.3746566772
-31.0525932312 -5.3917346001 66.1835327148
-31.1749401093 -5.4163298607 65.9912948608
-31.2785148621 -5.4373292923 65.7975311279
-31.3602752686 -5.4541506767 65.6019287109
-31.4207668304 -5.4668984413 65.4045028687
-31.4623222351 -5.4760193825 65.2054138184
-31.4859828949 -5.4817132950 65.0047378540
-31.4907970428 -5.4837985039 64.8023452759
-31.4756832123 -5.4820675850 64.5981063843
-31.4434013367 -5.4770493507 64.3922424316
-31.4059238434 -5.4710364342 64.1858367920
-31.3863258362 -5.4684476852 63.9810638428
-31.4120693207 -5.4745407104 63.7805671692
-31.5032882690 -5.4931697845 63.5863533020
-31.6652164459 -5.5253376961 63.3990516663
-31.8873500824 -5.5690312386 63.2177658081
-32.1461944580 -5.6197519302 63.0403213501
-32.4117393494 -5.6717534065 62.8638420105
-32.6581230164 -5.7200846672 62.6857833862
-32.8726158142 -5.7623090744 62.5048522949
-33.0561561584 -5.7986063957 62.3210754395
-33.2164154053 -5.8304452896 62.1351776123
-33.3599395752 -5.8590793610 61.9477729797
-33.4883155823 -5.8848128319 61.7589912415
-33.5994033813 -5.9072351456 61.5685882568
-33.6912078857 -5.9259662628 61.3763237000
-33.7641906738 -5.9410939217 61.1822166443
-33.8205795288 -5.9530439377 60.9864578247
-33.8635292053 -5.9624214172 60.7893486023
-33.8979682922 -5.9701690674 60.5913887024
-33.9306068420 -5.9775729179 60.3932685852
-33.9671325684 -5.9857201576 60.1955947876
-34.0096664429 -5.9950170517 59.9985961914
-34.0591621399 -6.0056457520 59.8023948669
-34.1214904785 -6.0187315941 59.6076354980
-34.2095565796 -6.0367422104 59.4157524109
-34.3365058899 -6.0621938705 59.2282295227
-34.5058059692 -6.0957508087 59.0455207825
-34.7085266113 -6.1357021332 58.8667182922
-34.9290122986 -6.1790528297 58.6901359558
-35.1507072449 -6.2226324081 58.5139503479
-35.3582077026 -6.2634944916 58.3364219666
-35.5397377014 -6.2993850708 58.1561965942
-35.6905479431 -6.3293962479 57.9726829529
-35.8128013611 -6.3539409637 57.7860717773
-35.9120864868 -6.3740906715 57.5969543457
-35.9954910278 -6.3912000656 57.4061126709
-36.0711631775 -6.4068298340 57.2144622803
-36.1458091736 -6.4222626686 57.0227737427
-36.2211227417 -6.4378223419 56.8312454224
-36.2936820984 -6.4528546333 56.6394729614
-36.3581008911 -6.4663295746 56.4468154907
-36.4096832275 -6.4773473740 56.2526931763
-36.4454994202 -6.4853482246 56.0567321777
-36.4658775330 -6.4903955460 55.8589401245
-36.4764823914 -6.4935731888 55.6599807739
-36.4898834229 -6.4972853661 55.4613647461
-36.5248680115 -6.5051264763 55.2653999329
-36.6010017395 -6.5208401680 55.0745353699
-36.7285766602 -6.5463943481 54.8901214600
-36.9011039734 -6.5805473328 54.7114410400
-37.0987739563 -6.6195096970 54.5361022949
-37.3002624512 -6.6592001915 54.3614768982
-37.4915122986 -6.6969318390 54.1857986450
-37.6657028198 -6.7313985825 54.0081787109
-37.8189315796 -6.7618536949 53.8280944824
-37.9479980469 -6.7876863480 53.6450958252
-38.0514068604 -6.8086104393 53.4589424133
-38.1305122375 -6.8248853683 53.2697677612
-38.1887130737 -6.8371605873 53.0779647827
-38.2300338745 -6.8462071419 52.8840217590
-38.2590522766 -6.8529000282 52.6885070801
-38.2815589905 -6.8583483696 52.4921646118
-38.3038597107 -6.8637561798 52.2958068848
-38.3304939270 -6.8699932098 52.1000480652
-38.3628959656 -6.8773326874 51.9050827026
-38.4012985229 -6.8858199120 51.7109489441
-38.4482536316 -6.8959431648 51.5180091858
-38.5099487305 -6.9088840485 51.3271102905
-38.5951004028 -6.9263110161 51.1394653320
-38.7135276794 -6.9501013756 50.9564628601
-38.8725585938 -6.9816546440 50.7791633606
-39.0702400208 -7.0205984116 50.6073799133
-39.2918395996 -7.0641140938 50.4391326904
-39.5156745911 -7.1080565453 50.2714653015
-39.7232780457 -7.1488933563 50.1017913818
-39.9044036865 -7.1846661568 49.9286499023
-40.0557060242 -7.2147350311 49.7515220642
-40.1781005859 -7.2392749786 49.5704765320
-40.2748985291 -7.2589201927 49.3859367371
-40.3497581482 -7.2743701935 49.1983757019
-40.4052200317 -7.2861113548 49.0081176758
-40.4431495667 -7.2944993973 48.8153953552
-40.4660835266 -7.3000206947 48.6205444336
-40.4774055481 -7.3033213615 48.4240226746
-40.4799957275 -7.3049530983 48.2262344360
-40.4748840332 -7.3051123619 48.0273132324
-40.4611358643 -7.3036203384 47.8271102905
-40.4376373291 -7.3002648354 47.6254386902
-40.4065093994 -7.2954506874 47.4225959778
-40.3761825562 -7.2907900810 47.2198295593
-40.3612098694 -7.2890648842 47.0193099976
-40.3779983521 -7.2934117317 46.8235282898
-40.4390068054 -7.3062105179 46.6344184875
-40.5487174988 -7.3283190727 46.4527435303
-40.7028656006 -7.3589210510 46.2779388428
-40.8904228210 -7.3959078789 46.1084098816
-41.0974349976 -7.4366116524 45.9420814514
-41.3107032776 -7.4785103798 45.7769584656
-41.5189285278 -7.5194435120 45.6113090515
-41.7116088867 -7.5574040413 45.4435005188
-41.8791656494 -7.5905618668 45.2720069885
-42.0152931213 -7.6177110672 45.0958023071
-42.1187705994 -7.6386198997 44.9146347046
-42.1927986145 -7.6538991928 44.7289505005
-42.2423896790 -7.6645078659 44.5394859314
-42.2723884583 -7.6713724136 44.3469657898
-42.2872009277 -7.6753349304 44.1520576477
-42.2911300659 -7.6772165298 43.9554138184
-42.2874641418 -7.6776475906 43.7575531006
-42.2763786316 -7.6766605377 43.5584793091
-42.2533264160 -7.6733865738 43.3574485779
-42.2105407715 -7.6663422585 43.1531753540
-42.1432533264 -7.6546168327 42.9448509216
-42.0576820374 -7.6393976212 42.7334442139
-41.9737854004 -7.6244988441 42.5222015381
-41.9188919067 -7.6151428223 42.3156204224
-41.9173202515 -7.6159758568 42.1177825928
-41.9832954407 -7.6297144890 41.9311447144
-42.1180305481 -7.6565909386 41.7560348511
-42.3082885742 -7.6940736771 41.5903625488
-42.5282516479 -7.7372307777 41.4298973083
-42.7488594055 -7.7805104256 41.2698059082
-42.9504280090 -7.8201503754 41.1067543030
-43.1270942688 -7.8550314903 40.9397163391
-43.2798881531 -7.8853507042 40.7688217163
-43.4085044861 -7.9110498428 40.5939712524
-43.5104942322 -7.9316625595 40.4147071838
-43.5851669312 -7.9470553398 40.2308540344
-43.6356620789 -7.9578289986 40.0429115295
-43.6677856445 -7.9650931358 39.8518333435
-43.6876335144 -7.9700121880 39.6586494446
-43.6996231079 -7.9734296799 39.4641113281
-43.7058486938 -7.9757461548 39.2685699463
-43.7067375183 -7.9770436287 39.0720863342
-43.7021217346 -7.9772901535 38.8746261597
-43.6919326782 -7.9764714241 38.6761627197
-43.6763954163 -7.9746317863 38.4767265320
-43.6561050415 -7.9718837738 38.2764167786
-43.6322097778 -7.9684486389 38.0754241943
-43.6068077087 -7.9647254944 37.8741264343
-43.5835266113 -7.9614067078 37.6731719971
-43.5682754517 -7.9596228600 37.4736251831
-43.5699577332 -7.9610729218 37.2771263123
-43.5997505188 -7.9678912163 37.0857315063
-43.6667404175 -7.9818124771 36.9011535645
-43.7703399658 -8.0027256012 36.7233543396
-43.8960800171 -8.0278663635 36.5497436523
-44.0216560364 -8.0529727936 36.3762474060
-44.1296958923 -8.0747318268 36.1996498108
-44.2154655457 -8.0922365189 36.0190467834
-44.2837753296 -8.1064071655 35.8352851868
-44.3407402039 -8.1184110641 35.6494789124
-44.3883552551 -8.1286296844 35.4619789124
-44.4242744446 -8.1366147995 35.2723312378
-44.4445686340 -8.1416158676 35.0797691345
-44.4469337463 -8.1431932449 34.8838272095
-44.4327239990 -8.1416063309 34.6847343445
-44.4066085815 -8.1377468109 34.4833450317
-44.3738212585 -8.1326131821 34.2806396484
-44.3373374939 -8.1267738342 34.0771751404
-44.2979087830 -8.1203737259 33.8730888367
-44.2561607361 -8.1135301590 33.6684989929
-44.2131195068 -8.1064405441 33.4635963440
-44.1682510376 -8.0990028381 33.2582817078
-44.1184921265 -8.0906305313 33.0519447327
-44.0617713928 -8.0809307098 32.8441772461
-44.0039672852 -8.0710248947 32.6361198425
-43.9631042480 -8.0643520355 32.4313163757
-43.9641761780 -8.0656852722 32.2347221375
-44.0251770020 -8.0784587860 32.0499839783
-44.1444129944 -8.1023464203 31.8768692017
-44.2999992371 -8.1331729889 31.7111320496
-44.4626312256 -8.1653423309 31.5469837189
-44.6111755371 -8.1948223114 31.3802051544
-44.7393150330 -8.2204065323 31.2094974518
-44.8504180908 -8.2427377701 31.0355033875
-44.9481849670 -8.2625236511 30.8589420319
-45.0320167542 -8.2796497345 30.6796646118
-45.0988235474 -8.2935247421 30.4970149994
-45.1466484070 -8.3037767410 30.3105678558
-45.1761322021 -8.3105287552 30.1204166412
-45.1894454956 -8.3141946793 29.9269714355
-45.1883697510 -8.3151140213 29.7305717468
-45.1730155945 -8.3133096695 29.5312118530
-45.1419754028 -8.3085107803 29.3285751343
-45.0936889648 -8.3004217148 29.1223087311
-45.0284194946 -8.2890920639 28.9124355316
-44.9499435425 -8.2752437592 28.6997127533
-44.8658676147 -8.2603263855 28.4857101440
-44.7850379944 -8.2460289001 28.2722759247
-44.7124748230 -8.2333106995 28.0604782104
-44.6461601257 -8.2217845917 27.8499031067
-44.5803108215 -8.2103471756 27.6393337250
-44.5137710571 -8.1987791061 27.4285278320
-44.4559669495 -8.1888780594 27.2194938660
-44.4238777161 -8.1838846207 27.0158824921
-44.4318466187 -8.1865329742 26.8208122253
-44.4826354980 -8.1973514557 26.6349544525
-44.5665817261 -8.2144956589 26.4563045502
-44.6682701111 -8.2350234985 26.2815876007
-44.7741813660 -8.2563562393 26.1079025269
-44.8757095337 -8.2768526077 25.9333858490
-44.9681205750 -8.2956085205 25.7569942474
-45.0488929749 -8.3121442795 25.5781612396
-45.1165428162 -8.3261756897 25.3965377808
-45.1695823669 -8.3374204636 25.2117748260
-45.2063026428 -8.3455505371 25.0234661102
-45.2254791260 -8.3503351212 24.8313102722
-45.2269668579 -8.3517446518 24.6352443695
-45.2114791870 -8.3499174118 24.4353961945
-45.1801910400 -8.3450746536 24.2319908142
-45.1339340210 -8.3373785019 24.0251903534
-45.0718002319 -8.3266544342 23.8147602081
-44.9912834167 -8.3124246597 23.6001091003
-44.8926315308 -8.2947368622 23.3812580109
-44.7842750549 -8.2751989365 23.1600799561
-44.6820640564 -8.2568330765 22.9401550293
-44.6011886597 -8.2425384521 22.7249469757
-44.5488700867 -8.2336893082 22.5161418915
-44.5245285034 -8.2301759720 22.3136615753
-44.5251998901 -8.2314338684 22.1168766022
-44.5495948792 -8.2372150421 21.9255390167
-44.5974082947 -8.2474622726 21.7396202087
-44.6652374268 -8.2615261078 21.5583763123
-44.7433013916 -8.2775411606 21.3795795441
-44.8167228699 -8.2926702499 21.1997909546
-44.8708877563 -8.3041267395 21.0155982971
-44.8970146179 -8.3102378845 20.8249111176
-44.8944358826 -8.3108739853 20.6275253296
-44.8686294556 -8.3070821762 20.4246711731
-44.8267364502 -8.3002233505 20.2179889679
-44.7741432190 -8.2913246155 20.0087184906
-44.7143287659 -8.2810497284 19.7976665497
-44.6501655579 -8.2699460983 19.5854988098
-44.5835342407 -8.2583713531 19.3726539612
-44.5125274658 -8.2459640503 19.1586761475
-44.4290390015 -8.2311773300 18.9416160583
-44.3213500977 -8.2117776871 18.7186393738
-44.1846427917 -8.1868467331 18.4885463715
-44.0336151123 -8.1591863632 18.2548236847
-43.9030952454 -8.1354370117 18.0258617401
-43.8302192688 -8.1226768494 17.8106918335
-43.8323707581 -8.1242208481 17.6136436462
-43.9012489319 -8.1384840012 17.4328365326
-44.0145416260 -8.1612119675 17.2629451752
-44.1502723694 -8.1882171631 17.0986747742
-44.2932434082 -8.2166013718 16.9363403320
-44.4341201782 -8.2445850372 16.7736568451
-44.5658187866 -8.2708187103 16.6088752747
-44.6814727783 -8.2939929962 16.4402809143
-44.7760200500 -8.3131437302 16.2665901184
-44.8485412598 -8.3280963898 16.0875339508
-44.9006309509 -8.3391542435 15.9034719467
-44.9325942993 -8.3463754654 15.7144393921
-44.9429893494 -8.3494863510 15.5200395584
-44.9316139221 -8.3484477997 15.3201818466
-44.9005126953 -8.3436508179 15.1153392792
-44.8513526917 -8.3354120255 14.9058980942
-44.7839088440 -8.3236894608 14.6917638779
-44.6996498108 -8.3087635040 14.4732780457
-44.6082077026 -8.2924690247 14.2528543472
-44.5299797058 -8.2786922455 14.0356721878
-44.4905586243 -8.2723121643 13.8282890320
-44.5096893311 -8.2770891190 13.6358251572
-44.5915565491 -8.2938203812 13.4594631195
-44.7223091125 -8.3198671341 13.2957611084
-44.8766326904 -8.3504028320 13.1382827759
-45.0296554565 -8.3806896210 12.9806509018
-45.1666145325 -8.4079151154 12.8190393448
-45.2846221924 -8.4315299988 12.6526699066
-45.3874130249 -8.4522428513 12.4824771881
-45.4789276123 -8.4708070755 12.3094625473
-45.5611000061 -8.4875926971 12.1341114044
-45.6350326538 -8.5028066635 11.9566917419
-45.7013511658 -8.5165691376 11.7773551941
-45.7592010498 -8.5287179947 11.5958623886
-45.8065490723 -8.5388660431 11.4116611481
-45.8422508240 -8.5467948914 11.2244281769
-45.8672027588 -8.5526762009 11.0343818665
-45.8828239441 -8.5567798615 10.8418769836
-45.8880004883 -8.5588932037 10.6466007233
-45.8776168823 -8.5580434799 10.4471683502
-45.8450431824 -8.5529661179 10.2417764664
-45.7877883911 -8.5431880951 10.0297155380
-45.7112808228 -8.5297431946 9.8124008179
-45.6265068054 -8.5147247314 9.5927553177
-45.5441322327 -8.5001630783 9.3736429214
-45.4722213745 -8.4875965118 9.1572523117
-45.4192466736 -8.4786357880 8.9458990097
-45.3965301514 -8.4754390717 8.7426986694
-45.4151077271 -8.4801073074 8.5507135391
-45.4792861938 -8.4934606552 8.3711957932
-45.5831565857 -8.5143728256 8.2026138306
-45.7130050659 -8.5402307510 8.0412778854
-45.8527603149 -8.5679759979 7.8828177452
-45.9885253906 -8.5949583054 7.7234206200
-46.1104469299 -8.6193056107 7.5603594780
-46.2126502991 -8.6398963928 7.3919806480
-46.2924804688 -8.6562252045 7.2175116539
-46.3503150940 -8.6683654785 7.0370163918
-46.3896713257 -8.6769876480 6.8514342308
-46.4164581299 -8.6832141876 6.6623792648
-46.4371643066 -8.6882848740 6.4716482162
-46.4567375183 -8.6931381226 6.2806138992
-46.4762916565 -8.6979885101 6.0895900726
-46.4917449951 -8.7020578384 5.8974256516
-46.4945945740 -8.7037277222 5.7017116547
-46.4750747681 -8.7011375427 5.4996609688
-46.4268112183 -8.6930761337 5.2894248962
-46.3518753052 -8.6799364090 5.0715379715
-46.2628479004 -8.6641149521 4.8495345116
-46.1785163879 -8.6491870880 4.6287517548
-46.1159973145 -8.6384134293 4.4140963554
-46.0872688293 -8.6340732574 4.2090439796
-46.1018371582 -8.6379747391 4.0163869858
-46.1682357788 -8.6517438889 3.8386640549
-46.2887268066 -8.6758098602 3.6766247749
-46.4522857666 -8.7080736160 3.5271806717
-46.6360054016 -8.7441730499 3.3837726116
-46.8161773682 -8.7795972824 3.2395522594
-46.9785614014 -8.8116331100 3.0903680325
-47.1188011169 -8.8394527435 2.9349169731
-47.2358093262 -8.8628501892 2.7728395462
-47.3274116516 -8.8814115524 2.6034574509
-47.3920974731 -8.8948478699 2.4262764454
-47.4321289063 -8.9035921097 2.2419159412
-47.4526748657 -8.9086275101 2.0518510342
-47.4574546814 -8.9106616974 1.8571454287
-47.4457740784 -8.9095630646 1.6575636864
-47.4132957458 -8.9045066833 1.4517885447
-47.3548202515 -8.8945035934 1.2382371426
-47.2671661377 -8.8789463043 1.0159118176
-47.1514892578 -8.8580579758 0.7851043940
-47.0142021179 -8.8330574036 0.5476806760
-46.8658752441 -8.8059577942 0.3067687452
-46.7196464539 -8.7792577744 0.0662933365
-10.3685684204 44.7341651917 89.5289077759
-10.3750095367 44.7657356262 89.3379974365
-10.3851985931 44.8157539368 89.1477584839
-10.3974723816 44.8760414124 88.9579391479
-10.4114484787 44.9447059631 88.7684936523
-10.4275484085 45.0238342285 88.5795059204
-10.4455785751 45.1124572754 88.3909683228
-10.4639530182 45.2027816772 88.2025909424
-10.4801759720 45.2825126648 88.0139160156
-10.4920873642 45.3410110474 87.8245086670
-10.4989118576 45.3744697571 87.6341629028
-10.5013837814 45.3865013123 87.4429855347
-10.5010375977 45.3846549988 87.2512512207
-10.4994020462 45.3764610291 87.0592346191
-10.4975910187 45.3674049377 86.8671646118
-10.4962196350 45.3605117798 86.6751708984
-10.4953823090 45.3562469482 86.4832687378
-10.4945096970 45.3518142700 86.2913513184
-10.4920234680 45.3394279480 86.0990600586
-10.4851541519 45.3054695129 85.9057617188
-10.4707946777 45.2346305847 85.7107162476
-10.4475097656 45.1198501587 85.5135116577
-10.4170322418 44.9696578979 85.3144683838
-10.3838834763 44.8063125610 85.1146011353
-10.3545074463 44.6615447998 84.9154205322
-10.3379554749 44.5799102783 84.7191543579
-10.3459644318 44.6192016602 84.5288314819
-10.3880310059 44.8261642456 84.3470306396
-10.4627017975 45.1936569214 84.1737060547
-10.5541105270 45.6435546875 84.0051193237
-10.6402387619 46.0674514771 83.8357315063
-10.7061080933 46.3916130066 83.6615753174
-10.7491998672 46.6036300659 83.4817886353
-10.7748317719 46.7296867371 83.2975845337
-10.7895145416 46.8018302917 83.1105651855
-10.7980298996 46.8436164856 82.9219436646
-10.8034896851 46.8703575134 82.7325134277
-10.8081226349 46.8930244446 82.5428771973
-10.8138141632 46.9209060669 82.3535614014
-10.8218727112 46.9604415894 82.1649551392
-10.8319015503 47.0096778870 81.9769592285
-10.8410902023 47.0547752380 81.7887725830
-10.8455467224 47.0765762329 81.5992279053
-10.8431196213 47.0644836426 81.4076461792
-10.8347988129 47.0233764648 81.2142639160
-10.8228979111 46.9646453857 81.0197219849
-10.8080701828 46.8915023804 80.8241958618
-10.7888793945 46.7968750000 80.6272048950
-10.7646188736 46.6772918701 80.4284896851
-10.7379302979 46.5457534790 80.2288436890
-10.7138347626 46.4269828796 80.0298538208
-10.6963195801 46.3406066895 79.8328323364
-10.6865530014 46.2923774719 79.6382369995
-10.6843805313 46.2815437317 79.4460830688
-10.6910371780 46.3141746521 79.2568511963
-10.7101774216 46.4082717896 79.0718612671
-10.7455987930 46.5825271606 78.8925170898
-10.7966279984 46.8336219788 78.7187423706
-10.8556470871 47.1240577698 78.5480422974
-10.9115648270 47.3992233276 78.3766250610
-10.9563207626 47.6194381714 78.2016143799
-10.9878292084 47.7744255066 78.0221633911
-11.0079965591 47.8735809326 77.8388290405
-11.0197620392 47.9313659668 77.6525726318
-11.0256948471 47.9604339600 77.4642562866
-11.0275821686 47.9695892334 77.2744750977
-11.0265254974 47.9642448425 77.0836029053
-11.0240859985 47.9520912170 76.8921966553
-11.0245265961 47.9541206360 76.7018585205
-11.0358772278 48.0098648071 76.5156631470
-11.0664978027 48.1604843140 76.3369369507
-11.1176261902 48.4120712280 76.1663284302
-11.1787023544 48.7126426697 75.9999160767
-11.2313470840 48.9716949463 75.8305587769
-11.2577505112 49.1015548706 75.6511154175
-11.2453746796 49.0404815674 75.4563446045
-11.1889276505 48.7624244690 75.2437286377
-11.0956306458 48.3029365540 75.0157928467
-10.9895820618 47.7806739807 74.7820510864
-10.9045991898 47.3621215820 74.5563125610
-10.8667402267 47.1755790710 74.3496093750
-10.8807554245 47.2444458008 74.1643600464
-10.9303245544 47.4883575439 73.9941864014
-10.9898929596 47.7815017700 73.8285598755
-11.0393886566 48.0250511169 73.6589889526
-11.0717868805 48.1844253540 73.4823455811
-11.0899515152 48.2737159729 73.2997283936
-11.0992355347 48.3192863464 73.1133270264
-11.1033172607 48.3392410278 72.9246826172
-11.1036329269 48.3406600952 72.7343902588
-11.0995845795 48.3205871582 72.5421371460
-11.0890846252 48.2687530518 72.3469467163
-11.0702857971 48.1760520935 72.1479263306
-11.0438709259 48.0458602905 71.9453048706
-11.0138235092 47.8977775574 71.7408447266
-10.9856605530 47.7589759827 71.5370483398
-10.9635457993 47.6499557495 71.3358917236
-10.9486227036 47.5763397217 71.1379547119
-10.9392690659 47.5301475525 70.9425430298
-10.9322795868 47.4955940247 70.7481918335
-10.9239645004 47.4545135498 70.5531463623
-10.9113178253 47.3921089172 70.3559646606
-10.8938264847 47.3058433533 70.1563415527
-10.8751010895 47.2135086060 69.9560012817
-10.8621807098 47.1497573853 69.7583770752
-10.8619003296 47.1482353210 69.5669097900
-10.8769493103 47.2221870422 69.3830566406
-10.9045763016 47.3580703735 69.2055740356
-10.9381494522 47.5232276917 69.0312423706
-10.9700803757 47.6803016663 68.8562927246
-10.9948472977 47.8021011353 68.6778793335
-11.0107603073 47.8803100586 68.4950714111
-11.0194129944 47.9227714539 68.3086166382
-11.0235891342 47.9431915283 68.1198806763
-11.0254983902 47.9524497986 67.9299774170
-11.0262794495 47.9561576843 67.7394866943
-11.0263299942 47.9562683105 67.5486068726
-11.0257568359 47.9533042908 67.3573913574
-11.0245561600 47.9472503662 67.1658248901
-11.0223989487 47.9364891052 66.9737243652
-11.0180664063 47.9150161743 66.7804260254
-11.0090131760 47.8703041077 66.5845260620
-10.9920778275 47.7867813110 66.3842468262
-10.9656553268 47.6565475464 66.1786346436
-10.9316682816 47.4890670776 65.9686508179
-10.8950014114 47.3083953857 65.7569580078
-10.8606195450 47.1389732361 65.5463104248
-10.8312978745 46.9944610596 65.3382797241
-10.8080625534 46.8799171448 65.1335067749
-10.7923507690 46.8024177551 64.9328613281
-10.7875080109 46.7784385681 64.7383270264
-10.7982263565 46.8310661316 64.5527114868
-10.8276758194 46.9759254456 64.3779907227
-10.8734426498 47.2011222839 64.2129440308
-10.9259290695 47.4594001770 64.0521087646
-10.9726667404 47.6893806458 63.8882141113
-11.0056915283 47.8518371582 63.7164916992
-11.0248250961 47.9459037781 63.5367164612
-11.0346889496 47.9943313599 63.3515129089
-11.0399742126 48.0202102661 63.1636123657
-11.0432233810 48.0360679626 62.9745063782
-11.0450859070 48.0450973511 62.7845726013
-11.0450391769 48.0447311401 62.5934753418
-11.0414237976 48.0267868042 62.4001808167
-11.0311574936 47.9761009216 62.2027549744
-11.0105199814 47.8743476868 61.9988327026
-10.9777412415 47.7128181458 61.7872085571
-10.9355449677 47.5049133301 61.5694732666
-10.8906660080 47.2838096619 61.3497772217
-10.8503694534 47.0852584839 61.1326904297
-10.8192768097 46.9320297241 60.9211845398
-10.7987689972 46.8309135437 60.7162361145
-10.7881460190 46.7784729004 60.5174903870
-10.7861785889 46.7686424255 60.3242492676
-10.7923707962 46.7989883423 60.1362762451
-10.8072128296 46.8719253540 59.9539680481
-10.8309698105 46.9887542725 59.7775726318
-10.8622159958 47.1424598694 59.6062431335
-10.8980350494 47.3186798096 59.4381217957
-10.9354572296 47.5027923584 59.2712821960
-10.9716491699 47.6808471680 59.1038475037
-11.0024499893 47.8323593140 58.9330215454
-11.0222177505 47.9295501709 58.7549552917
-11.0265913010 47.9509429932 58.5665931702
-11.0157499313 47.8974227905 58.3679161072
-10.9949197769 47.7947235107 58.1623420715
-10.9713964462 47.6787605286 57.9547805786
-10.9502124786 47.5743141174 57.7486724854
-10.9316596985 47.4828262329 57.5442428589
-10.9122371674 47.3870506287 57.3390884399
-10.8878183365 47.2666816711 57.1303100586
-10.8565320969 47.1124992371 56.9165534973
-10.8196268082 46.9306449890 56.6986274719
-10.7805728912 46.7382164001 56.4789428711
-10.7438335419 46.5571784973 56.2606506348
-10.7138719559 46.4095153809 56.0469551086
-10.6940908432 46.3119773865 55.8403663635
-10.6861457825 46.2727165222 55.6421699524
-10.6905403137 46.2942123413 55.4528427124
-10.7078523636 46.3793144226 55.2729225159
-10.7386016846 46.5305709839 55.1029090881
-10.7811412811 46.7398796082 54.9417228699
-10.8297224045 46.9789428711 54.7852478027
-10.8757581711 47.2054672241 54.6271858215
-10.9124116898 47.3857994080 54.4624404907
-10.9388542175 47.5158500671 54.2903022766
-10.9603872299 47.6217346191 54.1146469116
-10.9843912125 47.7397842407 53.9409751892
-11.0152854919 47.8917579651 53.7726516724
-11.0516662598 48.0707435608 53.6086730957
-11.0865840912 48.2425270081 53.4438018799
-11.1090173721 48.3528404236 53.2695999146
-11.1053256989 48.3345298767 53.0754737854
-11.0636653900 48.1292610168 52.8520469666
-10.9830884933 47.7323799133 52.5982284546
-10.8796920776 47.2231407166 52.3261566162
-10.7796487808 46.7304077148 52.0560417175
-10.7029924393 46.3528327942 51.8036117554
-10.6539297104 46.1111145020 51.5723915100
-10.6250085831 45.9685745239 51.3567619324
-10.6073780060 45.8816223145 51.1498947144
-10.5973138809 45.8319282532 50.9489288330
-10.5966730118 45.8286323547 50.7554244995
-10.6095952988 45.8921127319 50.5727920532
-10.6378002167 46.0308494568 50.4025382996
-10.6766538620 46.2220153809 50.2410697937
-10.7153558731 46.4124336243 50.0797157288
-10.7425308228 46.5460929871 49.9091987610
-10.7528533936 46.5967750549 49.7250595093
-10.7486305237 46.5758438110 49.5290298462
-10.7362613678 46.5148010254 49.3262481689
-10.7221908569 46.4453773499 49.1219673157
-10.7108354568 46.3893241882 48.9198493958
-10.7036695480 46.3538970947 48.7211456299
-10.6990165710 46.3308448792 48.5244903564
-10.6932067871 46.3020973206 48.3268241882
-10.6828269958 46.2508468628 48.1252593994
-10.6665477753 46.1705513000 47.9186248779
-10.6454629898 46.0665893555 47.7077980042
-10.6221113205 45.9514694214 47.4948921204
-10.5992536545 45.8387794495 47.2822570801
-10.5793752670 45.7407608032 47.0720252991
-10.5649175644 45.6694297791 46.8663368225
-10.5581026077 45.6357345581 46.6671638489
-10.5597248077 45.6435813904 46.4752655029
-10.5680932999 45.6846427917 46.2892532349
-10.5797452927 45.7418746948 46.1061553955
-10.5914411545 45.7993202209 45.9231643677
-10.6013784409 45.8481025696 45.7386856079
-10.6088075638 45.8845443726 45.5520439148
-10.6132602692 45.9063262939 45.3628005981
-10.6145725250 45.9126472473 45.1707763672
-10.6134033203 45.9067459106 44.9765357971
-10.6111316681 45.8954200745 44.7812881470
-10.6090297699 45.8849258423 44.5861701965
-10.6075277328 45.8773880005 44.3915748596
-10.6060810089 45.8701248169 44.1970100403
-10.6032896042 45.8562393188 44.0012016296
-10.5970354080 45.8253021240 43.8022079468
-10.5850877762 45.7663269043 43.5979499817
-10.5665445328 45.6748809814 43.3875465393
-10.5432596207 45.5600891113 43.1726417542
-10.5195541382 45.4432220459 42.9571952820
-10.4999208450 45.3464088440 42.7453689575
-10.4866962433 45.2811508179 42.5393829346
-10.4797449112 45.2467803955 42.3391685486
-10.4778690338 45.2374000549 42.1436653137
-10.4802303314 45.2488861084 41.9521293640
-10.4865036011 45.2796325684 41.7642974854
-10.4956407547 45.3244781494 41.5792045593
-10.5047025681 45.3689575195 41.3940963745
-10.5101089478 45.3954353333 41.2055435181
-10.5112771988 45.4010429382 41.0129623413
-10.5125818253 45.4073257446 40.8205108643
-10.5201749802 45.4445686340 40.6341209412
-10.5360956192 45.5228233337 40.4558181763
-10.5553617477 45.6175422668 40.2808494568
-10.5686464310 45.6828117371 40.1001777649
-10.5681562424 45.6802558899 39.9061317444
-10.5520629883 45.6008720398 39.6967926025
-10.5245771408 45.4653930664 39.4761543274
-10.4922504425 45.3060760498 39.2505607605
-10.4600877762 45.1475677490 39.0249137878
-10.4307184219 45.0028114319 38.8018264771
-10.4061231613 44.8815612793 38.5832939148
-10.3890552521 44.7973823547 38.3721160889
-10.3827819824 44.7663497925 38.1716308594
-10.3898067474 44.8007965088 37.9844551086
-10.4104585648 44.9023399353 37.8110504150
-10.4417581558 45.0563125610 37.6485290527
-10.4775047302 45.2321853638 37.4907112122
-10.5104045868 45.3940391541 37.3302116394
-10.5351619720 45.5157966614 37.1616058350
-10.5500288010 45.5888595581 36.9830207825
-10.5558166504 45.6172180176 36.7952003479
-10.5541229248 45.6087341309 36.5997047424
-10.5468244553 45.5726547241 36.3983955383
-10.5364990234 45.5216712952 36.1938972473
-10.5259475708 45.4695701599 35.9890861511
-10.5165729523 45.4232673645 35.7854309082
-10.5071821213 45.3768844604 35.5816879272
-10.4944658279 45.3141288757 35.3743896484
-10.4751367569 45.2188110352 35.1600418091
-10.4487476349 45.0887336731 34.9381179810
-10.4191045761 44.9426269531 34.7125701904
-10.3923969269 44.8109779358 34.4899444580
-10.3733434677 44.7170143127 34.2752876282
-10.3629903793 44.6658935547 34.0697937012
-10.3596429825 44.6492691040 33.8717308044
-10.3610334396 44.6559715271 33.6787300110
-10.3657770157 44.6791877747 33.4893417358
-10.3739624023 44.7193450928 33.3036918640
-10.3870887756 44.7838401794 33.1234397888
-10.4068441391 44.8809700012 32.9504699707
-10.4327669144 45.0084686279 32.7843399048
-10.4608707428 45.1467094421 32.6207504272
-10.4853906631 45.2673034668 32.4533996582
