7.0211477280 35.4773101807 71.8957672119
7.0163764954 35.4566917419 71.6949081421
7.0153455734 35.4524993896 71.4952926636
7.0176095963 35.4627761841 71.2968063354
7.0203623772 35.4752044678 71.0984954834
7.0206122398 35.4766387939 70.8993225098
7.0171818733 35.4619064331 70.6988449097
7.0107932091 35.4341812134 70.4972839355
7.0029330254 35.3999977112 70.2951583862
6.9950580597 35.3657417297 70.0929794312
6.9884395599 35.3370094299 69.8912048340
6.9839644432 35.3176918030 69.6901779175
6.9818315506 35.3086585999 69.4899902344
6.9816975594 35.3084068298 69.2905273438
6.9832563400 35.3155899048 69.0916976929
6.9865684509 35.3304710388 68.8935394287
6.9915847778 35.3528404236 68.6960372925
6.9972190857 35.3779220581 68.4988021851
7.0013103485 35.3962249756 68.3009948730
7.0023446083 35.4011039734 68.1020126343
7.0014348030 35.3974418640 67.9022674561
7.0018625259 35.3996582031 67.7030487061
7.0061497688 35.4188232422 67.5053558350
7.0138339996 35.4529075623 67.3090515137
7.0222554207 35.4902305603 67.1130752563
7.0290160179 35.5202598572 66.9164733887
7.0333700180 35.5397186279 66.7189178467
7.0357413292 35.5504684448 66.5205612183
7.0365428925 35.5543251038 66.3215637207
7.0353560448 35.5494461060 66.1217346191
7.0307321548 35.5294723511 65.9204483032
7.0207700729 35.4860572815 65.7168655396
7.0046281815 35.4154968262 65.5105895996
6.9840908051 35.3256340027 65.3023223877
6.9634175301 35.2351760864 65.0938873291
6.9470176697 35.1634826660 64.8871765137
6.9369916916 35.1197853088 64.6831741333
6.9327020645 35.1012840271 64.4816284180
6.9320979118 35.0989646912 64.2816925049
6.9330644608 35.1035461426 64.0824432373
6.9339509010 35.1077766418 63.8831634521
6.9335899353 35.1065254211 63.6833190918
6.9312043190 35.0963859558 63.4825477600
6.9262928963 35.0751533508 63.2806053162
6.9185924530 35.0416679382 63.0773429871
6.9083781242 34.9971466064 62.8728675842
6.8969702721 34.9473800659 62.6677742004
6.8866353035 34.9023246765 62.4631118774
6.8794965744 34.8713073730 62.2598991394
6.8765511513 34.8587074280 62.0586280823
6.8778395653 34.8647041321 61.8593559265
6.8828406334 34.8870048523 61.6618728638
6.8900613785 34.9190521240 61.4654808044
6.8968262672 34.9491004944 61.2689056396
6.9003028870 34.9647064209 61.0707550049
6.8989391327 34.9590530396 60.8702430725
6.8931775093 34.9340858459 60.6675415039
6.8851571083 34.8991966248 60.4636840820
6.8775358200 34.8660659790 60.2599716187
6.8720746040 34.8424148560 60.0573005676
6.8690481186 34.8294601440 59.8558235168
6.8677859306 34.8242530823 59.6552200317
6.8675069809 34.8233642578 59.4551086426
6.8677210808 34.8246421814 59.2552452087
6.8681931496 34.8270530701 59.0555114746
6.8688011169 34.8300590515 58.8558425903
6.8694553375 34.8332672119 58.6562004089
6.8700933456 34.8364105225 58.4565467834
6.8707098961 34.8394508362 58.2568817139
6.8714113235 34.8428688049 58.0572586060
6.8725261688 34.8481025696 57.8578567505
6.8747496605 34.8582077026 57.6590538025
6.8791689873 34.8779487610 57.4614372253
6.8868246078 34.9119110107 57.2655982971
6.8978204727 34.9605369568 57.0716171265
6.9107489586 35.0176506042 56.8787536621
6.9232926369 35.0730781555 56.6857452393
6.9335775375 35.1185836792 56.4915542603
6.9409461021 35.1512794495 56.2957916260
6.9456553459 35.1722984314 56.0985794067
6.9482140541 35.1838722229 55.9001808167
6.9490742683 35.1879882813 55.7008361816
6.9486813545 35.1865997314 55.5007743835
6.9475865364 35.1821250916 55.3003082275
6.9464592934 35.1775131226 55.0998115540
6.9460291862 35.1759605408 54.8997077942
6.9470195770 35.1806449890 54.7004165649
6.9501032829 35.1945266724 54.5023422241
6.9557590485 35.2196998596 54.3057861328
6.9637641907 35.2551918030 54.1106376648
6.9724817276 35.2938156128 53.9159469604
6.9790163040 35.3228492737 53.7200088501
6.9809837341 35.3318252563 53.5213813782
6.9785027504 35.3212661743 53.3200988770
6.9741029739 35.3022804260 53.1176414490
6.9706721306 35.2875480652 52.9157371521
6.9698677063 35.2843551636 52.7154083252
6.9723162651 35.2954444885 52.5170516968
6.9785013199 35.3229408264 52.3209915161
6.9888610840 35.3687744141 52.1275329590
7.0030035973 35.4312210083 51.9364662170
7.0192561150 35.5029335022 51.7467880249
7.0354895592 35.5745582581 51.5571823120
7.0505132675 35.6408767700 51.3669052124
7.0642848015 35.7016906738 51.1759223938
7.0766425133 35.7562980652 50.9841156006
7.0864934921 35.7998962402 50.7907829285
7.0930571556 35.8290557861 50.5954017639
7.0978527069 35.8504524231 50.3989181519
7.1046366692 35.8805809021 50.2037391663
7.1170477867 35.9354209900 50.0122337341
7.1365709305 36.0214920044 49.8254089355
7.1623411179 36.1350021362 49.6427650452
7.1916313171 36.2639694214 49.4625701904
7.2202162743 36.3898353577 49.2820701599
7.2436256409 36.4929771423 49.0983085632
7.2592267990 36.5618247986 48.9094886780
7.2670459747 36.5965003967 48.7155723572
7.2685599327 36.6034851074 48.5174713135
7.2653079033 36.5895347595 48.3161735535
7.2588591576 36.5615501404 48.1126937866
7.2513732910 36.5290145874 47.9084701538
7.2452402115 36.5024147034 47.7051200867
7.2419261932 36.4881973267 47.5036582947
7.2413964272 36.4862060547 47.3040809631
7.2426619530 36.4920997620 47.1057357788
7.2446956635 36.5013656616 46.9079208374
7.2468996048 36.5113792419 46.7102317810
7.2490935326 36.5213508606 46.5125465393
7.2513580322 36.5316314697 46.3149147034
7.2540001869 36.5435676575 46.1175575256
7.2577767372 36.5604858398 45.9210128784
7.2643566132 36.5897178650 45.7264709473
7.2765245438 36.6434898376 45.5359344482
7.2972292900 36.7347488403 45.3515625000
7.3273706436 36.8674507141 45.1740722656
7.3640656471 37.0289306641 45.0014648438
7.4014983177 37.1936492920 44.8295936584
7.4339799881 37.3366279602 44.6543350220
7.4586839676 37.4454460144 44.4735908508
7.4763350487 37.5232963562 44.2878227234
7.4901175499 37.5841560364 44.0993080139
7.5038118362 37.6446266174 43.9108047485
7.5200662613 37.7163429260 43.7242660522
7.5394964218 37.8020019531 43.5401725769
7.5609278679 37.8964500427 43.3576774597
7.5823335648 37.9907875061 43.1752777100
7.6016592979 38.0759887695 42.9914321899
7.6171741486 38.1444549561 42.8048171997
7.6275310516 38.1902694702 42.6143836975
7.6320247650 38.2103385925 42.4195480347
7.6313304901 38.2076225281 42.2207756042
7.6281294823 38.1938972473 42.0200805664
7.6266870499 38.1879005432 41.8207130432
7.6313986778 38.2089233398 41.6260757446
7.6451163292 38.2694969177 41.4384269714
7.6678638458 38.3697242737 41.2578659058
7.6966800690 38.4966011047 41.0821571350
7.7273063660 38.6314239502 40.9080200195
7.7566304207 38.7605285645 40.7330322266
7.7837419510 38.8799209595 40.5564613342
7.8092103004 38.9920921326 40.3787384033
7.8338179588 39.1004867554 40.2004737854
7.8576121330 39.2053070068 40.0216941833
7.8796277046 39.3023185730 39.8416252136
7.8985204697 39.3856163025 39.6591682434
7.9136505127 39.4523887634 39.4737854004
7.9256787300 39.5055427551 39.2859802246
7.9361214638 39.5517349243 39.0969505310
7.9462771416 39.5966606140 38.9077453613
7.9564690590 39.6417503357 38.7186203003
7.9662833214 39.6851806641 38.5292396545
7.9754762650 39.7258796692 38.3393974304
7.9846711159 39.7665901184 38.1496047974
7.9952654839 39.8134460449 37.9610176086
8.0085802078 39.8722457886 37.7747421265
8.0247154236 39.9434356689 37.5908889771
8.0420331955 40.0198135376 37.4081115723
8.0579786301 40.0901679993 37.2242774963
8.0706968307 40.1463470459 37.0378074646
8.0799875259 40.1874771118 36.8485145569
8.0870704651 40.2189102173 36.6573982239
8.0939083099 40.2492675781 36.4661064148
8.1026973724 40.2881965637 36.2765159607
8.1153287888 40.3439941406 36.0902595520
8.1326084137 40.4202079773 35.9080581665
8.1538076401 40.5136299133 35.7293243408
8.1770858765 40.6161804199 35.5525054932
8.2003498077 40.7186737061 35.3758010864
8.2218980789 40.8136215210 35.1977272034
8.2408952713 40.8973770142 35.0175476074
8.2576656342 40.9713516235 34.8355216980
8.2732133865 41.0399551392 34.6525115967
8.2883558273 41.1067810059 34.4692268372
8.3037948608 41.1749038696 34.2862854004
8.3210649490 41.2510719299 34.1050491333
8.3426027298 41.3459815979 33.9277038574
8.3699913025 41.4665794373 33.7556953430
8.4020385742 41.6076354980 33.5880126953
8.4352054596 41.7536087036 33.4215087891
8.4663896561 41.8908729553 33.2534027100
8.4950256348 42.0169487000 33.0831642151
8.5221252441 42.1362800598 32.9116897583
8.5479316711 42.2499237061 32.7391891479
8.5713577271 42.3531227112 32.5646591187
8.5914564133 42.4417076111 32.3872108459
8.6085386276 42.5170516968 32.2070999146
8.6239700317 42.5851402283 32.0255661011
8.6395378113 42.6538314819 31.8442363739
8.6569404602 42.7305793762 31.6646919250
8.6770877838 42.8193778992 31.4877910614
8.6994733810 42.9180030823 31.3130855560
8.7222805023 43.0184822083 31.1388969421
8.7432203293 43.1107597351 30.9630813599
8.7604684830 43.1868247986 30.7839069366
8.7732725143 43.2433815002 30.6006336212
8.7820739746 43.2823562622 30.4136390686
8.7881145477 43.3092079163 30.2240695953
8.7928056717 43.3301391602 30.0332469940
8.7973575592 43.3504562378 29.8423118591
8.8028402328 43.3748588562 29.6522884369
8.8104820251 43.4087448120 29.4643650055
8.8217964172 43.4587516785 29.2800178528
8.8382253647 43.5312232971 29.1006717682
8.8603143692 43.6285476685 28.9268970490
8.8870105743 43.7460975647 28.7577209473
8.9159011841 43.8732833862 28.5908298492
8.9446220398 43.9997291565 28.4239311218
8.9724740982 44.1223564148 28.2563400269
9.0005159378 44.2458152771 28.0890865326
9.0295391083 44.3735847473 27.9229545593
9.0580196381 44.4989700317 27.7564468384
9.0828104019 44.6081581116 27.5864372253
9.1020374298 44.6929092407 27.4110298157
9.1168642044 44.7583427429 27.2313404083
9.1305360794 44.8187026978 27.0505733490
9.1461019516 44.8873786926 26.8717784882
9.1647195816 44.9694557190 26.6961364746
9.1854124069 45.0606422424 26.5226879120
9.2062540054 45.1524848938 26.3495044708
9.2257871628 45.2385864258 26.1751060486
9.2432994843 45.3158073425 25.9987583160
9.2581691742 45.3814277649 25.8198089600
9.2697706223 45.4326934814 25.6375961304
9.2782363892 45.4701957703 25.4522304535
9.2849626541 45.5000572205 25.2651176453
9.2921752930 45.5320549011 25.0785408020
9.3021316528 45.5760955811 24.8948364258
9.3165664673 45.6398048401 24.7158279419
9.3363275528 45.7269020081 24.5424346924
9.3609771729 45.8354644775 24.3742446899
9.3886480331 45.9572906494 24.2093467712
9.4165410995 46.0800933838 24.0448360443
9.4419012070 46.1917724609 23.8778152466
9.4628171921 46.2839431763 23.7062511444
9.4785003662 46.3531303406 23.5292701721
9.4892129898 46.4004898071 23.3471069336
9.4960956573 46.4310379028 23.1609306335
9.5008611679 46.4522895813 22.9725341797
9.5054063797 46.4725723267 22.7839241028
9.5115489960 46.4998703003 22.5970458984
9.5208501816 46.5410385132 22.4135894775
9.5342321396 46.6001205444 22.2345733643
9.5515193939 46.6763534546 22.0598430634
9.5714673996 46.7642669678 21.8880882263
9.5923671722 46.8563613892 21.7174720764
9.6126117706 46.9455795288 21.5462589264
9.6308116913 47.0258140564 21.3729248047
9.6458196640 47.0920372009 21.1961975098
9.6570482254 47.1416664124 21.0154075623
9.6648712158 47.1763420105 20.8309345245
9.6707057953 47.2022857666 20.6443080902
9.6767148972 47.2289924622 20.4579029083
9.6852636337 47.2668533325 20.2743415833
9.6982078552 47.3240127563 20.0957031250
9.7163219452 47.4038772583 19.9228916168
9.7393751144 47.5054244995 19.7556915283
9.7666587830 47.6255455017 19.5933513641
9.7970962524 47.7595138550 19.4346981049
9.8287649155 47.8988914490 19.2775993347
9.8588685989 48.0313911438 19.1189098358
9.8846807480 48.1450538635 18.9555358887
9.9045467377 48.2326049805 18.7855644226
9.9179992676 48.2919960022 18.6084156036
9.9253196716 48.3244628906 18.4243526459
9.9271821976 48.3329620361 18.2340965271
9.9244184494 48.3211517334 18.0385494232
9.9179487228 48.2930679321 17.8387317657
9.9090871811 48.2544822693 17.6361198425
9.8998851776 48.2144050598 17.4330615997
9.8928079605 48.1836547852 17.2324008942
9.8899631500 48.1714897156 17.0366020203
9.8927698135 48.1841354370 16.8473453522
9.9021062851 48.2254524231 16.6657047272
9.9180870056 48.2959442139 16.4918670654
9.9393682480 48.3897094727 16.3243179321
9.9629669189 48.4936485291 16.1596050262
9.9852657318 48.5918769836 15.9934892654
10.0036468506 48.6729087830 15.8228807449
10.0176181793 48.7345771790 15.6471605301
10.0286550522 48.7833557129 15.4680395126
10.0390501022 48.8293228149 15.2882156372
10.0508499146 48.8814582825 15.1101169586
10.0656585693 48.9468002319 14.9356698990
10.0848579407 49.0314216614 14.7665510178
10.1092634201 49.1389007568 14.6037769318
10.1383209229 49.2668037415 14.4467239380
10.1699590683 49.4060401917 14.2929391861
10.2014408112 49.5445899963 14.1391401291
10.2302999496 49.6716232300 13.9823436737
10.2547502518 49.7792968750 13.8203582764
10.2738227844 49.8633613586 13.6519708633
10.2875022888 49.9237442017 13.4771175385
10.2966642380 49.9642906189 13.2968187332
10.3026790619 49.9910240173 13.1127157211
10.3069276810 50.0100021362 12.9264755249
10.3105630875 50.0262832642 12.7395009995
10.3146438599 50.0445251465 12.5530910492
10.3204097748 50.0701637268 12.3687820435
10.3293142319 50.1095809937 12.1883859634
10.3425035477 50.1678123474 12.0133543015
10.3599996567 50.2449531555 11.8437490463
10.3803043365 50.3344230652 11.6777410507
10.4009227753 50.4252738953 11.5122356415
10.4193773270 50.5066223145 11.3441324234
10.4339656830 50.5709915161 11.1712751389
10.4440422058 50.6155586243 10.9928216934
10.4500207901 50.6421279907 10.8092527390
10.4531211853 50.6560630798 10.6220750809
10.4549188614 50.6642799377 10.4332628250
10.4569778442 50.6736412048 10.2447862625
10.4607591629 50.6905670166 10.0585079193
10.4677133560 50.7214202881 9.8762922287
10.4792165756 50.7722434998 9.6999244690
10.4961099625 50.8467407227 9.5305213928
10.5179815292 50.9430885315 9.3675994873
10.5427742004 51.0522613525 9.2085542679
10.5672969818 51.1602516174 9.0492982864
10.5884790421 51.2535743713 8.8858604431
10.6045637131 51.3245162964 8.7159366608
10.6154813766 51.3727645874 8.5393924713
10.6223306656 51.4031600952 8.3576164246
10.6265878677 51.4221763611 8.1724958420
10.6296586990 51.4359779358 7.9858441353
10.6328382492 51.4502563477 7.7993469238
10.6372776031 51.4700698853 7.6145167351
10.6437292099 51.4987144470 7.4323530197
10.6522884369 51.5366172791 7.2529978752
10.6624612808 51.5816040039 7.0758190155
10.6734580994 51.6302032471 6.8997821808
10.6844797134 51.6789131165 6.7238368988
10.6950120926 51.7254753113 6.5472989082
10.7049674988 51.7695045471 6.3700470924
10.7143440247 51.8109931946 6.1920752525
10.7226476669 51.8477706909 6.0127177238
10.7288141251 51.8751678467 5.8305377960
10.7317781448 51.8884963989 5.6440849304
10.7311077118 51.8858757019 5.4527544975
10.7272853851 51.8694152832 5.2571616173
10.7214965820 51.8443183899 5.0588850975
10.7149591446 51.8159408569 4.8595581055
10.7082347870 51.7867355347 4.6599340439
10.7013435364 51.7568054199 4.4600410461
10.6947994232 51.7283935547 4.2605776787
10.6904869080 51.7097778320 4.0641193390
10.6913299561 51.7138023376 3.8746900558
10.6999168396 51.7518234253 3.6958825588
10.7171964645 51.8280067444 3.5290672779
10.7420721054 51.9375419617 3.3728072643
10.7718400955 52.0685539246 3.2234373093
10.8030719757 52.2059936523 3.0762553215
10.8325548172 52.3357543945 2.9268229008
10.8580150604 52.4478530884 2.7719674110
10.8784255981 52.5377845764 2.6102252007
10.8939304352 52.6061744690 2.4417536259
10.9055194855 52.6573753357 2.2678945065
10.9145183563 52.6972045898 2.0904698372
10.9219923019 52.7303352356 1.9109517336
10.9284324646 52.7589302063 1.7300196886
10.9341049194 52.7841529846 1.5480378866
10.9397678375 52.8093338013 1.3660691977
10.9470090866 52.8414459229 1.1863610744
10.9577608109 52.8889694214 1.0116645098
10.9732704163 52.9573822021 0.8437803984
10.9932193756 53.0452842712 0.6822961569
11.0156459808 53.1440620422 0.5244526863
11.0377788544 53.2415504456 0.3663129807
11.0571842194 53.3270645142 0.2043891251
11.0725145340 53.3946876526 0.0367274918
-38.4990577698 34.2414855957 79.0998306274
-38.5027885437 34.2444992065 78.9084243774
-38.5110092163 34.2516593933 78.7172775269
-38.5219535828 34.2613334656 78.5263061523
-38.5339088440 34.2719459534 78.3354110718
-38.5467147827 34.2833442688 78.1445846558
-38.5612106323 34.2963066101 77.9538803101
-38.5758476257 34.3093948364 77.7631988525
-38.5842552185 34.3167304993 77.5721282959
-38.5783119202 34.3108024597 77.3801345825
-38.5545196533 34.2883796692 77.1869430542
-38.5175781250 34.2538032532 76.9928283691
-38.4782409668 34.2170143127 76.7984771729
-38.4475364685 34.1882019043 76.6046524048
-38.4312744141 34.1727371216 76.4117813110
-38.4286155701 34.1698417664 76.2198257446
-38.4348373413 34.1751556396 76.0284957886
-38.4450187683 34.1841278076 75.8374557495
-38.4558334351 34.1936874390 75.6464691162
-38.4655838013 34.2022628784 75.4554214478
-38.4738006592 34.2094192505 75.2642669678
-38.4811782837 34.2158012390 75.0730514526
-38.4900283813 34.2235450745 74.8819656372
-38.5047111511 34.2366752625 74.6913299561
-38.5307235718 34.2602806091 74.5015869141
-38.5717315674 34.2977409363 74.3130645752
-38.6261901855 34.3476371765 74.1256637573
-38.6866645813 34.4030876160 73.9388351440
-38.7429924011 34.4547080994 73.7517547607
-38.7871475220 34.4950828552 73.5637741089
-38.8164024353 34.5216789246 73.3746261597
-38.8328094482 34.5364112854 73.1844482422
-38.8402671814 34.5428657532 72.9935455322
-38.8419151306 34.5439529419 72.8021469116
-38.8394165039 34.5412101746 72.6103973389
-38.8332939148 34.5351104736 72.4183197021
-38.8227767944 34.5249595642 72.2258453369
-38.8049011230 34.5079994202 72.0326995850
-38.7742919922 34.4792747498 71.8383789063
-38.7264289856 34.4346046448 71.6424560547
-38.6639213562 34.3763961792 71.4451293945
-38.5992927551 34.3162307739 71.2474899292
-38.5480957031 34.2684783936 71.0509872437
-38.5174865723 34.2397537231 70.8563079834
-38.5023155212 34.2252960205 70.6630249023
-38.4917793274 34.2151222229 70.4701461792
-38.4782524109 34.2021827698 70.2769622803
-38.4606437683 34.1854705811 70.0833587646
-38.4421081543 34.1679039001 69.8896331787
-38.4261550903 34.1527252197 69.6961212158
-38.4144020081 34.1414260864 69.5029907227
-38.4066619873 34.1338310242 69.3102340698
-38.4020652771 34.1291503906 69.1177749634
-38.3998260498 34.1266403198 68.9255447388
-38.3993148804 34.1257324219 68.7334823608
-38.3999176025 34.1258506775 68.5415267944
-38.4009590149 34.1263771057 68.3496093750
-38.4018211365 34.1267356873 68.1576690674
-38.4021263123 34.1265830994 67.9656677246
-38.4020271301 34.1260566711 67.7736206055
-38.4027175903 34.1262550354 67.5816497803
-38.4073066711 34.1300621033 67.3900985718
-38.4215965271 34.1428298950 67.1995925903
-38.4529647827 34.1713829041 67.0109786987
-38.5063362122 34.2202758789 66.8248367310
-38.5795326233 34.2874908447 66.6409759521
-38.6626129150 34.3638420105 66.4583282471
-38.7424049377 34.4371528625 66.2754440308
-38.8081932068 34.4975204468 66.0910949707
-38.8548545837 34.5402145386 65.9046630859
-38.8828506470 34.5656509399 65.7161560059
-38.8958625793 34.5772399902 65.5259475708
-38.8973960876 34.5782241821 65.3344116211
-38.8887710571 34.5698165894 65.1416854858
-38.8698043823 34.5518493652 64.9477157593
-38.8407402039 34.5245475769 64.7525024414
-38.8026618958 34.4889183044 64.5561523438
-38.7568206787 34.4461097717 64.3588027954
-38.7058181763 34.3985328674 64.1607437134
-38.6551246643 34.3512458801 63.9626350403
-38.6096763611 34.3087997437 63.7650794983
-38.5677528381 34.2696151733 63.5678863525
-38.5225791931 34.2274246216 63.3702087402
-38.4720230103 34.1802558899 63.1717796326
-38.4229469299 34.1344604492 62.9734458923
-38.3842048645 34.0982131958 62.7763442993
-38.3585472107 34.0740585327 62.5808486938
-38.3426246643 34.0589065552 62.3865623474
-38.3317718506 34.0484390259 62.1929016113
-38.3231239319 34.0400085449 61.9995079041
-38.3157920837 34.0327911377 61.8062629700
-38.3101501465 34.0271415710 61.6132278442
-38.3075218201 34.0242729187 61.4205741882
-38.3100929260 34.0262107849 61.2286109924
-38.3198928833 34.0348320007 61.0376167297
-38.3357849121 34.0490837097 60.8474578857
-38.3508338928 34.0625534058 60.6572074890
-38.3550834656 34.0660438538 60.4654922485
-38.3436851501 34.0550727844 60.2716217041
-38.3216285706 34.0342483521 60.0762481689
-38.2990036011 34.0128974915 59.8807525635
-38.2829093933 33.9975852966 59.6861305237
-38.2747840881 33.9896354675 59.4926033020
-38.2730369568 33.9875831604 59.2999649048
-38.2758369446 33.9897346497 59.1079635620
-38.2817268372 33.9947395325 58.9164047241
-38.2891921997 34.0012016296 58.7250785828
-38.2964630127 34.0074844360 58.5337295532
-38.3017578125 34.0119400024 58.3421020508
-38.3038406372 34.0134277344 58.1500015259
-38.3024520874 34.0117073059 57.9573860168
-38.2986755371 34.0077819824 57.7644081116
-38.2953567505 34.0042724609 57.5714874268
-38.2977066040 34.0060081482 57.3794097900
-38.3131561279 34.0198516846 57.1893043518
-38.3485565186 34.0521354675 57.0022468567
-38.4048995972 34.1037788391 56.8184394836
-38.4735565186 34.1668014526 56.6366043091
-38.5382461548 34.2261581421 56.4542655945
-38.5816001892 34.2657966614 56.2687187195
-38.5920715332 34.2750396729 56.0781097412
-38.5687942505 34.2530860901 55.8822288513
-38.5235557556 34.2108306885 55.6828422546
-38.4774932861 34.1678161621 55.4832458496
-38.4513664246 34.1432266235 55.2867393494
-38.4550704956 34.1462135315 55.0949592590
-38.4854888916 34.1738929749 54.9074707031
-38.5328445435 34.2172317505 54.7227630615
-38.5880126953 34.2677879333 54.5393981934
-38.6468124390 34.3217048645 54.3567085266
-38.7113265991 34.3809013367 54.1750488281
-38.7872161865 34.4506111145 53.9953613281
-38.8766136169 34.5328140259 53.8180313110
-38.9711074829 34.6197204590 53.6416893005
-39.0506515503 34.6928138733 53.4629974365
-39.0910758972 34.7297439575 53.2778511047
-39.0772056580 34.7164878845 53.0835952759
-39.0138435364 34.6574783325 52.8809051514
-38.9257202148 34.5755805969 52.6738853455
-38.8438758850 34.4994888306 52.4677925110
-38.7887115479 34.4480590820 52.2661552429
-38.7644195557 34.4251670837 52.0697631836
-38.7675437927 34.4276161194 51.8780899048
-38.7975463867 34.4549140930 51.6911125183
-38.8573989868 34.5098037720 51.5094146729
-38.9442749023 34.5896759033 51.3325691223
-39.0425415039 34.6800727844 51.1578826904
-39.1297531128 34.7602577209 50.9813804626
-39.1905975342 34.8160629272 50.8003044128
-39.2237205505 34.8462486267 50.6143455505
-39.2363471985 34.8574829102 50.4247360229
-39.2357788086 34.8565216064 50.2327499390
-39.2270355225 34.8480033875 50.0392723083
-39.2159767151 34.8373413086 49.8453521729
-39.2109642029 34.8322715759 49.6525154114
-39.2187423706 34.8390235901 49.4620246887
-39.2387084961 34.8570442200 49.2737998962
-39.2631454468 34.8791999817 49.0864334106
-39.2836189270 34.8976860046 48.8983612061
-39.2962265015 34.9089050293 48.7088394165
-39.3012580872 34.9131202698 48.5179061890
-39.2998428345 34.9113769531 48.3257522583
-39.2919883728 34.9036788940 48.1323661804
-39.2782402039 34.8905334473 47.9378356934
-39.2640533447 34.8769798279 47.7431945801
-39.2623558044 34.8749732971 47.5509300232
-39.2886199951 34.8988151550 47.3640632629
-39.3487777710 34.9539947510 47.1838188171
-39.4305648804 35.0291633606 47.0078887939
-39.5091476440 35.1013717651 46.8314590454
-39.5641975403 35.1518249512 46.6505203247
-39.5922012329 35.1772766113 46.4643249512
-39.6034698486 35.1872596741 46.2748489380
-39.6104660034 35.1932907104 46.0845375061
-39.6210021973 35.2025947571 45.8949356079
-39.6398773193 35.2196083069 45.7070236206
-39.6720809937 35.2489433289 45.5218238831
-39.7211685181 35.2938842773 45.3400878906
-39.7850952148 35.3525466919 45.1614418030
-39.8561210632 35.4177742004 44.9843444824
-39.9257545471 35.4817085266 44.8070716858
-39.9884147644 35.5391998291 44.6284713745
-40.0400314331 35.5864830017 44.4476890564
-40.0761299133 35.6194190979 44.2637672424
-40.0941162109 35.6356124878 44.0761299133
-40.0971450806 35.6379776001 43.8853912354
-40.0932693481 35.6339569092 43.6931991577
-40.0888252258 35.6294136047 43.5008773804
-40.0832672119 35.6238403320 43.3083076477
-40.0727310181 35.6136627197 43.1146659851
-40.0588798523 35.6004219055 42.9202957153
-40.0520248413 35.5936508179 42.7273941040
-40.0649299622 35.6051445007 42.5387191772
-40.1043968201 35.6411972046 42.3557815552
-40.1677169800 35.6992988586 42.1780624390
-40.2444000244 35.7697563171 42.0033454895
-40.3201637268 35.8393630981 41.8285484314
-40.3812637329 35.8954162598 41.6506576538
-40.4191360474 35.9299926758 41.4677619934
-40.4337921143 35.9431076050 41.2798080444
-40.4329528809 35.9418983459 41.0884399414
-40.4269485474 35.9359092712 40.8959197998
-40.4242286682 35.9329605103 40.7041168213
-40.4306221008 35.9384384155 40.5143432617
-40.4497795105 35.9557113647 40.3274383545
-40.4818687439 35.9849433899 40.1434707642
-40.5225257874 36.0220985413 39.9614906311
-40.5655364990 36.0614280701 39.7801055908
-40.6077156067 36.0999870300 39.5985946655
-40.6502151489 36.1388435364 39.4172248840
-40.6944007874 36.1792602539 39.2363014221
-40.7374610901 36.2186317444 39.0551834106
-40.7732810974 36.2513198853 38.8724632263
-40.7972297668 36.2730216980 38.6870384216
-40.8091430664 36.2836036682 38.4988479614
-40.8122711182 36.2860603333 38.3086204529
-40.8106613159 36.2841377258 38.1172828674
-40.8076210022 36.2808914185 37.9255981445
-40.8054885864 36.2784881592 37.7341194153
-40.8057861328 36.2783279419 37.5432052612
-40.8094024658 36.2812347412 37.3530731201
-40.8168830872 36.2877159119 37.1638641357
-40.8288917542 36.2983856201 36.9757461548
-40.8463821411 36.3141174316 36.7889595032
-40.8698539734 36.3353881836 36.6036338806
-40.8982505798 36.3612060547 36.4195327759
-40.9290161133 36.3892135620 36.2360458374
-40.9595184326 36.4169845581 36.0525398254
-40.9878234863 36.4427185059 35.8685417175
-41.0125350952 36.4651298523 35.6837043762
-41.0336151123 36.4841842651 35.4980087280
-41.0539169312 36.5025215149 35.3121490479
-41.0790252686 36.5253028870 35.1275100708
-41.1142234802 36.5574073792 34.9454078674
-41.1603927612 36.5996589661 34.7660903931
-41.2124328613 36.6473388672 34.5883102417
-41.2625045776 36.6932029724 34.4101181030
-41.3057060242 36.7327117920 34.2302742004
-41.3427314758 36.7665100098 34.0489349365
-41.3771591187 36.7979087830 33.8669929504
-41.4109153748 36.8286819458 33.6849327087
-41.4433135986 36.8582038879 33.5025749207
-41.4748458862 36.8869247437 33.3200454712
-41.5095520020 36.9185791016 33.1383743286
-41.5509071350 36.9563827515 32.9584617615
-41.5963287354 36.9979438782 32.7796630859
-41.6385917664 37.0365867615 32.6001167297
-41.6724777222 37.0674858093 32.4184608459
-41.6980857849 37.0907287598 32.2346916199
-41.7183265686 37.1090087891 32.0495605469
-41.7353096008 37.1242790222 31.8636016846
-41.7491607666 37.1366500854 31.6768398285
-41.7590637207 37.1453742981 31.4890556335
-41.7649345398 37.1503715515 31.3002147675
-41.7688217163 37.1535301208 31.1108493805
-41.7753028870 37.1590881348 30.9221763611
-41.7900695801 37.1723098755 30.7357215881
-41.8170013428 37.1967773438 30.5525436401
-41.8561019897 37.2324981689 30.3726768494
-41.9041213989 37.2764625549 30.1952705383
-41.9563331604 37.3243064880 30.0190715790
-42.0073966980 37.3710861206 29.8426418304
-42.0521621704 37.4120445251 29.6645755768
-42.0875625610 37.4443435669 29.4840221405
-42.1136550903 37.4680366516 29.3009738922
-42.1324043274 37.4849395752 29.1159477234
-42.1457595825 37.4968566895 28.9294624329
-42.1549263000 37.5048980713 28.7418346405
-42.1607017517 37.5098037720 28.5532779694
-42.1639595032 37.5123863220 28.3640270233
-42.1658515930 37.5137023926 28.1743946075
-42.1679191589 37.5151824951 27.9848079681
-42.1723785400 37.5188713074 27.7958908081
-42.1822280884 37.5275459290 27.6084880829
-42.2002220154 37.5437507629 27.4233932495
-42.2265815735 37.5676918030 27.2406864166
-42.2575950623 37.5959358215 27.0593376160
-42.2873611450 37.6230239868 26.8776779175
-42.3115158081 37.6449279785 26.6944618225
-42.3292007446 37.6608505249 26.5094299316
-42.3419342041 37.6721878052 26.3229999542
-42.3515777588 37.6806716919 26.1356983185
-42.3595809937 37.6876411438 25.9479331970
-42.3675193787 37.6945495605 25.7601566315
-42.3778991699 37.7037124634 25.5730953217
-42.3942108154 37.7183647156 25.3877716064
-42.4194831848 37.7412986755 25.2050819397
-42.4537429810 37.7725486755 25.0250587463
-42.4928321838 37.8082580566 24.8465003967
-42.5307273865 37.8428649902 24.6676502228
-42.5639495850 37.8731536865 24.4874782562
-42.5937042236 37.9002342224 24.3063297272
-42.6236190796 37.9274635315 24.1252727509
-42.6553306580 37.9563522339 23.9447917938
-42.6861648560 37.9844322205 23.7640972137
-42.7111740112 38.0071296692 23.5817050934
-42.7273406982 38.0216445923 23.3966960907
-42.7356452942 38.0288925171 23.2093429565
-42.7398185730 38.0323181152 23.0207538605
-42.7441215515 38.0358657837 22.8322029114
-42.7524261475 38.0431098938 22.6448669434
-42.7682876587 38.0573501587 22.4598388672
-42.7942047119 38.0808792114 22.2778930664
-42.8294792175 38.1130676270 22.0988464355
-42.8689041138 38.1490898132 21.9211235046
-42.9046745300 38.1817359924 21.7423362732
-42.9305725098 38.2052536011 21.5605621338
-42.9445304871 38.2177276611 21.3751335144
-42.9480361938 38.2205390930 21.1864852905
-42.9441909790 38.2165489197 20.9955558777
-42.9364776611 38.2089843750 20.8034076691
-42.9283638000 38.2010498047 20.6111183167
-42.9230499268 38.1957054138 20.4196853638
-42.9229164124 38.1951484680 20.2298641205
-42.9289054871 38.2002563477 20.0419616699
-42.9402122498 38.2102775574 19.8557434082
-42.9545783997 38.2231292725 19.6705055237
-42.9689598083 38.2359962463 19.4852905273
-42.9803352356 38.2460861206 19.2991371155
-42.9865608215 38.2514114380 19.1113548279
-42.9869728088 38.2513580322 18.9217205048
-42.9823493958 38.2466506958 18.7304668427
-42.9744148254 38.2388839722 18.5381374359
-42.9652862549 38.2300071716 18.3454017639
-42.9570617676 38.2219734192 18.1529407501
-42.9515419006 38.2164382935 17.9613342285
-42.9499359131 38.2145195007 17.7709827423
-42.9527587891 38.2166976929 17.5820655823
-42.9599876404 38.2229537964 17.3945846558
-42.9714088440 38.2330780029 17.2084789276
-42.9871063232 38.2471656799 17.0237884521
-43.0078010559 38.2658691406 16.8407611847
-43.0340423584 38.2897033691 16.6595897675
-43.0641212463 38.3170852661 16.4797229767
-43.0926666260 38.3430557251 16.2993927002
-43.1122131348 38.3606948853 16.1161155701
-43.1169738770 38.3646697998 15.9279470444
-43.1061096191 38.3541908264 15.7345666885
-43.0851211548 38.3343467712 15.5377779007
-43.0650138855 38.3153190613 15.3412446976
-43.0580711365 38.3084678650 15.1490974426
-43.0715789795 38.3205299377 14.9638204575
-43.1046714783 38.3507003784 14.7851734161
-43.1512107849 38.3933067322 14.6111278534
-43.2048950195 38.4425163269 14.4395761490
-43.2613677979 38.4943122864 14.2690572739
-43.3173522949 38.5456504822 14.0984582901
-43.3694877625 38.5934371948 13.9266300201
-43.4136619568 38.6338577271 13.7521553040
-43.4449920654 38.6623992920 13.5733346939
-43.4599723816 38.6758193970 13.3889322281
-43.4597702026 38.6752014160 13.1993093491
-43.4506530762 38.6663398743 13.0065984726
-43.4405136108 38.6565322876 12.8135108948
-43.4351463318 38.6511344910 12.6220598221
-43.4373168945 38.6527099609 12.4332199097
-43.4477539063 38.6619338989 12.2472658157
-43.4658927917 38.6782722473 12.0640163422
-43.4895668030 38.6997337341 11.8827342987
-43.5147361755 38.7225837708 11.7020130157
-43.5363731384 38.7421607971 11.5200805664
-43.5501251221 38.7544479370 11.3353929520
-43.5531272888 38.7567901611 11.1469144821
-43.5436019897 38.7475509644 10.9539909363
-43.5210685730 38.7262840271 10.7564172745
-43.4880561829 38.6953201294 10.5550642014
-43.4512214661 38.6608238220 10.3522853851
-43.4192199707 38.6307945251 10.1511707306
-43.3986587524 38.6113471985 9.9541053772
-43.3921813965 38.6049270630 9.7620706558
-43.3997840881 38.6115264893 9.5750980377
-43.4202575684 38.6300277710 9.3927841187
-43.4504051208 38.6574783325 9.2140026093
-43.4839706421 38.6880874634 9.0365085602
-43.5132637024 38.7147483826 8.8575086594
-43.5327758789 38.7323608398 8.6749820709
-43.5410881042 38.7396202087 8.4883880615
-43.5397758484 38.7379722595 8.2982740402
-43.5313987732 38.7297935486 8.1055583954
-43.5189476013 38.7178459167 7.9113230705
-43.5065116882 38.7059135437 7.7170677185
-43.4991340637 38.6986579895 7.5246558189
-43.5005836487 38.6995697021 7.3354978561
-43.5108032227 38.7085876465 7.1495933533
-43.5259513855 38.7221641541 6.9655342102
-43.5411796570 38.7358169556 6.7815251350
-43.5531883240 38.7464904785 6.5963311195
-43.5606422424 38.7529525757 6.4094443321
-43.5633316040 38.7550086975 6.2207756042
-43.5615234375 38.7529067993 6.0304131508
-43.5559005737 38.7472763062 5.8386044502
-43.5477447510 38.7393035889 5.6458230019
-43.5389518738 38.7307357788 5.4527792931
-43.5317802429 38.7236709595 5.2603321075
-43.5284614563 38.7201690674 5.0693330765
-43.5309753418 38.7220611572 4.8805470467
-43.5410194397 38.7309226990 4.6946372986
-43.5596351624 38.7477073669 4.5120191574
-43.5860176086 38.7716751099 4.3324084282
-43.6165428162 38.7994728088 4.1544256210
-43.6456375122 38.8259544373 3.9759387970
-43.6687164307 38.8468666077 3.7951695919
-43.6846046448 38.8611297607 3.6116502285
-43.6955757141 38.8708457947 3.4262440205
-43.7056159973 38.8796997070 3.2404880524
-43.7188224792 38.8914794922 3.0559766293
-43.7385673523 38.9093132019 2.8740341663
-43.7670822144 38.9352531433 2.6955475807
-43.8055305481 38.9703826904 2.5209958553
-43.8546600342 39.0153884888 2.3506975174
-43.9147949219 39.0705757141 2.1848063469
-43.9843025208 39.1344337463 2.0227065086
-44.0581588745 39.2023086548 1.8624322414
-44.1288757324 39.2672882080 1.7010324001
-44.1896591187 39.3230743408 1.5358002186
-44.2374382019 39.3668327332 1.3654887676
-44.2744483948 39.4006347656 1.1909604073
-44.3082427979 39.4314613342 1.0152026415
-44.3497200012 39.4693908691 0.8425686955
-44.4088020325 39.5236091614 0.6770588160
-44.4893341064 39.5976600647 0.5202581882
-44.5867843628 39.6873664856 0.3703991473
-44.6910896301 39.7834053040 0.2234586179
-44.7919235229 39.8762435913 0.0752829090
12.1775646210 35.8296813965 80.3415374756
12.1795558929 35.8352737427 80.1438293457
12.1820383072 35.8421859741 79.9461975098
12.1840667725 35.8478775024 79.7484970093
12.1835594177 35.8467178345 79.5504302979
12.1775875092 35.8308105469 79.3515472412
12.1644134521 35.7954597473 79.1515502930
12.1460485458 35.7460937500 78.9507141113
12.1284379959 35.6987686157 78.7499237061
12.1184759140 35.6720848083 78.5502624512
12.1204290390 35.6775741577 78.3524246216
12.1344623566 35.7156677246 78.1565170288
12.1573286057 35.7776107788 77.9620819092
12.1841230392 35.8501586914 77.7683563232
12.2103586197 35.9211959839 77.5746383667
12.2336521149 35.9842910767 77.3805160522
12.2537899017 36.0388679504 77.1859359741
12.2710361481 36.0856361389 76.9909439087
12.2844285965 36.1220054626 76.7953338623
12.2920408249 36.1427650452 76.5987701416
12.2930030823 36.1455764771 76.4010620117
12.2888145447 36.1344833374 76.2024383545
12.2823944092 36.1173667908 76.0033950806
12.2762498856 36.1009902954 75.8043746948
12.2717275620 36.0889968872 75.6056213379
12.2694139481 36.0829658508 75.4072570801
12.2696247101 36.0837440491 75.2093505859
12.2725763321 36.0919265747 75.0119552612
12.2784690857 36.1080474854 74.8151168823
12.2876634598 36.1330795288 74.6189346313
12.3007087708 36.1685104370 74.4235229492
12.3177833557 36.2148170471 74.2289428711
12.3375616074 36.2684211731 74.0349502563
12.3567533493 36.3204421997 73.8409042358
12.3714685440 36.3603820801 73.6460266113
12.3795270920 36.3823471069 73.4498443604
12.3814935684 36.3878669739 73.2524490356
12.3797082901 36.3832626343 73.0542831421
12.3766708374 36.3752746582 72.8558425903
12.3741016388 36.3685531616 72.6574859619
12.3728113174 36.3652839661 72.4593811035
12.3728990555 36.3657341003 72.2615661621
12.3739423752 36.3687591553 72.0639495850
12.3751344681 36.3721923828 71.8663635254
12.3753728867 36.3730468750 71.6685714722
12.3732900620 36.3676376343 71.4702606201
12.3674726486 36.3521461487 71.2711029053
12.3573207855 36.3249549866 71.0709533691
12.3444929123 36.2905387878 70.8701629639
12.3334798813 36.2610244751 70.6697235107
12.3295993805 36.2507591248 70.4708862305
12.3352909088 36.2663383484 70.2742385864
12.3481864929 36.3013610840 70.0792846680
12.3630046844 36.3415794373 69.8848266602
12.3752107620 36.3747406006 69.6897964478
12.3829755783 36.3959121704 69.4937438965
12.3865566254 36.4057922363 69.2967147827
12.3867950439 36.4066505432 69.0988845825
12.3842401505 36.3999671936 68.9003677368
12.3792209625 36.3866310120 68.7012252808
12.3726148605 36.3690109253 68.5016708374
12.3665294647 36.3527984619 68.3022232056
12.3636789322 36.3453140259 68.1035537720
12.3654670715 36.3503532410 67.9060440063
12.3708572388 36.3651199341 67.7094573975
12.3774499893 36.3831291199 67.5131912231
12.3833293915 36.3992118835 67.3167572021
12.3875293732 36.4107627869 67.1199035645
12.3890523911 36.4150886536 66.9223556519
12.3856115341 36.4060134888 66.7235031128
12.3735170364 36.3735771179 66.5223388672
12.3500776291 36.3105163574 66.3180923462
12.3182487488 36.2248077393 66.1114959717
12.2891273499 36.1464080811 65.9055175781
12.2769584656 36.1137733459 65.7040481567
12.2887859344 36.1459159851 65.5091171265
12.3188018799 36.2271537781 65.3192520142
12.3536205292 36.3213577271 65.1308212280
12.3824825287 36.3994827271 64.9408416748
12.4022445679 36.4530448914 64.7484054565
12.4149074554 36.4874382019 64.5540161133
12.4230537415 36.5096435547 64.3583831787
12.4276170731 36.5221748352 64.1617431641
12.4279546738 36.5233001709 63.9638977051
12.4228191376 36.5096473694 63.7644538879
12.4117679596 36.4800300598 63.5632591248
12.3968830109 36.4400634766 63.3608894348
12.3833274841 36.4036827087 63.1588592529
12.3771419525 36.3871955872 62.9589653015
12.3812961578 36.3986244202 62.7621459961
12.3936662674 36.4322319031 62.5678100586
12.4090061188 36.4738540649 62.3744163513
12.4227142334 36.5110702515 62.1805763245
12.4328308105 36.5385894775 61.9856758118
12.4394063950 36.5565528870 61.7897186279
12.4429407120 36.5663108826 61.5928306580
12.4433088303 36.5675163269 61.3949661255
12.4393043518 36.5569190979 61.1957206726
12.4290008545 36.5293159485 60.9944686890
12.4117498398 36.4829635620 60.7909660339
12.3911752701 36.4276351929 60.5863342285
12.3754091263 36.3852920532 60.3831710815
12.3718919754 36.3760108948 60.1839027405
12.3810329437 36.4008979797 59.9887275696
12.3961982727 36.4420509338 59.7955474854
12.4099569321 36.4794006348 59.6019554138
12.4191637039 36.5044670105 59.4069061279
12.4246816635 36.5195770264 59.2106590271
12.4284238815 36.5298919678 59.0138359070
12.4314012527 36.5381393433 58.8167648315
12.4334678650 36.5439338684 58.6193885803
12.4338512421 36.5451812744 58.4214477539
12.4319725037 36.5403251648 58.2227287292
12.4283466339 36.5307502747 58.0233993530
12.4249944687 36.5219116211 57.8241462708
12.4247894287 36.5215721130 57.6259689331
12.4299383163 36.5356826782 57.4296493530
12.4406423569 36.5647926331 57.2352867126
12.4549026489 36.6035003662 57.0422096252
12.4696178436 36.6434326172 56.8493423462
12.4821767807 36.6775474548 56.6557540894
12.4913797379 36.7026023865 56.4610099792
12.4972677231 36.7187080383 56.2650985718
12.5004024506 36.7273826599 56.0682144165
12.5012512207 36.7298889160 55.8705062866
12.4998130798 36.7262229919 55.6719589233
12.4955959320 36.7150497437 55.4723892212
12.4882822037 36.6955184937 55.2716560364
12.4789619446 36.6705741882 55.0701484680
12.4705915451 36.6481933594 54.8689575195
12.4664325714 36.6371803284 54.6693038940
12.4674444199 36.6401252747 54.4715690613
12.4714841843 36.6512451172 54.2749786377
12.4756374359 36.6626663208 54.0784378052
12.4797906876 36.6740913391 53.8819084167
12.4879493713 36.6963272095 53.6869239807
12.5052576065 36.7432632446 53.4954757690
12.5327215195 36.8176078796 53.3080101013
12.5649785995 36.9048957825 53.1224975586
12.5941572189 36.9838714600 52.9358978271
12.6158323288 37.0425910950 52.7464599609
12.6308174133 37.0832557678 52.5544624329
12.6422882080 37.1144294739 52.3611259460
12.6526994705 37.1427459717 52.1674041748
12.6631803513 37.1712493896 51.9737434387
12.6744899750 37.2019920349 51.7804489136
12.6877279282 37.2379379272 51.5879631042
12.7038850784 37.2817649841 51.3967018127
12.7226333618 37.3325843811 51.2065467834
12.7420606613 37.3852386475 51.0167312622
12.7609004974 37.4363021851 50.8267402649
12.7814264297 37.4919242859 50.6375045776
12.8087406158 37.5658645630 50.4511451721
12.8456497192 37.6657066345 50.2688598633
12.8885822296 37.7818069458 50.0892143250
12.9294252396 37.8922653198 49.9088439941
12.9608116150 37.9771995544 49.7246398926
12.9792089462 38.0270729065 49.5350608826
12.9846649170 38.0420112610 49.3400535583
12.9799585342 38.0295219421 49.1407318115
12.9701528549 38.0032615662 48.9392089844
12.9612894058 37.9795494080 48.7380523682
12.9580583572 37.9710426331 48.5392837524
12.9620447159 37.9820175171 48.3436279297
12.9715662003 38.0079269409 48.1503868103
12.9828824997 38.0386886597 47.9579582214
12.9921560287 38.0639305115 47.7646713257
12.9972820282 38.0779800415 47.5695877075
12.9986371994 38.0818481445 47.3728485107
12.9983787537 38.0813636780 47.1753959656
12.9988822937 38.0829353333 46.9782714844
13.0018348694 38.0911178589 46.7822456360
13.0088348389 38.1102256775 46.5880393982
13.0227031708 38.1478729248 46.3969573975
13.0476551056 38.2154350281 46.2109375000
13.0870094299 38.3218765259 46.0315551758
13.1392593384 38.4631233215 45.8581962585
13.1962356567 38.6171302795 45.6871871948
13.2465372086 38.7531166077 45.5133094788
13.2819976807 38.8490447998 45.3327484131
13.3014421463 38.9017448425 45.1448860168
13.3093175888 38.9232139587 44.9516983032
13.3117923737 38.9301071167 44.7560119629
13.3138551712 38.9358863831 44.5601387024
13.3191375732 38.9503555298 44.3657798767
13.3312158585 38.9831695557 44.1746520996
13.3534355164 39.0433578491 43.9883728027
13.3866548538 39.1332359314 43.8074150085
13.4276189804 39.2440185547 43.6302719116
13.4701099396 39.3589248657 43.4540061951
13.5079956055 39.4613990784 43.2756690979
13.5377779007 39.5419960022 43.0935440063
13.5590829849 39.5997161865 42.9074096680
13.5734634399 39.6387443542 42.7179718018
13.5829267502 39.6645011902 42.5261726379
13.5891819000 39.6815948486 42.3328323364
13.5935831070 39.6936874390 42.1385917664
13.5972385406 39.7037620544 41.9439964294
13.6010665894 39.7143096924 41.7494964600
13.6059751511 39.7277679443 41.5555419922
13.6133232117 39.7478141785 41.3628196716
13.6254110336 39.7806510925 41.1724967957
13.6449317932 39.8335533142 40.9859542847
13.6726875305 39.9086837769 40.8036422729
13.7049646378 39.9960174561 40.6237144470
13.7338504791 40.0741996765 40.4421768188
13.7517271042 40.1226615906 40.2551116943
13.7565584183 40.1359138489 40.0614204407
13.7532167435 40.1271057129 39.8635406494
13.7500848770 40.1188621521 39.6657485962
13.7544908524 40.1309661865 39.4718475342
13.7703971863 40.1741104126 39.2839317322
13.7982597351 40.2495269775 39.1023101807
13.8354730606 40.3501853943 38.9256744385
13.8770952225 40.4627418518 38.7514877319
13.9174051285 40.5717582703 38.5767517090
13.9519777298 40.6652870178 38.3991241455
13.9790630341 40.7386054993 38.2176437378
13.9993562698 40.7935905457 38.0326385498
14.0146064758 40.8349647522 37.8450088501
14.0263929367 40.8669891357 37.6555709839
14.0359382629 40.8929634094 37.4649658203
14.0447406769 40.9169311523 37.2739906311
14.0552940369 40.9456291199 37.0839881897
14.0711336136 40.9885902405 36.8968925476
14.0957403183 41.0552177429 36.7146301270
14.1305789948 41.1494674683 36.5380439758
14.1736001968 41.2657966614 36.3660697937
14.2195329666 41.3899879456 36.1958503723
14.2618227005 41.5043449402 36.0237808228
14.2948989868 41.5938301086 35.8467521667
14.3159179688 41.6507759094 35.6631355286
14.3256721497 41.6773147583 35.4733085632
14.3281269073 41.6841468811 35.2794227600
14.3287725449 41.6861000061 35.0845298767
14.3328714371 41.6973762512 34.8915786743
14.3441400528 41.7280044556 34.7026863098
14.3638401031 41.7813873291 34.5186080933
14.3907499313 41.8542289734 34.3386993408
14.4219884872 41.9387550354 34.1613502502
14.4539470673 42.0252227783 33.9845199585
14.4833393097 42.1047668457 33.8063278198
14.5085840225 42.1731185913 33.6258506775
14.5303707123 42.2321319580 33.4434623718
14.5505142212 42.2867126465 33.2601928711
14.5700759888 42.3397216797 33.0766563416
14.5886049271 42.3899421692 32.8925819397
14.6051540375 42.4348182678 32.7074127197
14.6201009750 42.4753723145 32.5213584900
14.6360092163 42.5185203552 32.3359184265
14.6563854218 42.5737266541 32.1531677246
14.6828889847 42.6454734802 31.9741153717
14.7134952545 42.7282943726 31.7975902557
14.7438287735 42.8103790283 31.6210079193
14.7706232071 42.8829078674 31.4424171448
14.7938575745 42.9458274841 31.2617835999
14.8160753250 43.0060043335 31.0806179047
14.8404989243 43.0721359253 30.9008598328
14.8695964813 43.1508827209 30.7240104675
14.9039831161 43.2439041138 30.5504703522
14.9413719177 43.3450279236 30.3788757324
14.9769515991 43.4412727356 30.2063083649
15.0063676834 43.5208778381 30.0300922394
15.0291357040 43.5825386047 29.8498954773
15.0486850739 43.6355133057 29.6677970886
15.0688428879 43.6901283264 29.4861373901
15.0908603668 43.7497634888 29.3057003021
15.1139593124 43.8123207092 29.1260089874
15.1377744675 43.8768081665 28.9468421936
15.1633005142 43.9459114075 28.7688255310
15.1915197372 44.0222854614 28.5925827026
15.2216901779 44.1039276123 28.4176654816
15.2513113022 44.1840858459 28.2425041199
15.2777061462 44.2555351257 28.0654087067
15.2996330261 44.3149261475 27.8855705261
15.3176126480 44.3636627197 27.7032985687
15.3329210281 44.4051895142 27.5193843842
15.3464174271 44.4418258667 27.3343620300
15.3584413528 44.4744873047 27.1484413147
15.3696775436 44.5050239563 26.9620513916
15.3818197250 44.5380020142 26.7762813568
15.3973531723 44.5801353455 26.5927429199
15.4185323715 44.6375083923 26.4129161835
15.4461145401 44.7121620178 26.2373237610
15.4787502289 44.8004570007 26.0651206970
15.5135726929 44.8946533203 25.8944587708
15.5472574234 44.9857788086 25.7231731415
15.5766782761 45.0653953552 25.5492038727
15.5995883942 45.1274375916 25.3710422516
15.6156282425 45.1709365845 25.1884193420
15.6266775131 45.2009658813 25.0025424957
15.6359643936 45.2262382507 24.8155288696
15.6468324661 45.2557792664 24.6295986176
15.6620407104 45.2970352173 24.4466018677
15.6833000183 45.3546218872 24.2677097321
15.7106676102 45.4286956787 24.0929927826
15.7423257828 45.5143508911 23.9212627411
15.7753171921 45.6036033630 23.7505397797
15.8065443039 45.6880950928 23.5787391663
15.8332681656 45.7604293823 23.4039878845
15.8535346985 45.8153343201 23.2249317169
15.8669242859 45.8516845703 23.0412502289
15.8748254776 45.8732147217 22.8538551331
15.8796482086 45.8864364624 22.6643714905
15.8837537766 45.8977279663 22.4744071960
15.8889932632 45.9120788574 22.2852363586
15.8968935013 45.9336051941 22.0979175568
15.9089918137 45.9664688110 21.9135360718
15.9267463684 46.0145950317 21.7331256866
15.9508113861 46.0797538757 21.5571746826
15.9802322388 46.1593666077 21.3850479126
16.0124797821 46.2466125488 21.2150058746
16.0444316864 46.3330574036 21.0448684692
16.0733890533 46.4114151001 20.8727302551
16.0974559784 46.4765815735 20.6972408295
16.1155891418 46.5257301331 20.5176315308
16.1277770996 46.5588340759 20.3338623047
16.1352958679 46.5793342590 20.1468105316
16.1405677795 46.5937690735 19.9581794739
16.1465969086 46.6102485657 19.7701015472
16.1562271118 46.6364440918 19.5846233368
16.1714267731 46.6776733398 19.4031810760
16.1927032471 46.7353057861 19.2261676788
16.2189559937 46.8063697815 19.0528221130
16.2479057312 46.8847122192 18.8815193176
16.2768383026 46.9630050659 18.7103042603
16.3032302856 47.0344429016 18.5373420715
16.3251476288 47.0938034058 18.3612022400
16.3415050507 47.1381607056 18.1810722351
