-33.6557617188 16.1830596924 56.5632400513
-33.6885871887 16.2030563354 56.3694572449
-33.7103691101 16.2171764374 56.1739959717
-33.7206878662 16.2251930237 55.9767646790
-33.7226867676 16.2287788391 55.7782325745
-33.7202262878 16.2299938202 55.5789871216
-33.7152709961 16.2298812866 55.3793334961
-33.7072334290 16.2281265259 55.1791687012
-33.6945037842 16.2238731384 54.9782333374
-33.6772079468 16.2171916962 54.7765350342
-33.6590003967 16.2100257874 54.5746536255
-33.6457176208 16.2054805756 54.3735313416
-33.6421623230 16.2061138153 54.1739540100
-33.6505012512 16.2130794525 53.9763031006
-33.6710472107 16.2265377045 53.7806510925
-33.7023811340 16.2457408905 53.5867919922
-33.7396011353 16.2680740356 53.3939399719
-33.7738380432 16.2888202667 53.2006301880
-33.7957763672 16.3030204773 53.0053100586
-33.8007164001 16.3081741333 52.8071632385
-33.7907562256 16.3053989410 52.6065025330
-33.7727661133 16.2983512878 52.4044647217
-33.7543258667 16.2910633087 52.2023086548
-33.7403984070 16.2861785889 52.0008811951
-33.7324562073 16.2844791412 51.8004493713
-33.7296714783 16.2855224609 51.6008796692
-33.7306327820 16.2885608673 51.4019355774
-33.7344322205 16.2931098938 51.2034759521
-33.7410392761 16.2991523743 51.0054969788
-33.7511863708 16.3070774078 50.8081321716
-33.7655868530 16.3172664642 50.6115150452
-33.7835502625 16.3293533325 50.4155311584
-33.8022422791 16.3418235779 50.2196922302
-33.8176307678 16.3525371552 50.0232810974
-33.8264923096 16.3597793579 49.8257179260
-33.8272628784 16.3627166748 49.6267089844
-33.8194847107 16.3611068726 49.4261512756
-33.8036727905 16.3552227020 49.2241249084
-33.7822952271 16.3463783264 49.0210571289
-33.7596931458 16.3368816376 48.8177185059
-33.7396965027 16.3287715912 48.6148147583
-33.7232627869 16.3225593567 48.4125251770
-33.7088775635 16.3174362183 48.2105712891
-33.6948432922 16.3125000000 48.0086517334
-33.6810722351 16.3077049255 47.8067474365
-33.6694412231 16.3040466309 47.6052131653
-33.6630783081 16.3031940460 47.4046287537
-33.6655006409 16.3070125580 47.2056732178
-33.6797981262 16.3171482086 47.0089416504
-33.7075080872 16.3344173431 46.8147506714
-33.7472038269 16.3580627441 46.6228599548
-33.7940902710 16.3855304718 46.4323806763
-33.8411445618 16.4130878448 46.2419929504
-33.8810234070 16.4368267059 46.0502777100
-33.9077301025 16.4535598755 45.8560791016
-33.9185066223 16.4618225098 45.6588249207
-33.9159431458 16.4629878998 45.4589920044
-33.9079627991 16.4612731934 45.2580871582
-33.9039726257 16.4616813660 45.0579376221
-33.9099082947 16.4673671722 44.8597145081
-33.9266586304 16.4788055420 44.6636161804
-33.9518508911 16.4947338104 44.4691963196
-33.9818763733 16.5132312775 44.2757606506
-34.0130424500 16.5323333740 44.0825805664
-34.0424880981 16.5505237579 43.8890876770
-34.0686492920 16.5669631958 43.6949691772
-34.0908584595 16.5813026428 43.5000801086
-34.1087379456 16.5933399200 43.3043403625
-34.1218795776 16.6028575897 43.1076507568
-34.1295852661 16.6094856262 42.9098663330
-34.1307983398 16.6126594543 42.7107543945
-34.1254882813 16.6123657227 42.5102996826
-34.1175880432 16.6106948853 42.3092918396
-34.1153373718 16.6120300293 42.1094245911
-34.1244926453 16.6194286346 41.9119033813
-34.1394996643 16.6299362183 41.7155914307
-34.1452941895 16.6355495453 41.5173759460
-34.1313819885 16.6306838989 41.3150367737
-34.1025276184 16.6178741455 41.1095352173
-34.0734558105 16.6049499512 40.9039344788
-34.0542984009 16.5972976685 40.7003707886
-34.0433006287 16.5939826965 40.4984970093
-34.0326805115 16.5908699036 40.2966728210
-34.0185890198 16.5859107971 40.0940818787
-34.0048255920 16.5811290741 39.8915290833
-33.9999732971 16.5810832977 39.6908607483
-34.0133743286 16.5907382965 39.4940986633
-34.0513916016 16.6134815216 39.3026618958
-34.1123046875 16.6483917236 39.1162338257
-34.1834068298 16.6887207031 38.9320945740
-34.2462692261 16.7246646881 38.7462501526
-34.2872924805 16.7490024567 38.5556983948
-34.3038101196 16.7603130341 38.3598136902
-34.3018836975 16.7618217468 38.1598777771
-34.2910079956 16.7585716248 37.9579429626
-34.2804145813 16.7554740906 37.7560462952
-34.2773590088 16.7563819885 37.5558013916
-34.2859039307 16.7634563446 37.3581275940
-34.3056106567 16.7764625549 37.1629524231
-34.3314933777 16.7927494049 36.9691810608
-34.3567581177 16.8087100983 36.7752952576
-34.3768806458 16.8219375610 36.5802726746
-34.3913879395 16.8321781158 36.3839912415
-34.4022560120 16.8404865265 36.1868896484
-34.4116706848 16.8480224609 35.9894599915
-34.4213371277 16.8556919098 35.7920913696
-34.4326477051 16.8642349243 35.5951004028
-34.4462394714 16.8739891052 35.3986396790
-34.4615936279 16.8846817017 35.2025909424
-34.4783515930 16.8961181641 35.0068817139
-34.4987869263 16.9095096588 34.8120384216
-34.5283279419 16.9277400970 34.6193351746
-34.5718002319 16.9533710480 34.4299201965
-34.6276855469 16.9855957031 34.2434730530
-34.6861343384 17.0191802979 34.0576934814
-34.7336578369 17.0469627380 33.8694076538
-34.7603454590 17.0636730194 33.6762428284
-34.7637405396 17.0680084229 33.4775695801
-34.7486419678 17.0625190735 33.2744827271
-34.7248764038 17.0524234772 33.0692901611
-34.7031135559 17.0433959961 32.8645286560
-34.6900634766 17.0389938354 32.6618232727
-34.6869888306 17.0398941040 32.4614906311
-34.6929397583 17.0455875397 32.2633247375
-34.7081375122 17.0561962128 32.0673980713
-34.7329902649 17.0719318390 31.8738288879
-34.7645111084 17.0912075043 31.6819114685
-34.7958793640 17.1104030609 31.4899902344
-34.8202247620 17.1258678436 31.2963790894
-34.8340644836 17.1357517242 31.1002025604
-34.8377418518 17.1402378082 30.9015235901
-34.8346214294 17.1411132813 30.7011566162
-34.8303985596 17.1414031982 30.5004978180
-34.8311958313 17.1443595886 30.3010711670
-34.8404846191 17.1518268585 30.1037559509
-34.8576507568 17.1634769440 29.9084129333
-34.8798942566 17.1778240204 29.7143592834
-34.9053993225 17.1939029694 29.5211467743
-34.9343147278 17.2117919922 29.3288192749
-34.9671630859 17.2317714691 29.1375198364
-35.0033111572 17.2535018921 28.9470920563
-35.0413017273 17.2762107849 28.7571754456
-35.0800094604 17.2992992401 28.5674819946
-35.1189727783 17.3225231171 28.3778991699
-35.1581726074 17.3458728790 28.1884212494
-35.1979331970 17.3695182800 27.9991302490
-35.2384109497 17.3935432434 27.8100700378
-35.2788505554 17.4175510406 27.6210479736
-35.3178710938 17.4407997131 27.4317016602
-35.3545265198 17.4627952576 27.2417831421
-35.3883361816 17.4832801819 27.0511608124
-35.4179306030 17.5015239716 26.8594703674
-35.4404563904 17.5160160065 26.6659545898
-35.4532585144 17.5253429413 26.4698963165
-35.4563522339 17.5295162201 26.2712783813
-35.4529800415 17.5302562714 26.0709419250
-35.4474563599 17.5298557281 25.8700160980
-35.4426422119 17.5298328400 25.6692581177
-35.4392776489 17.5305767059 25.4688701630
-35.4368553162 17.5318222046 25.2687149048
-35.4344520569 17.5330772400 25.0685501099
-35.4308586121 17.5337047577 24.8680496216
-35.4245185852 17.5328693390 24.6667900085
-35.4141464233 17.5298957825 24.4644165039
-35.4001693726 17.5250091553 24.2610397339
-35.3855819702 17.5197982788 24.0574626923
-35.3747177124 17.5165653229 23.8548698425
-35.3708152771 17.5170249939 23.6541519165
-35.3748741150 17.5217151642 23.4556007385
-35.3868484497 17.5306034088 23.2592182159
-35.4073219299 17.5440063477 23.0651855469
-35.4376258850 17.5626258850 22.8738861084
-35.4779472351 17.5865592957 22.6853942871
-35.5254478455 17.6143054962 22.4989452362
-35.5750617981 17.6431732178 22.3131389618
-35.6228904724 17.6710891724 22.1268939972
-35.6686286926 17.6978988647 21.9401206970
-35.7142639160 17.7246513367 21.7533702850
-35.7607421875 17.7518520355 21.5669136047
-35.8062973022 17.7785587311 21.3802490234
-35.8469848633 17.8026828766 21.1922607422
-35.8783454895 17.8218574524 21.0016746521
-35.8979530334 17.8347969055 20.8077793121
-35.9084014893 17.8428707123 20.6112899780
-35.9176750183 17.8503227234 20.4144649506
-35.9347953796 17.8619403839 20.2198925018
-35.9638175964 17.8798713684 20.0287475586
-36.0021324158 17.9027366638 19.8403110504
-36.0444755554 17.9277343750 19.6530799866
-36.0875663757 17.9531307220 19.4661121368
-36.1308898926 17.9786491394 19.2792625427
-36.1748733521 18.0045185089 19.0926570892
-36.2201461792 18.0310707092 18.9064769745
-36.2679748535 18.0589771271 18.7210960388
-36.3193778992 18.0887794495 18.5368213654
-36.3727951050 18.1196517944 18.3531990051
-36.4230995178 18.1488704681 18.1687259674
-36.4636344910 18.1729030609 17.9814281464
-36.4899330139 18.1893844604 17.7899646759
-36.5024375916 18.1985473633 17.5944366455
-36.5064125061 18.2031860352 17.3963775635
-36.5089073181 18.2070369720 17.1978702545
-36.5148048401 18.2126941681 17.0003700256
-36.5250740051 18.2206687927 16.8041763306
-36.5382537842 18.2301902771 16.6088600159
-36.5526390076 18.2403507233 16.4139118195
-36.5669021606 18.2504463196 16.2189369202
-36.5800361633 18.2599411011 16.0236282349
-36.5918388367 18.2687320709 15.8279237747
-36.6033515930 18.2773666382 15.6321344376
-36.6165962219 18.2869205475 15.4368762970
-36.6343688965 18.2988777161 15.2430095673
-36.6598548889 18.3149242401 15.0515155792
-36.6954650879 18.3363418579 14.8631505966
-36.7419471741 18.3635234833 14.6781673431
-36.7982025146 18.3958911896 14.4962520599
-36.8611717224 18.4318161011 14.3164787292
-36.9259910583 18.4687213898 14.1373567581
-36.9873542786 18.5037937164 13.9572429657
-37.0409164429 18.5347270966 13.7747812271
-37.0835151672 18.5598449707 13.5889644623
-37.1131706238 18.5780982971 13.3991527557
-37.1297760010 18.5894317627 13.2052850723
-37.1354217529 18.5949516296 13.0079879761
-37.1334648132 18.5964412689 12.8082952499
-37.1274032593 18.5957508087 12.6072912216
-37.1206665039 18.5947055817 12.4060535431
-37.1170234680 18.5953025818 12.2057743073
-37.1200256348 18.5994205475 12.0075883865
-37.1313400269 18.6079463959 11.8120384216
-37.1498680115 18.6202983856 11.6187944412
-37.1729278564 18.6350536346 11.4270143509
-37.1982841492 18.6510257721 11.2359914780
-37.2254486084 18.6679573059 11.0455732346
-37.2559814453 18.6866722107 10.8562660217
-37.2928314209 18.7087364197 10.6690292358
-37.3387413025 18.7356052399 10.4847631454
-37.3943328857 18.7676048279 10.3036890030
-37.4569854736 18.8033485413 10.1249761581
-37.5215721130 18.8401145935 9.9469699860
-37.5828628540 18.8751335144 9.7679710388
-37.6374435425 18.9065933228 9.5868539810
-37.6837196350 18.9336509705 9.4030828476
-37.7213020325 18.9561004639 9.2165117264
-37.7507553101 18.9742374420 9.0273065567
-37.7727470398 18.9884185791 8.8356704712
-37.7866744995 18.9983272552 8.6413888931
-37.7909774780 19.0031318665 8.4439258575
-37.7856597900 19.0028381348 8.2432641983
-37.7741546631 18.9992618561 8.0405216217
-37.7621192932 18.9954071045 7.8375735283
-37.7546844482 18.9939899445 7.6361341476
-37.7549896240 18.9966773987 7.4372630119
-37.7643737793 19.0041751862 7.2414283752
-37.7827720642 19.0164527893 7.0486268997
-37.8087844849 19.0327644348 6.8584065437
-37.8400840759 19.0518798828 6.6699981689
-37.8739967346 19.0723781586 6.4825062752
-37.9077568054 19.0927963257 6.2950000763
-37.9390144348 19.1118869781 6.1066803932
-37.9667243958 19.1290969849 5.9171843529
-37.9912834167 19.1446361542 5.7266402245
-38.0135345459 19.1589527130 5.5353298187
-38.0338859558 19.1722621918 5.3433885574
-38.0525932312 19.1847000122 5.1508984566
-38.0708427429 19.1968955994 4.9582662582
-38.0916595459 19.2104511261 4.7665343285
-38.1194458008 19.2276992798 4.5772309303
-38.1577033997 19.2504959106 4.3915829659
-38.2063941956 19.2788219452 4.2096014023
-38.2616920471 19.3106460571 4.0299773216
-38.3183860779 19.3432102203 3.8509078026
-38.3721313477 19.3742122650 3.6708781719
-38.4197158813 19.4019451141 3.4887559414
-38.4587554932 19.4251537323 3.3036932945
-38.4882202148 19.4432868958 3.1153092384
-38.5088081360 19.4567165375 2.9238271713
-38.5223541260 19.4664154053 2.7298767567
-38.5310859680 19.4735641479 2.5342311859
-38.5375366211 19.4795036316 2.3377768993
-38.5447692871 19.4858570099 2.1415975094
-38.5560760498 19.4943695068 1.9468675852
-38.5740051270 19.5063915253 1.7545028925
-38.5995674133 19.5224552155 1.5648802519
-38.6324234009 19.5423831940 1.3778938055
-38.6712951660 19.5654964447 1.1931021214
-38.7135429382 19.5903987885 1.0095677376
-38.7544212341 19.6145744324 0.8255899549
-38.7876930237 19.6347198486 0.6389123797
-38.8080940247 19.6480464935 0.4476149380
-38.8145675659 19.6539974213 0.2512876689
-38.8123207092 19.6553287506 0.0517894439
-26.5318393707 24.9101924896 80.4863052368
-26.5344333649 24.9160804749 80.2886886597
-26.5397682190 24.9248142242 80.0913162231
-26.5452041626 24.9336528778 79.8939437866
-26.5495815277 24.9413909912 79.6964797974
-26.5543518066 24.9495391846 79.4990463257
-26.5621967316 24.9608802795 79.3018875122
-26.5742492676 24.9765872955 79.1051330566
-26.5886325836 24.9947147369 78.9085998535
-26.6015796661 25.0113506317 78.7119522095
-26.6099414825 25.0232257843 78.5148773193
-26.6129398346 25.0295352936 78.3172912598
-26.6122951508 25.0320587158 78.1193389893
-26.6112575531 25.0341777802 77.9213409424
-26.6133213043 25.0395164490 77.7236404419
-26.6208400726 25.0505180359 77.5264739990
-26.6337757111 25.0671424866 77.3298645020
-26.6494331360 25.0865917206 77.1335372925
-26.6639003754 25.1048030853 76.9371032715
-26.6743736267 25.1188716888 76.7402725220
-26.6804084778 25.1283321381 76.5429916382
-26.6832103729 25.1344356537 76.3453674316
-26.6841945648 25.1386528015 76.1475448608
-26.6841564178 25.1418094635 75.9496002197
-26.6833076477 25.1441230774 75.7515640259
-26.6816482544 25.1455993652 75.5534210205
-26.6793327332 25.1463909149 75.3552017212
-26.6768341064 25.1469936371 75.1569366455
-26.6748409271 25.1481227875 74.9587173462
-26.6738739014 25.1503143311 74.7605972290
-26.6738605499 25.1534976959 74.5625762939
-26.6739883423 25.1568298340 74.3645629883
-26.6729011536 25.1588973999 74.1663970947
-26.6690273285 25.1580753326 73.9678878784
-26.6609859467 25.1529273987 73.7688827515
-26.6482543945 25.1429138184 73.5692977905
-26.6319847107 25.1292266846 73.3692550659
-26.6150875092 25.1148891449 73.1690979004
-26.6010150909 25.1034851074 72.9692382813
-26.5921897888 25.0975284576 72.7699890137
-26.5896701813 25.0981140137 72.5714797974
-26.5940704346 25.1058807373 72.3738021851
-26.6061038971 25.1215686798 72.1770782471
-26.6254367828 25.1448287964 71.9812774658
-26.6487979889 25.1722717285 71.7860107422
-26.6696834564 25.1971435547 71.5904541016
-26.6807231903 25.2117996216 71.3936691284
-26.6773777008 25.2115287781 71.1950454712
-26.6605110168 25.1972255707 70.9946441650
-26.6361503601 25.1751499176 70.7932357788
-26.6123600006 25.1536674500 70.5918350220
-26.5953006744 25.1391696930 70.3912811279
-26.5874214172 25.1341953278 70.1919021606
-26.5882453918 25.1382541656 69.9936676025
-26.5961017609 25.1496086121 69.7963790894
-26.6095714569 25.1667842865 69.5998458862
-26.6280269623 25.1891345978 69.4040145874
-26.6505050659 25.2156581879 69.2087631226
-26.6741447449 25.2433872223 69.0137023926
-26.6949615479 25.2681865692 68.8182754517
-26.7103767395 25.2873802185 68.6221160889
-26.7200298309 25.3005962372 68.4251632690
-26.7246284485 25.3085708618 68.2275009155
-26.7253360748 25.3125057220 68.0292739868
-26.7237720490 25.3140869141 67.8307113647
-26.7211494446 25.3145694733 67.6319808960
-26.7173824310 25.3138637543 67.4330673218
-26.7117843628 25.3112602234 67.2338714600
-26.7044563293 25.3068618774 67.0343933105
-26.6965999603 25.3019142151 66.8348159790
-26.6897983551 25.2980632782 66.6353759766
-26.6853160858 25.2966175079 66.4362564087
-26.6838760376 25.2983283997 66.2375793457
-26.6857204437 25.3034477234 66.0393905640
-26.6905899048 25.3117008209 65.8416519165
-26.6975746155 25.3221511841 65.6442413330
-26.7050991058 25.3331604004 65.4469146729
-26.7112579346 25.3427524567 65.2493820190
-26.7144622803 25.3492832184 65.0513839722
-26.7140407562 25.3520488739 64.8528137207
-26.7104301453 25.3515110016 64.6537170410
-26.7049140930 25.3489952087 64.4543075562
-26.6990852356 25.3461551666 64.2548217773
-26.6943607330 25.3444633484 64.0554962158
-26.6916790009 25.3448867798 63.8564834595
-26.6913890839 25.3477916718 63.6578445435
-26.6932849884 25.3529644012 63.4595527649
-26.6967105865 25.3597240448 63.2615051270
-26.7007598877 25.3671302795 63.0635528564
-26.7045154572 25.3742332458 62.8655548096
-26.7073364258 25.3803653717 62.6673927307
-26.7091007233 25.3854007721 62.4690475464
-26.7102851868 25.3898391724 62.2705955505
-26.7118396759 25.3946571350 62.0721969604
-26.7149982452 25.4011402130 61.8740692139
-26.7211856842 25.4107646942 61.6764564514
-26.7316837311 25.4248580933 61.4795875549
-26.7468128204 25.4437541962 61.2835350037
-26.7653331757 25.4661636353 61.0880889893
-26.7850780487 25.4898452759 60.8928833008
-26.8045578003 25.5132503510 60.6976547241
-26.8239040375 25.5365180969 60.5024261475
-26.8442440033 25.5608158112 60.3073997498
-26.8662643433 25.5868549347 60.1127014160
-26.8894939423 25.6141452789 59.9182510376
-26.9129104614 25.6416320801 59.7238655090
-26.9354724884 25.6682281494 59.5293540955
-26.9549789429 25.6916599274 59.3343162537
-26.9666996002 25.7070178986 59.1378669739
-26.9650802612 25.7085437775 58.9389686584
-26.9482135773 25.6942653656 58.7372245789
-26.9200267792 25.6682510376 58.5333251953
-26.8874874115 25.6377258301 58.3285522461
-26.8564777374 25.6087894440 58.1239967346
-26.8306140900 25.5851840973 57.9203453064
-26.8123035431 25.5694141388 57.7180747986
-26.8033256531 25.5633182526 57.5175437927
-26.8044090271 25.5676517487 57.3189163208
-26.8147926331 25.5816230774 57.1220741272
-26.8320293427 25.6027030945 56.9265708923
-26.8523464203 25.6269721985 56.7316856384
-26.8722343445 25.6507987976 56.5367431641
-26.8905715942 25.6730155945 56.3415222168
-26.9091587067 25.6954917908 56.1463699341
-26.9307804108 25.7211132050 55.9518470764
-26.9563617706 25.7508392334 55.7581367493
-26.9835700989 25.7822494507 55.5647926331
-27.0080986023 25.8108806610 55.3709449768
-27.0264797211 25.8331413269 55.1758880615
-27.0377368927 25.8480205536 54.9794120789
-27.0426387787 25.8563079834 54.7816505432
-27.0424270630 25.8592987061 54.5828361511
-27.0388183594 25.8587684631 54.3833160400
-27.0339775085 25.8569602966 54.1835250854
-27.0292987823 25.8553218842 53.9837455750
-27.0243835449 25.8534393311 53.7839012146
-27.0177536011 25.8497772217 53.5836753845
-27.0087623596 25.8436698914 53.3829307556
-26.9988574982 25.8366165161 53.1819648743
-26.9909019470 25.8315830231 52.9813880920
-26.9869804382 25.8307323456 52.7816429138
-26.9869174957 25.8338775635 52.5827026367
-26.9889640808 25.8392124176 52.3842048645
-26.9915370941 25.8450908661 52.1858139038
-26.9940567017 25.8509140015 51.9874038696
-26.9966716766 25.8568344116 51.7890129089
-26.9996757507 25.8631610870 51.5906982422
-27.0030498505 25.8698692322 51.3924560547
-27.0062255859 25.8763732910 51.1941719055
-27.0084171295 25.8818569183 50.9956588745
-27.0093326569 25.8860187531 50.7968597412
-27.0094776154 25.8893814087 50.5978813171
-27.0100440979 25.8931827545 50.3989830017
-27.0130863190 25.8995494843 50.2006340027
-27.0215091705 25.9114894867 50.0034904480
-27.0378055573 25.9315872192 49.8081359863
-27.0623855591 25.9602661133 49.6146812439
-27.0931835175 25.9953880310 49.4226837158
-27.1264762878 26.0330924988 49.2313003540
-27.1578636169 26.0688228607 49.0395278931
-27.1834011078 26.0984916687 48.8464546204
-27.2008571625 26.1197891235 48.6515388489
-27.2101860046 26.1326656342 48.4547538757
-27.2126655579 26.1384468079 48.2563743591
-27.2095661163 26.1384468079 48.0566787720
-27.2013645172 26.1331653595 47.8557662964
-27.1880931854 26.1226310730 47.6536254883
-27.1705303192 26.1076507568 47.4504356384
-27.1510868073 26.0907230377 47.2467536926
-27.1331462860 26.0753536224 47.0433845520
-27.1193370819 26.0642642975 46.8409652710
-27.1104755402 26.0583000183 46.6397018433
-27.1059761047 26.0568561554 46.4394683838
-27.1048431396 26.0588970184 46.2400321960
-27.1062011719 26.0635204315 46.0411872864
-27.1092815399 26.0699272156 45.8427581787
-27.1132049561 26.0772075653 45.6445312500
-27.1170082092 26.0843620300 45.4462699890
-27.1203765869 26.0910663605 45.2478981018
-27.1246204376 26.0986804962 45.0497360229
-27.1323909760 26.1099433899 44.8524513245
-27.1459941864 26.1272487640 44.6566314697
-27.1663722992 26.1515712738 44.4625205994
-27.1934986115 26.1828804016 44.2701377869
-27.2263927460 26.2201633453 44.0792541504
-27.2621040344 26.2603626251 43.8891296387
-27.2958431244 26.2985191345 43.6985626221
-27.3234691620 26.3303432465 43.5064773560
-27.3440628052 26.3548851013 43.3126335144
-27.3599548340 26.3745555878 43.1176071167
-27.3745803833 26.3929157257 42.9222679138
-27.3904342651 26.4125480652 42.7272644043
-27.4081211090 26.4340801239 42.5327568054
-27.4261379242 26.4559497833 42.3383560181
-27.4413127899 26.4748783112 42.1432304382
-27.4503211975 26.4874210358 41.9465065002
-27.4513893127 26.4917411804 41.7476921082
-27.4444808960 26.4878025055 41.5467567444
-27.4301853180 26.4762153625 41.3438377380
-27.4094543457 26.4579658508 41.1391677856
-27.3851013184 26.4359664917 40.9334793091
-27.3625431061 26.4158267975 40.7282218933
-27.3473148346 26.4032783508 40.5248794556
-27.3413429260 26.4003105164 40.3240013123
-27.3424434662 26.4046688080 40.1250190735
-27.3475208282 26.4131412506 39.9271087646
-27.3554191589 26.4245376587 39.7299652100
-27.3666629791 26.4393978119 39.5337409973
-27.3813266754 26.4577941895 39.3384666443
-27.3977966309 26.4780654907 39.1437034607
-27.4137268066 26.4977741241 38.9488105774
-27.4278602600 26.5156230927 38.7534408569
-27.4405689240 26.5319976807 38.5576858521
-27.4528179169 26.5478954315 38.3618164063
-27.4655189514 26.5642604828 38.1660881042
-27.4802150726 26.5826911926 37.9709281921
-27.4991989136 26.6055622101 37.7769966125
-27.5234699249 26.6339035034 37.5845794678
-27.5504398346 26.6650371552 37.3929634094
-27.5747356415 26.6934032440 37.2006263733
-27.5918445587 26.7143306732 37.0062713623
-27.6007328033 26.7267475128 36.8095779419
-27.6031723022 26.7324886322 36.6110382080
-27.6018371582 26.7343235016 36.4114074707
-27.5995922089 26.7352180481 36.2114982605
-27.5993404388 26.7381744385 36.0121498108
-27.6030902863 26.7452754974 35.8139572144
-27.6109123230 26.7565879822 35.6169509888
-27.6210937500 26.7703437805 35.4206352234
-27.6315441132 26.7843761444 35.2244071960
-27.6410655975 26.7974472046 35.0279159546
-27.6495399475 26.8094367981 34.8311195374
-27.6573829651 26.8207721710 34.6341438293
-27.6651306152 26.8320083618 34.4371414185
-27.6735553741 26.8439445496 34.2403411865
-27.6838645935 26.8578319550 34.0441131592
-27.6973247528 26.8749790192 33.8488349915
-27.7141284943 26.8955879211 33.6545829773
-27.7325477600 26.9178676605 33.4608345032
-27.7495899200 26.9387207031 33.2666931152
-27.7627620697 26.9555683136 33.0713958740
-27.7711963654 26.9675140381 32.8746681213
-27.7754077911 26.9750900269 32.6766548157
-27.7764873505 26.9794254303 32.4776763916
-27.7756004333 26.9817256927 32.2780876160
-27.7737522125 26.9830303192 32.0781898499
-27.7716770172 26.9841022491 31.8782062531
-27.7698078156 26.9853878021 31.6782722473
-27.7683506012 26.9870986938 31.4784545898
-27.7673950195 26.9893302917 31.2787780762
-27.7669944763 26.9921340942 31.0792617798
-27.7671909332 26.9955558777 30.8799228668
-27.7680225372 26.9996376038 30.6807727814
-27.7695331573 27.0044212341 30.4818267822
-27.7717456818 27.0099296570 30.2830963135
-27.7746391296 27.0161437988 30.0845756531
-27.7781391144 27.0229854584 29.8862400055
-27.7821636200 27.0303688049 29.6880702972
-27.7867736816 27.0383586884 29.4900836945
-27.7924957275 27.0474987030 29.2924499512
-27.8007469177 27.0592556000 29.0956325531
-27.8138980865 27.0760822296 28.9004001617
-27.8342628479 27.1003684998 28.7075176239
-27.8620452881 27.1323299408 28.5170688629
-27.8941154480 27.1687240601 28.3280582428
-27.9255371094 27.2044487000 28.1388816833
-27.9530601501 27.2361412048 27.9484767914
-27.9772796631 27.2644119263 27.7570247650
-28.0016193390 27.2928104401 27.5656471252
-28.0293540955 27.3247165680 27.3754234314
-28.0608444214 27.3605079651 27.1864833832
-28.0928173065 27.3967990875 26.9977512360
-28.1201229095 27.4282588959 26.8075103760
-28.1387195587 27.4507122040 26.6144027710
-28.1476097107 27.4631252289 26.4180698395
-28.1486511230 27.4674224854 26.2191066742
-28.1452560425 27.4671287537 26.0186405182
-28.1411037445 27.4660530090 25.8179016113
-28.1391086578 27.4672069550 25.6178760529
-28.1409645081 27.4723472595 25.4191417694
-28.1475143433 27.4823398590 25.2219963074
-28.1590328217 27.4974708557 25.0265483856
-28.1746883392 27.5168819427 24.8325252533
-28.1920452118 27.5380496979 24.6391048431
-28.2080039978 27.5577716827 24.4452228546
-28.2206802368 27.5741024017 24.2502288818
-28.2301712036 27.5871353149 24.0541439056
-28.2374706268 27.5979022980 23.8573074341
-28.2430934906 27.6069355011 23.6598892212
-28.2470493317 27.6142463684 23.4618911743
-28.2498226166 27.6203327179 23.2634754181
-28.2527847290 27.6266155243 23.0651206970
-28.2576389313 27.6348552704 22.8674259186
-28.2658386230 27.6465530396 22.6709060669
-28.2784690857 27.6628322601 22.4759540558
-28.2959461212 27.6841239929 22.2827320099
-28.3172302246 27.7093505859 22.0908794403
-28.3394947052 27.7355918884 21.8994064331
-28.3594722748 27.7594661713 21.7071456909
-28.3757896423 27.7795562744 21.5136013031
-28.3902950287 27.7977733612 21.3194274902
-28.4071331024 27.8184013367 21.1261081696
-28.4302730560 27.8455448151 20.9350795746
-28.4611511230 27.8806896210 20.7468776703
-28.4977397919 27.9217338562 20.5607891083
-28.5354595184 27.9639492035 20.3751697540
-28.5693321228 28.0021858215 20.1882057190
-28.5961532593 28.0331325531 19.9987201691
-28.6155128479 28.0563640594 19.8065433502
-28.6292190552 28.0737495422 19.6123180389
-28.6398792267 28.0879859924 19.4169864655
-28.6498832703 28.1015453339 19.2214221954
-28.6611232758 28.1163825989 19.0263214111
-28.6746673584 28.1336002350 18.8320846558
-28.6899223328 28.1525878906 18.6384963989
-28.7040729523 28.1704330444 18.4445152283
-28.7131042480 28.1829833984 18.2486362457
-28.7143535614 28.1874923706 18.0498542786
-28.7088737488 28.1850452423 17.8485412598
-28.7015914917 28.1807365417 17.6465282440
-28.6988029480 28.1810703278 17.4461841583
-28.7046718597 28.1903572083 17.2490959167
-28.7195301056 28.2089309692 17.0554084778
-28.7411060333 28.2344493866 16.8642902374
-28.7667636871 28.2641868591 16.6747531891
-28.7941989899 28.2957611084 16.4859294891
-28.8208045959 28.3264770508 16.2968292236
-28.8437690735 28.3534278870 16.1063709259
-28.8612670898 28.3747291565 15.9138431549
-28.8731708527 28.3902492523 15.7191839218
-28.8805198669 28.4010620117 15.5227766037
-28.8846569061 28.4085521698 15.3251285553
-28.8869705200 28.4141616821 15.1267709732
-28.8892860413 28.4197711945 14.9284076691
-28.8942508698 28.4281196594 14.7310695648
-28.9050140381 28.4424610138 14.5359954834
-28.9239597321 28.4652576447 14.3441324234
-28.9511566162 28.4965782166 14.1555318832
-28.9837417603 28.5334701538 13.9690895081
-29.0168190002 28.5708675385 13.7828903198
-29.0454673767 28.6036872864 13.5949897766
-29.0668125153 28.6289577484 13.4042387009
-29.0810546875 28.6468906403 13.2106962204
-29.0910148621 28.6604003906 13.0154666901
-29.1004695892 28.6733837128 12.8200407028
-29.1121158600 28.6886348724 12.6254987717
-29.1265201569 28.7067356110 12.4320726395
-29.1429119110 28.7268886566 12.2394590378
-29.1609764099 28.7487678528 12.0475378036
-29.1816711426 28.7733669281 11.8567018509
-29.2063274384 28.8020572662 11.6674928665
-29.2350234985 28.8349189758 11.4799556732
-29.2656326294 28.8697586060 11.2932376862
-29.2942485809 28.9025382996 11.1057538986
-29.3169708252 28.9292278290 10.9159069061
-29.3318729401 28.9478397369 10.7228927612
-29.3395824432 28.9590206146 10.5269479752
-29.3422336578 28.9649734497 10.3289289474
-29.3420619965 28.9680099487 10.1297416687
-29.3408012390 28.9699230194 9.9300937653
-29.3398571014 28.9721641541 9.7305641174
-29.3407669067 28.9763183594 9.5317897797
-29.3454017639 28.9843215942 9.3345527649
-29.3555564880 28.9980278015 9.1396121979
-29.3720207214 29.0182514191 8.9473114014
-29.3940715790 29.0442447662 8.7573652267
-29.4202270508 29.0744762421 8.5691680908
-29.4494323730 29.1078605652 8.3822898865
-29.4813079834 29.1440010071 8.1965780258
-29.5156059265 29.1826400757 8.0119352341
-29.5520725250 29.2235221863 7.8282608986
-29.5905342102 29.2664623260 7.6454882622
-29.6301879883 29.3106327057 7.4632816315
-29.6686382294 29.3535575867 7.2806243896
-29.7020778656 29.3913097382 7.0958919525
-29.7267398834 29.4199924469 6.9074583054
-29.7403717041 29.4372844696 6.7143368721
-29.7430782318 29.4432926178 6.5165414810
-29.7377166748 29.4409675598 6.3152704239
-29.7299556732 29.4361648560 6.1129460335
-29.7272167206 29.4365482330 5.9127640724
-29.7361602783 29.4489994049 5.7176227570
-29.7598934174 29.4767227173 5.5289011002
-29.7966308594 29.5178756714 5.3458642960
-29.8408660889 29.5667686462 5.1661486626
-29.8862838745 29.6168823242 4.9870204926
-29.9284248352 29.6636104584 4.8065319061
-29.9654369354 29.7050418854 4.6238613129
-29.9968967438 29.7407379150 4.4388093948
-30.0222034454 29.7700824738 4.2510972023
-30.0402603149 29.7919387817 4.0602226257
-30.0504951477 29.8057155609 3.8659131527
-30.0536842346 29.8122196198 3.6684916019
-30.0517940521 29.8134784698 3.4688107967
-30.0477867126 29.8125514984 3.2681748867
-30.0460090637 29.8139266968 3.0685131550
-30.0519676208 29.8232898712 2.8722929955
-30.0701961517 29.8453216553 2.6815631390
-30.1013164520 29.8806648254 2.4966368675
-30.1412506104 29.9251060486 2.3157169819
-30.1836318970 29.9720726013 2.1359615326
-30.2233524323 30.0162906647 1.9550725222
-30.2584342957 30.0557193756 1.7721490860
-30.2893371582 30.0908336639 1.5873866081
-30.3171253204 30.1227302551 1.4012556076
-30.3424396515 30.1520729065 1.2140405178
-30.3654422760 30.1790275574 1.0258065462
-30.3854446411 30.2028865814 0.8362351060
-30.4003734589 30.2215061188 0.6443676353
-30.4076442719 30.2322196960 0.4490055442
-30.4069213867 30.2346820831 0.2499729097
-30.4027366638 30.2335700989 0.0493354239
-17.5134773254 31.8442630768 80.4832687378
-17.5111351013 31.8445167542 80.2852096558
-17.5086040497 31.8443775177 80.0871124268
-17.5056724548 31.8434162140 79.8889389038
-17.5023937225 31.8417415619 79.6907043457
-17.4993152618 31.8404827118 79.4924774170
-17.4973926544 31.8415946960 79.2944030762
-17.4975814819 31.8470573425 79.0966262817
-17.5004692078 31.8580665588 78.8992385864
-17.5059795380 31.8744754791 78.7022552490
-17.5131397247 31.8942756653 78.5055236816
-17.5200500488 31.9135589600 78.3087615967
-17.5245075226 31.9278011322 78.1116409302
-17.5251674652 31.9342269897 77.9139251709
-17.5223541260 31.9335136414 77.7156677246
-17.5178623199 31.9293479919 77.5171203613
-17.5138282776 31.9261226654 77.3186340332
-17.5116024017 31.9266166687 77.1204147339
-17.5114917755 31.9314651489 76.9225234985
-17.5132961273 31.9402465820 76.7249450684
-17.5167140961 31.9523506165 76.5276260376
-17.5211715698 31.9665927887 76.3304824829
-17.5255317688 31.9806289673 76.1333312988
-17.5284137726 31.9916324615 75.9359283447
-17.5288944244 31.9976940155 75.7381210327
-17.5267848969 31.9984283447 75.5398559570
-17.5225296021 31.9947509766 75.3412017822
-17.5173301697 31.9891376495 75.1423645020
-17.5133399963 31.9860057831 74.9437179565
-17.5129966736 31.9903755188 74.7456970215
-17.5176277161 32.0049743652 74.5485687256
-17.5266971588 32.0286979675 74.3522491455
-17.5384407043 32.0579185486 74.1564407349
-17.5508689880 32.0885467529 73.9607772827
-17.5621795654 32.1168785095 73.7649383545
-17.5709571838 32.1399993896 73.5686492920
-17.5765800476 32.1566352844 73.3717803955
-17.5793724060 32.1674499512 73.1743850708
-17.5800666809 32.1739540100 72.9765853882
-17.5791244507 32.1770896912 72.7784729004
-17.5763988495 32.1765632629 72.5799942017
-17.5712413788 32.1710357666 72.3810272217
-17.5629825592 32.1591300964 72.1814270020
-17.5517139435 32.1410408020 71.9812011719
-17.5388107300 32.1195945740 71.7806015015
-17.5265121460 32.0993881226 71.5800857544
-17.5168476105 32.0846023560 71.3800582886
-17.5109405518 32.0775375366 71.1807556152
-17.5091094971 32.0788497925 70.9822769165
-17.5112648010 32.0883598328 70.7846069336
-17.5169219971 32.1050682068 70.5876617432
-17.5247821808 32.1263046265 70.3911895752
-17.5325698853 32.1473922729 70.1947174072
-17.5378074646 32.1632347107 69.9977188110
-17.5393276215 32.1714401245 69.7999267578
-17.5384159088 32.1746482849 69.6016082764
-17.5384140015 32.1797218323 69.4034805298
-17.5427989960 32.1938133240 69.2062988281
-17.5530643463 32.2199897766 69.0104217529
-17.5678176880 32.2553939819 68.8155517578
-17.5830612183 32.2917976379 68.6208267212
-17.5933036804 32.3179244995 68.4250183105
-17.5938396454 32.3241043091 68.2270431519
-17.5834369659 32.3078079224 68.0265731812
-17.5651378632 32.2752838135 67.8242645264
-17.5442943573 32.2375297546 67.6213073730
-17.5257949829 32.2045974731 67.4188308716
-17.5125312805 32.1824264526 67.2175064087
-17.5054702759 32.1730003357 67.0175933838
-17.5046539307 32.1764068604 66.8191223145
-17.5100498199 32.1925773621 66.6221160889
-17.5212936401 32.2207603455 66.4265060425
-17.5366516113 32.2574043274 66.2319107056
-17.5528411865 32.2957496643 66.0375518799
-17.5663738251 32.3286361694 65.8425903320
-17.5751781464 32.3518066406 65.6464996338
-17.5789356232 32.3646087646 65.4491882324
-17.5783367157 32.3684616089 65.2508087158
-17.5743732452 32.3654022217 65.0515747070
-17.5681152344 32.3576278687 64.8517532349
-17.5606956482 32.3474693298 64.6516113281
-17.5532321930 32.3372192383 64.4514312744
-17.5467205048 32.3289299011 64.2514648438
-17.5419445038 32.3241996765 64.0519104004
-17.5394325256 32.3241271973 63.8529205322
-17.5394706726 32.3292884827 63.6545715332
-17.5421028137 32.3397827148 63.4568939209
-17.5471706390 32.3552818298 63.2598495483
-17.5544681549 32.3753547668 63.0634002686
-17.5639095306 32.3998298645 62.8675308228
-17.5754642487 32.4286537170 62.6722373962
-17.5887756348 32.4610824585 62.4774436951
-17.6028823853 32.4951362610 62.2828903198
-17.6165962219 32.5283889771 62.0882682800
-17.6292648315 32.5594940186 61.8933906555
-17.6409244537 32.5885276794 61.6982650757
-17.6515407562 32.6154136658 61.5028800964
-17.6602611542 32.6384086609 61.3069953918
-17.6656932831 32.6546478271 61.1102142334
-17.6668453217 32.6620979309 60.9122505188
-17.6635513306 32.6604156494 60.7130355835
-17.6560497284 32.6500968933 60.5126228333
-17.6445941925 32.6316566467 60.3110580444
-17.6297397614 32.6062355042 60.1084861755
-17.6127662659 32.5764656067 59.9052581787
-17.5953884125 32.5458679199 59.7018623352
-17.5791397095 32.5175895691 59.4987297058
-17.5653705597 32.4944076538 59.2962646484
-17.5556831360 32.4796028137 59.0949401855
-17.5516033173 32.4763145447 58.8952217102
-17.5534038544 32.4851036072 58.6972198486
-17.5595340729 32.5027809143 58.5004920959
-17.5675811768 32.5243911743 58.3043441772
-17.5758590698 32.5464782715 58.1082801819
-17.5841293335 32.5685462952 57.9122276306
-17.5929985046 32.5918464661 57.7163772583
-17.6028213501 32.6171035767 57.5208282471
-17.6132736206 32.6436538696 57.3254928589
-17.6240367889 32.6708412170 57.1302757263
-17.6356830597 32.6998367310 56.9353523254
-17.6494464874 32.7331809998 56.7411079407
-17.6658630371 32.7719688416 56.5477180481
-17.6836776733 32.8136329651 56.3548011780
-17.7002296448 32.8526954651 56.1615333557
-17.7129993439 32.8839988708 55.9671173096
-17.7210350037 32.9055824280 55.7712326050
-17.7250823975 32.9189758301 55.5741004944
-17.7266139984 32.9272079468 55.3761672974
-17.7268333435 32.9327430725 55.1778106689
-17.7263298035 32.9367980957 54.9792175293
-17.7252655029 32.9396972656 54.7804298401
-17.7235584259 32.9412841797 54.5814247131
-17.7208099365 32.9407310486 54.3820686340
-17.7160034180 32.9359550476 54.1820182800
-17.7074356079 32.9234580994 53.9807128906
-17.6936130524 32.9001808167 53.7776412964
-17.6750469208 32.8671684265 53.5729484558
-17.6553535461 32.8318405151 53.3678169250
-17.6398487091 32.8051109314 53.1640243530
-17.6324043274 32.7949295044 52.9628868103
-17.6334133148 32.8020935059 52.7645721436
-17.6404685974 32.8216629028 52.5682983398
-17.6506080627 32.8475646973 52.3730888367
-17.6619033813 32.8758354187 52.1782951355
-17.6732788086 32.9042701721 51.9835548401
-17.6835746765 32.9304924011 51.7884674072
-17.6914348602 32.9517135620 51.5925559998
-17.6961154938 32.9664077759 51.3955574036
-17.6979808807 32.9753303528 51.1975784302
-17.6980667114 32.9805984497 50.9989776611
-17.6973419189 32.9842033386 50.8000831604
-17.6963958740 32.9873542786 50.6011009216
-17.6954803467 32.9905738831 50.4021148682
-17.6946430206 32.9939460754 50.2031517029
-17.6937961578 32.9973030090 50.0041694641
-17.6927814484 33.0003166199 49.8051223755
-17.6914310455 33.0026397705 49.6059417725
-17.6895866394 33.0039482117 49.4065666199
-17.6870574951 33.0038566589 49.2069320679
-17.6835613251 33.0017776489 49.0069313049
-17.6787090302 32.9969215393 48.8064155579
-17.6722984314 32.9888610840 48.6053047180
-17.6649017334 32.9787864685 48.4038047791
-17.6582202911 32.9701766968 48.2025375366
-17.6544799805 32.9676017761 48.0023384094
-17.6550483704 32.9738655090 47.8037300110
-17.6593456268 32.9877777100 47.6065139771
-17.6650447845 33.0045661926 47.4098281860
-17.6696815491 33.0191726685 47.2127494812
-17.6725444794 33.0301437378 47.0150032043
-17.6750984192 33.0404815674 46.8171424866
-17.6793136597 33.0542221069 46.6199111938
-17.6855258942 33.0720634460 46.4234542847
-17.6919593811 33.0903549194 46.2270889282
-17.6960678101 33.1038780212 46.0298385620
-17.6962718964 33.1093978882 45.8310775757
-17.6928176880 33.1074104309 45.6308860779
-17.6874122620 33.1014251709 45.4299125671
-17.6820278168 33.0954780579 45.2289276123
-17.6778507233 33.0920143127 45.0283927917
-17.6750984192 33.0914688110 44.8283996582
-17.6734771729 33.0932426453 44.6288375854
-17.6726493835 33.0966453552 44.4295806885
-17.6724662781 33.1013679504 44.2305717468
-17.6730384827 33.1076431274 44.0318565369
-17.6748123169 33.1163825989 43.8336181641
-17.6785659790 33.1291770935 43.6361732483
-17.6851329803 33.1477470398 43.4398727417
-17.6948184967 33.1727066040 43.2448501587
-17.7069473267 33.2026748657 43.0508422852
-17.7201576233 33.2348632813 42.8573036194
-17.7331600189 33.2666206360 42.6637115479
-17.7450656891 33.2961311340 42.4696960449
-17.7553253174 33.3222656250 42.2750282288
-17.7641506195 33.3454589844 42.0797843933
-17.7735652924 33.3698616028 41.8848075867
-17.7875976563 33.4037284851 41.6917724609
-17.8098754883 33.4544982910 41.5022315979
-17.8396701813 33.5206794739 41.3159103394
-17.8704986572 33.5889701843 41.1301002502
-17.8938980103 33.6420364380 40.9412231445
-17.9052276611 33.6703567505 40.7472801208
-17.9058208466 33.6766700745 40.5487785339
-17.9002571106 33.6703605652 40.3476371765
-17.8923110962 33.6591682434 40.1454505920
-17.8832073212 33.6456031799 39.9427337646
-17.8725509644 33.6288604736 39.7393150330
-17.8602790833 33.6088027954 39.5351524353
-17.8476982117 33.5881156921 39.3308143616
-17.8368797302 33.5710411072 39.1272010803
-17.8292255402 33.5604515076 38.9249343872
-17.8248233795 33.5565299988 38.7240676880
-17.8230457306 33.5579872131 38.5243377686
-17.8234958649 33.5640106201 38.3255805969
-17.8264694214 33.5752067566 38.1279335022
-17.8328266144 33.5933341980 37.9317970276
-17.8434028625 33.6201133728 37.7375526428
-17.8582324982 33.6556015015 37.5452346802
-17.8760395050 33.6971969604 37.3542938232
-17.8944110870 33.7399482727 37.1636505127
-17.9104690552 33.7779502869 36.9720039368
-17.9217739105 33.8062171936 36.7782363892
-17.9275016785 33.8230552673 36.5819587708
-17.9292049408 33.8316421509 36.3838500977
-17.9300003052 33.8383750916 36.1853218079
-17.9324245453 33.8484420776 35.9875373840
-17.9369697571 33.8628540039 35.7907295227
-17.9427127838 33.8797187805 35.5944824219
-17.9489517212 33.8975982666 35.3984718323
-17.9558372498 33.9168052673 35.2027740479
-17.9635028839 33.9376144409 35.0074501038
-17.9709835052 33.9580383301 34.8120536804
-17.9763240814 33.9740791321 34.6156692505
-17.9779033661 33.9824180603 34.4175186157
-17.9757919312 33.9831886292 34.2176208496
-17.9720401764 33.9806022644 34.0169296265
-17.9697265625 33.9809646606 33.8169059753
-17.9714317322 33.9895553589 33.6187820435
-17.9780902863 34.0083007813 33.4230270386
-17.9886512756 34.0350303650 33.2291526794
-18.0005645752 34.0645370483 33.0359497070
-18.0109958649 34.0910072327 32.8420600891
-18.0181217194 34.1107025146 32.6465950012
-18.0216636658 34.1230583191 32.4494018555
-18.0224151611 34.1296958923 32.2508506775
-18.0214328766 34.1327857971 32.0514488220
-18.0195217133 34.1339721680 31.8515777588
-18.0171165466 34.1341438293 31.6514530182
-18.0143547058 34.1335868835 31.4511375427
-18.0111827850 34.1321945190 31.2506027222
-18.0075359344 34.1298255920 31.0498161316
-18.0036296844 34.1269264221 30.8488826752
-18.0003166199 34.1252441406 30.6482257843
-17.9992504120 34.1281623840 30.4486732483
-18.0025691986 34.1400604248 30.2513103485
-18.0118522644 34.1641769409 30.0569458008
-18.0265884399 34.1994590759 29.8653507233
-18.0436019897 34.2393989563 29.6749420166
-18.0589160919 34.2758636475 29.4837112427
-18.0710697174 34.3058547974 29.2909107208
-18.0824222565 34.3342018127 29.0977287292
-18.0966587067 34.3684539795 28.9060459137
-18.1149787903 34.4110679626 28.7164897919
-18.1348419189 34.4568443298 28.5277748108
-18.1521015167 34.4972839355 28.3377628326
-18.1638393402 34.5264167786 28.1449394226
-18.1694488525 34.5430030823 27.9489631653
-18.1699810028 34.5491905212 27.7503547668
-18.1671352386 34.5484619141 27.5499782562
-18.1627006531 34.5444831848 27.3487548828
-18.1582889557 34.5405502319 27.1475219727
-18.1551628113 34.5392532349 26.9469451904
-18.1541671753 34.5423126221 26.7474746704
-18.1558017731 34.5507583618 26.5493831635
-18.1604785919 34.5654335022 26.3529014587
-18.1687316895 34.5874328613 26.1583290100
-18.1810531616 34.6177558899 25.9659385681
-18.1972694397 34.6560554504 25.7756576538
-18.2159137726 34.6993217468 25.5867195129
-18.2342128754 34.7418823242 25.3976383209
-18.2489662170 34.7771797180 25.2066936493
-18.2581005096 34.8009757996 25.0127468109
-18.2621269226 34.8143196106 24.8160533905
-18.2642230988 34.8237075806 24.6183128357
-18.2683315277 34.8372154236 24.4216670990
-18.2765522003 34.8591423035 24.2272701263
-18.2879390717 34.8875465393 24.0346221924
-18.2994747162 34.9162559509 23.8420829773
-18.3080348969 34.9388771057 23.6479301453
-18.3117542267 34.9515876770 23.4511241913
-18.3103847504 34.9538803101 23.2515029907
-18.3054332733 34.9488449097 23.0498847961
-18.3001995087 34.9432373047 22.8480873108
-18.2985172272 34.9448890686 22.6482467651
-18.3022079468 34.9575424194 22.4513969421
-18.3098926544 34.9783706665 22.2567882538
-18.3188381195 35.0017776489 22.0629043579
-18.3278045654 35.0252227783 21.8690471649
-18.3377761841 35.0507316589 21.6757774353
-18.3503131866 35.0814857483 21.4839801788
-18.3655281067 35.1177177429 21.2937335968
-18.3814487457 35.1553955078 21.1039237976
-18.3950996399 35.1884269714 20.9128551483
-18.4042644501 35.2122726440 20.7192535400
-18.4084682465 35.2259750366 20.5228252411
-18.4086570740 35.2314605713 20.3240928650
-18.4062614441 35.2316551208 20.1238632202
-18.4025287628 35.2291145325 19.9228458405
-18.3983325958 35.2256317139 19.7215423584
-18.3942527771 35.2223854065 19.5202865601
-18.3906669617 35.2201461792 19.3192958832
-18.3878059387 35.2193908691 19.1187133789
-18.3857841492 35.2203559875 18.9186038971
-18.3846244812 35.2230834961 18.7189865112
-18.3842926025 35.2275047302 18.5198459625
-18.3848171234 35.2336769104 18.3211994171
-18.3864593506 35.2421417236 18.1232070923
-18.3899650574 35.2544136047 17.9263153076
-18.3967170715 35.2733268738 17.7313537598
-18.4085807800 35.3026962280 17.5394458771
-18.4271907806 35.3458633423 17.3515872955
-18.4529514313 35.4036560059 17.1680526733
-18.4843406677 35.4729614258 16.9879589081
-18.5180530548 35.5470161438 16.8093433380
-18.5501422882 35.6177520752 16.6298408508
-18.5777244568 35.6792602539 16.4476985931
-18.5999832153 35.7298851013 16.2624092102
-18.6176395416 35.7710914612 16.0743827820
-18.6315975189 35.8047370911 15.8841514587
-18.6423206329 35.8317604065 15.6919794083
-18.6501598358 35.8528900146 15.4980688095
-18.6556339264 35.8691749573 15.3027238846
-18.6591606140 35.8814811707 15.1061906815
-18.6607952118 35.8899192810 14.9084968567
-18.6604366302 35.8942832947 14.7095699310
-18.6582469940 35.8948974609 14.5095014572
-18.6548500061 35.8930473328 14.3086709976
-18.6512184143 35.8907165527 14.1076774597
-18.6484069824 35.8900642395 13.9071760178
-18.6473274231 35.8929519653 13.7077388763
-18.6487121582 35.9008789063 13.5098314285
-18.6531848907 35.9151191711 13.3138570786
-18.6611461639 35.9364967346 13.1200809479
-18.6722831726 35.9643630981 12.9283180237
-18.6852321625 35.9959335327 12.7377243042
-18.6981163025 36.0273742676 12.5471191406
-18.7097644806 36.0562858582 12.3557586670
-18.7205123901 36.0833549500 12.1638536453
-18.7318058014 36.1115379333 11.9723167419
-18.7449111938 36.1434288025 11.7819643021
-18.7599964142 36.1793632507 11.5929069519
-18.7763729095 36.2179374695 11.4047136307
-18.7933940887 36.2578315735 11.2169761658
-18.8107547760 36.2984123230 11.0294971466
-18.8281059265 36.3389778137 10.8420543671
-18.8448619843 36.3783226013 10.6542692184
-18.8603305817 36.4150390625 10.4656896591
-18.8736648560 36.4473838806 10.2757587433
-18.8837966919 36.4731864929 10.0837717056
-18.8897361755 36.4904212952 9.8890695572
-18.8909416199 36.4979743958 9.6912784576
-18.8875064850 36.4960441589 9.4904384613
-18.8803787231 36.4865684509 9.2871541977
-18.8714656830 36.4734382629 9.0826644897
-18.8630867004 36.4614105225 8.8784952164
-18.8570690155 36.4542007446 8.6758537292
-18.8543338776 36.4537048340 8.4753646851
-18.8552379608 36.4606513977 8.2772798538
-18.8598403931 36.4751510620 8.0816516876
-18.8675918579 36.4960861206 7.8881306648
-18.8770427704 36.5204925537 7.6957607269
-18.8863677979 36.5446472168 7.5033264160
-18.8944625854 36.5662803650 7.3100833893
-18.9015712738 36.5858993530 7.1161932945
-18.9090118408 36.6062011719 6.9225401878
-18.9183025360 36.6302795410 6.7301511765
-18.9302234650 36.6597328186 6.5395627022
-18.9444313049 36.6938591003 6.3505549431
-18.9601802826 36.7311325073 6.1626286507
-18.9775524139 36.7717247009 5.9758472443
-18.9976234436 36.8178291321 5.7909522057
-19.0209102631 36.8704986572 5.6083097458
-19.0457935333 36.9264335632 5.4268226624
-19.0690155029 36.9789695740 5.2442564964
-19.0877513885 37.0223388672 5.0586590767
-19.1007938385 37.0540771484 4.8691759109
-19.1080055237 37.0738983154 4.6756858826
-19.1096839905 37.0824165344 4.4783720970
-19.1069011688 37.0818214417 4.2779560089
-19.1017532349 37.0763931274 4.0758748055
-19.0965785980 37.0709114075 3.8737533092
-19.0929603577 37.0686073303 3.6726965904
-19.0914936066 37.0707015991 3.4731297493
-19.0922012329 37.0772399902 3.2750780582
-19.0949325562 37.0879096985 3.0784435272
-19.0995140076 37.1023559570 2.8831138611
-19.1057109833 37.1201057434 2.6889314651
-19.1131553650 37.1404037476 2.4956421852
-19.1215038300 37.1625480652 2.3030076027
-19.1308002472 37.1866264343 2.1110637188
-19.1415119171 37.2135963440 1.9201467037
-19.1539535522 37.2441024780 1.7304890156
-19.1675395966 37.2769393921 1.5416771173
-19.1805229187 37.3085479736 1.3524638414
-19.1906414032 37.3343009949 1.1612238884
-19.1963348389 37.3510169983 0.9668198824
-19.1975975037 37.3586883545 0.7692310214
-19.1960411072 37.3605995178 0.5696004033
-19.1945190430 37.3625793457 0.3699819148
-19.1967926025 37.3723144531 0.1731051803
-6.8299603462 35.7987747192 80.4893875122
-6.8300008774 35.8151359558 80.2924194336
-6.8312349319 35.8400726318 80.0959930420
-6.8320655823 35.8621139526 79.8993988037
-6.8313364983 35.8729438782 79.7021179199
-6.8288521767 35.8711700439 79.5040283203
