-34.0922737122 16.7901248932 72.6983642578
-34.1130409241 16.8011894226 72.5027465820
-34.1931495667 16.8439655304 72.3129653931
-34.3270988464 16.9155120850 72.1286010742
-34.5025215149 17.0092201233 71.9485321045
-34.7016983032 17.1156234741 71.7710876465
-34.9042701721 17.2238388062 71.5942611694
-35.0934448242 17.3248977661 71.4163513184
-35.2610282898 17.4144191742 71.2364883423
-35.4063949585 17.4920654297 71.0545730591
-35.5315246582 17.5588989258 70.8707580566
-35.6376686096 17.6155872345 70.6851272583
-35.7251510620 17.6623039246 70.4976806641
-35.7940063477 17.6990642548 70.3083801270
-35.8441734314 17.7258396149 70.1171798706
-35.8755645752 17.7425823212 69.9240264893
-35.8882408142 17.7493247986 69.7288894653
-35.8826751709 17.7463169098 69.5317764282
-35.8605690002 17.7344722748 69.3328475952
-35.8265304565 17.7162494659 69.1325607300
-35.7892532349 17.6962966919 68.9318542480
-35.7600021362 17.6806335449 68.7319869995
-35.7475280762 17.6739349365 68.5339508057
-35.7531929016 17.6769294739 68.3379364014
-35.7721557617 17.6870307922 68.1434326172
-35.8010444641 17.7024345398 67.9500732422
-35.8439140320 17.7253093719 67.7583618164
-35.9094390869 17.7602939606 67.5693206787
-36.0020217896 17.8097343445 67.3835144043
-36.1161384583 17.8706836700 67.2003555298
-36.2399139404 17.9367942810 67.0184860229
-36.3638000488 18.0029640198 66.8367919922
-36.4847450256 18.0675621033 66.6549224854
-36.6019630432 18.1301670074 66.4727630615
-36.7103538513 18.1880569458 66.2896957397
-36.8000221252 18.2359409332 66.1045074463
-36.8629417419 18.2695312500 65.9161682129
-36.8996009827 18.2890892029 65.7246856689
-36.9183387756 18.2990703583 65.5310287476
-36.9281082153 18.3042564392 65.3362808228
-36.9321861267 18.3064041138 65.1408233643
-36.9288597107 18.3045940399 64.9444351196
-36.9162597656 18.2978267670 64.7468643188
-36.8948631287 18.2863636017 64.5481491089
-36.8671684265 18.2715282440 64.3485870361
-36.8389167786 18.2564010620 64.1489105225
-36.8215637207 18.2470951080 63.9505920410
-36.8297691345 18.2514457703 63.7555580139
-36.8729934692 18.2745113373 63.5651016235
-36.9491539001 18.3151798248 63.3790206909
-37.0479507446 18.3679409027 63.1960296631
-37.1607894897 18.4282073975 63.0150337219
-37.2862472534 18.4952163696 62.8358726501
-37.4253387451 18.5695133209 62.6587104797
-37.5735092163 18.6486587524 62.4829597473
-37.7193222046 18.7265472412 62.3070945740
-37.8502006531 18.7964534760 62.1293907166
-37.9579849243 18.8540191650 61.9486999512
-38.0403022766 18.8979759216 61.7646484375
-38.0995140076 18.9295845032 61.5775070190
-38.1415901184 18.9520378113 61.3880577087
-38.1749992371 18.9698581696 61.1974487305
-38.2081832886 18.9875602722 61.0068473816
-38.2459030151 19.0076828003 60.8169212341
-38.2873840332 19.0298175812 60.6275749207
-38.3280143738 19.0514984131 60.4381599426
-38.3625831604 19.0699367523 60.2479248047
-38.3874588013 19.0831985474 60.0563354492
-38.4013252258 19.0905761719 59.8631744385
-38.4048385620 19.0924205780 59.6685180664
-38.3999328613 19.0897655487 59.4726295471
-38.3895416260 19.0841827393 59.2759208679
-38.3781471252 19.0780601501 59.0790367126
-38.3721809387 19.0748386383 58.8829383850
-38.3793830872 19.0786552429 58.6887817383
-38.4071044922 19.0934371948 58.4976997375
-38.4600639343 19.1217060089 58.3104476929
-38.5379562378 19.1632976532 58.1270332336
-38.6348609924 19.2150478363 57.9466094971
-38.7419929504 19.2722663879 57.7678756714
-38.8519172668 19.3309764862 57.5897102356
-38.9599227905 19.3886604309 57.4113998413
-39.0617065430 19.4430198669 57.2322731018
-39.1508941650 19.4906482697 57.0513229370
-39.2201194763 19.5276088715 56.8673744202
-39.2650337219 19.5515785217 56.6796989441
-39.2873344421 19.5634632111 56.4885177612
-39.2939147949 19.5669479370 56.2948684692
-39.2927246094 19.5662784576 56.0999870300
-39.2888259888 19.5641632080 55.9046592712
-39.2836418152 19.5613613129 55.7091140747
-39.2769432068 19.5577487946 55.5133094788
-39.2688255310 19.5533771515 55.3172569275
-39.2602920532 19.5487842560 55.1211166382
-39.2532577515 19.5449943542 54.9251976013
-39.2502059937 19.5433311462 54.7299156189
-39.2533226013 19.5449638367 54.5356369019
-39.2640266418 19.5506515503 54.3426094055
-39.2844543457 19.5615348816 54.1512031555
-39.3203506470 19.5806865692 53.9623985291
-39.3813056946 19.6132259369 53.7778358459
-39.4746093750 19.6630554199 53.5987930298
-39.5967140198 19.7282733917 53.4247398376
-39.7322883606 19.8006916046 53.2531394958
-39.8638191223 19.8709468842 53.0810356140
-39.9818954468 19.9340133667 52.9068069458
-40.0861129761 19.9896736145 52.7303581238
-40.1780929565 20.0387935638 52.5519371033
-40.2551078796 20.0799179077 52.3710441589
-40.3094177246 20.1089076996 52.1863021851
-40.3323631287 20.1211376190 51.9961547852
-40.3201904297 20.1146011353 51.7998695374
-40.2783012390 20.0921840668 51.5983238220
-40.2206230164 20.0613269806 51.3939208984
-40.1628036499 20.0303993225 51.1894035339
-40.1134071350 20.0039691925 50.9862937927
-40.0707855225 19.9811611176 50.7843170166
-40.0296669006 19.9591541290 50.5825424194
-39.9912643433 19.9386005402 50.3811912537
-39.9662055969 19.9251766205 50.1821937561
-39.9672317505 19.9256935120 49.9878921509
-39.9993515015 19.9428253174 49.7992591858
-40.0568046570 19.9734954834 49.6153068542
-40.1289291382 20.0120048523 49.4341201782
-40.2078590393 20.0541534424 49.2542915344
-40.2899246216 20.0979766846 49.0751419067
-40.3717041016 20.1416435242 48.8960494995
-40.4483413696 20.1825675964 48.7161064148
-40.5161781311 20.2187862396 48.5346145630
-40.5748748779 20.2501201630 48.3514862061
-40.6266098022 20.2777347565 48.1671218872
-40.6741676331 20.3031177521 47.9820289612
-40.7192192078 20.3271617889 47.7965202332
-40.7612190247 20.3495731354 47.6104812622
-40.7979888916 20.3691902161 47.4234924316
-40.8276443481 20.3850059509 47.2351799011
-40.8493423462 20.3965682983 47.0453605652
-40.8623123169 20.4034671783 46.8538703918
-40.8660125732 20.4054126740 46.6605911255
-40.8618774414 20.4031696320 46.4657745361
-40.8534965515 20.3986587524 46.2701110840
-40.8444328308 20.3937835693 46.0742950439
-40.8370513916 20.3898067474 45.8787879944
-40.8340034485 20.3881454468 45.6841201782
-40.8399658203 20.3912982941 45.4912338257
-40.8612594604 20.4026470184 45.3014068604
-40.9036483765 20.4252681732 45.1158294678
-40.9694709778 20.4604091644 44.9350090027
-41.0553970337 20.5062961578 44.7583351135
-41.1526451111 20.5582332611 44.5840644836
-41.2507019043 20.6105995178 44.4100875854
-41.3426437378 20.6597023010 44.2350006104
-41.4275741577 20.7050552368 44.0585975647
-41.5076980591 20.7478408813 43.8813209534
-41.5831565857 20.7881336212 43.7031860352
-41.6502075195 20.8239326477 43.5234146118
-41.7043380737 20.8528270721 43.3410530090
-41.7440452576 20.8740158081 43.1557540894
-41.7712059021 20.8884983063 42.9678840637
-41.7885971069 20.8977584839 42.7779960632
-41.7977905273 20.9026412964 42.5864028931
-41.7988281250 20.9031620026 42.3930892944
-41.7908058167 20.8988418579 42.1978530884
-41.7723617554 20.8889541626 42.0003852844
-41.7421493530 20.8727760315 41.8003692627
-41.7002296448 20.8503437042 41.5978012085
-41.6503524780 20.8236579895 41.3934555054
-41.6009635925 20.7972316742 41.1891365051
-41.5627136230 20.7767581940 40.9871444702
-41.5432624817 20.7663326263 40.7891616821
-41.5438117981 20.7665939331 40.5954933167
-41.5606880188 20.7755794525 40.4053802490
-41.5901565552 20.7912960052 40.2180366516
-41.6314392090 20.8133258820 40.0333213806
-41.6856575012 20.8422660828 39.8515052795
-41.7526206970 20.8780193329 39.6725730896
-41.8291130066 20.9188652039 39.4958419800
-41.9101295471 20.9621257782 39.3202209473
-41.9905929565 21.0050926208 39.1445808411
-42.0644721985 21.0445442200 38.9675750732
-42.1231231689 21.0758533478 38.7872428894
-42.1579971313 21.0944595337 38.6016311646
-42.1678352356 21.0996837616 38.4104042053
-42.1627578735 21.0969371796 38.2158012390
-42.1589012146 21.0948448181 38.0214576721
-42.1668968201 21.0990848541 37.8298072815
-42.1844825745 21.1084499359 37.6403541565
-42.1997756958 21.1165924072 37.4503898621
-42.2015724182 21.1175212860 37.2573318481
-42.1873321533 21.1098766327 37.0605621338
-42.1634063721 21.0970592499 36.8615188599
-42.1395111084 21.0842571259 36.6624412537
-42.1232414246 21.0755329132 36.4650993347
-42.1182823181 21.0728492737 36.2703704834
-42.1257781982 21.0768241882 36.0785484314
-42.1463470459 21.0877838135 35.8898010254
-42.1811141968 21.1063308716 35.7044296265
-42.2312316895 21.1330814362 35.5227279663
-42.2959327698 21.1676254272 35.3445549011
-42.3707618713 21.2075805664 35.1688804626
-42.4487037659 21.2492008209 34.9940452576
-42.5245895386 21.2897205353 34.8188171387
-42.5986747742 21.3292808533 34.6432609558
-42.6754379272 21.3702716827 34.4684486389
-42.7585296631 21.4146442413 34.2952651978
-42.8468627930 21.4618148804 34.1234588623
-42.9350624084 21.5089168549 33.9517440796
-43.0166244507 21.5524711609 33.7785263062
-43.0859680176 21.5894966125 33.6024246216
-43.1384124756 21.6174926758 33.4222755432
-43.1698417664 21.6342563629 33.2370185852
-43.1770057678 21.6380519867 33.0458106995
-43.1580924988 21.6279125214 32.8481521606
-43.1135330200 21.6040687561 32.6440963745
-43.0470504761 21.5685081482 32.4345130920
-42.9657478333 21.5250282288 32.2211265564
-42.8777236938 21.4779567719 32.0059318542
-42.7883186340 21.4301452637 31.7902545929
-42.6989212036 21.3823375702 31.5744457245
-42.6107826233 21.3352050781 31.3588161469
-42.5303955078 21.2922134399 31.1450157166
-42.4694290161 21.2596015930 30.9360218048
-42.4378738403 21.2427062988 30.7344207764
-42.4373283386 21.2423820496 30.5406818390
-42.4613609314 21.2551937103 30.3532276154
-42.5019264221 21.2768402100 30.1700420380
-42.5546913147 21.3050041199 29.9900474548
-42.6184387207 21.3390407562 29.8129558563
-42.6907577515 21.3776550293 29.6381645203
-42.7656402588 21.4176406860 29.4641342163
-42.8354339600 21.4549064636 29.2888774872
-42.8940200806 21.4861831665 29.1107864380
-42.9373016357 21.5092792511 28.9287662506
-42.9611244202 21.5219802856 28.7416915894
-42.9605979919 21.5216655731 28.5482349396
-42.9331283569 21.5069541931 28.3476581573
-42.8823394775 21.4797801971 28.1408653259
-42.8179168701 21.4453201294 27.9303722382
-42.7511482239 21.4096069336 27.7191543579
-42.6908073425 21.3773288727 27.5095481873
-42.6424598694 21.3514595032 27.3030548096
-42.6097793579 21.3339633942 27.1006832123
-42.5952873230 21.3261852264 26.9031486511
-42.5995483398 21.3284301758 26.7106418610
-42.6202621460 21.3394680023 26.5225791931
-42.6532821655 21.3570823669 26.3378734589
-42.6952095032 21.3794555664 26.1556262970
-42.7448387146 21.4059467316 25.9755306244
-42.8024215698 21.4366855621 25.7976684570
-42.8680610657 21.4717311859 25.6220893860
-42.9402046204 21.5102539063 25.4483814240
-43.0143890381 21.5498657227 25.2753295898
-43.0834884644 21.5867614746 25.1009731293
-43.1406135559 21.6172561646 24.9233913422
-43.1826896667 21.6397113800 24.7417068481
-43.2116127014 21.6551361084 24.5564155579
-43.2318420410 21.6659126282 24.3687324524
-43.2465209961 21.6737251282 24.1795177460
-43.2549858093 21.6782169342 23.9885730743
-43.2529678345 21.6771068573 23.7946853638
-43.2351799011 21.6675701141 23.5963439941
-43.1987762451 21.6480827332 23.3927078247
-43.1456527710 21.6196594238 23.1842765808
-43.0819969177 21.5856094360 22.9727687836
-43.0153045654 21.5499362946 22.7602977753
-42.9510192871 21.5155525208 22.5484123230
-42.8909263611 21.4834060669 22.3376216888
-42.8340797424 21.4529933929 22.1276683807
-42.7799873352 21.4240531921 21.9184188843
-42.7319488525 21.3983478546 21.7108268738
-42.6972198486 21.3797588348 21.5070037842
-42.6833534241 21.3723163605 21.3091640472
-42.6941604614 21.3780574799 21.1184616089
-42.7282829285 21.3962612152 20.9345550537
-42.7797012329 21.4237079620 20.7557353973
-42.8389244080 21.4553241730 20.5792636871
-42.8956069946 21.4855842590 20.4021224976
-42.9423141479 21.5105113983 20.2221221924
-42.9768371582 21.5289306641 20.0385913849
-43.0011291504 21.5418796539 19.8520774841
-43.0174522400 21.5505714417 19.6632308960
-43.0247726440 21.5544490814 19.4717254639
-43.0184974670 21.5510654449 19.2761783600
-42.9937400818 21.5378017426 19.0750999451
-42.9486389160 21.5136680603 18.8678951263
-42.8853073120 21.4797916412 18.6551551819
-42.8087234497 21.4388313293 18.4383316040
-42.7250556946 21.3940868378 18.2192573547
-42.6405067444 21.3488712311 17.9997882843
-42.5612220764 21.3064670563 17.7817821503
-42.4938011169 21.2704048157 17.5672531128
-42.4449386597 21.2442588806 17.3582592010
-42.4196395874 21.2307071686 17.1563682556
-42.4195404053 21.2306232452 16.9621315002
-42.4429588318 21.2431049347 16.7750835419
-42.4866065979 21.2663974762 16.5942687988
-42.5472145081 21.2987556458 16.4187259674
-42.6216201782 21.3384857178 16.2475166321
-42.7056159973 21.3833446503 16.0793685913
-42.7935142517 21.4302864075 15.9125413895
-42.8795166016 21.4762134552 15.7452430725
-42.9594383240 21.5188922882 15.5761671066
-43.0304336548 21.5568008423 15.4044132233
-43.0897521973 21.5884685516 15.2291021347
-43.1349563599 21.6125946045 15.0494461060
-43.1650466919 21.6286411285 14.8650979996
-43.1802291870 21.6367244720 14.6760940552
-43.1806030273 21.6368923187 14.4824304581
-43.1657180786 21.6289043427 14.2839326859
-43.1357765198 21.6128711700 14.0806341171
-43.0931396484 21.5900535583 13.8732509613
-43.0424346924 21.5629234314 13.6632299423
-42.9891510010 21.5344161987 13.4523038864
-42.9382781982 21.5071964264 13.2420644760
-42.8944931030 21.4837665558 13.0340156555
-42.8630828857 21.4669475555 12.8298692703
-42.8493499756 21.4595756531 12.6313619614
-42.8561897278 21.4631977081 12.4394636154
-42.8825225830 21.4772396088 12.2538719177
-42.9246063232 21.4996986389 12.0734138489
-42.9786033630 21.5285224915 11.8968782425
-43.0414810181 21.5620918274 11.7233018875
-43.1097984314 21.5985698700 11.5515813828
-43.1784896851 21.6352481842 11.3800745010
-43.2412796021 21.6687717438 11.2067241669
-43.2925224304 21.6961231232 11.0296611786
-43.3294372559 21.7158203125 10.8479490280
-43.3533592224 21.7285728455 10.6619949341
-43.3688468933 21.7368144989 10.4732780457
-43.3809661865 21.7432613373 10.2834596634
-43.3924713135 21.7493762970 10.0934457779
-43.4021453857 21.7545146942 9.9028310776
-43.4050445557 21.7560310364 9.7099618912
-43.3951568604 21.7507152557 9.5128164291
-43.3698692322 21.7371692657 9.3104896545
-43.3332481384 21.7175655365 9.1043148041
-43.2953720093 21.6972923279 8.8976573944
-43.2683753967 21.6828327179 8.6946029663
-43.2626190186 21.6797237396 8.4986763000
-43.2850494385 21.6916790009 8.3122730255
-43.3386688232 21.7203025818 8.1364736557
-43.4218025208 21.7646980286 7.9707751274
-43.5278167725 21.8213214874 7.8129816055
-43.6465492249 21.8847408295 7.6596732140
-43.7669448853 21.9490489960 7.5070967674
-43.8792762756 22.0090503693 7.3519210815
-43.9766120911 22.0610351563 7.1917462349
-44.0562667847 22.1035709381 7.0256161690
-44.1206665039 22.1379566193 6.8543300629
-44.1756172180 22.1672897339 6.6798620224
-44.2261505127 22.1942653656 6.5039348602
-44.2733154297 22.2194385529 6.3269009590
-44.3141098022 22.2412071228 6.1477112770
-44.3433723450 22.2568149567 5.9645533562
-44.3556861877 22.2633628845 5.7755079269
-44.3473663330 22.2588844299 5.5792503357
-44.3184280396 22.2433872223 5.3757410049
-44.2728004456 22.2189712524 5.1663169861
-44.2163734436 22.1887836456 4.9530143738
-44.1546249390 22.1557502747 4.7377448082
-44.0915412903 22.1220054626 4.5219058990
-44.0299644470 22.0890655518 4.3065018654
-43.9727821350 22.0584735870 4.0925598145
-43.9240646362 22.0324058533 3.8815391064
-43.8891029358 22.0136909485 3.6753444672
-43.8726043701 22.0048427582 3.4756844044
-43.8757743835 22.0065021515 3.2830312252
-43.8947372437 22.0166053772 3.0960392952
-43.9222145081 22.0312576294 2.9121246338
-43.9512100220 22.0467224121 2.7287890911
-43.9775772095 22.0607795715 2.5445365906
-43.9999771118 22.0727195740 2.3588814735
-44.0188179016 22.0827541351 2.1719584465
-44.0356140137 22.0916976929 1.9843131304
-44.0527725220 22.1008377075 1.7968164682
-44.0726089478 22.1114063263 1.6103106737
-44.0953750610 22.1235408783 1.4248942137
-44.1177749634 22.1354789734 1.2393682003
-44.1335220337 22.1438617706 1.0514276028
-44.1357612610 22.1450271606 0.8585403562
-44.1198234558 22.1364784241 0.6589581966
-44.0851821899 22.1179313660 0.4524478912
-44.0359573364 22.0915927887 0.2404927015
-43.9791755676 22.0612144470 0.0256596748
-19.9066333771 -11.8562822342 88.0830459595
-19.9316387177 -11.8735713959 87.8767242432
-19.9887561798 -11.9112873077 87.6712799072
-20.0761375427 -11.9682569504 87.4667205811
-20.1859283447 -12.0394792557 87.2629013062
-20.3070373535 -12.1179008484 87.0595474243
-20.4294128418 -12.1971282959 86.8563995361
-20.5461387634 -12.2727594376 86.6532363892
-20.6534996033 -12.3424320221 86.4499511719
-20.7500705719 -12.4052410126 86.2464675903
-20.8353309631 -12.4608545303 86.0427474976
-20.9089622498 -12.5090694427 85.8387603760
-20.9712715149 -12.5500812531 85.6344909668
-21.0234584808 -12.5846557617 85.4299545288
-21.0670032501 -12.6137304306 85.2251815796
-21.1029548645 -12.6379747391 85.0201950073
-21.1323585510 -12.6580553055 84.8150024414
-21.1593570709 -12.6766061783 84.6097640991
-21.1973266602 -12.7021331787 84.4049606323
-21.2753791809 -12.7531576157 84.2017440796
-21.4370632172 -12.8573732376 84.0018920898
-21.7209587097 -13.0393238068 83.8071289063
-22.1278324127 -13.2994918823 83.6177368164
-22.6043853760 -13.6039752960 83.4317779541
-23.0693778992 -13.9011011124 83.2460021973
-23.4618034363 -14.1520681381 83.0577774048
-23.7649173737 -14.3462257385 82.8662338257
-23.9927845001 -14.4925203323 82.6717987061
-24.1657505035 -14.6038951874 82.4752120972
-24.2985420227 -14.6897172928 82.2770462036
-24.4012165070 -14.7563819885 82.0776596069
-24.4827251434 -14.8095836639 81.8774261475
-24.5511322021 -14.8544530869 81.6766738892
-24.6115760803 -14.8942575455 81.4756240845
-24.6651782990 -14.9297084808 81.2743148804
-24.7101173401 -14.9596509933 81.0726394653
-24.7433948517 -14.9821758270 80.8704376221
-24.7618846893 -14.9952964783 80.6675109863
-24.7626934052 -14.9971704483 80.4636917114
-24.7436580658 -14.9864253998 80.2588195801
-24.7040348053 -14.9625873566 80.0528182983
-24.6441421509 -14.9258604050 79.8456573486
-24.5636043549 -14.8760032654 79.6372756958
-24.4606952667 -14.8119192123 79.4275283813
-24.3354492188 -14.7336311340 79.2163848877
-24.1941947937 -14.6451644897 79.0041351318
-24.0496673584 -14.5546178818 78.7914962769
-23.9157257080 -14.4708042145 78.5792617798
-23.8044128418 -14.4013824463 78.3681564331
-23.7304897308 -14.3557386398 78.1591110229
-23.7142257690 -14.3467617035 77.9534301758
-23.7704849243 -14.3839044571 77.7521438599
-23.8924789429 -14.4628486633 77.5549774170
-24.0522212982 -14.5657949448 77.3603363037
-24.2203483582 -14.6740732193 77.1664428711
-24.3830833435 -14.7789201736 76.9724349976
-24.5407123566 -14.8805198669 76.7783126831
-24.6956710815 -14.9804191589 76.5842361450
-24.8450069427 -15.0767412186 76.3899917603
-24.9812927246 -15.1647653580 76.1950836182
-25.0972499847 -15.2398595810 75.9989929199
-25.1894435883 -15.2998437881 75.8014373779
-25.2594757080 -15.3457345963 75.6024856567
-25.3156318665 -15.3828020096 75.4026489258
-25.3791980743 -15.4245815277 75.2034072876
-25.4964790344 -15.5005140305 75.0080566406
-25.7426319122 -15.6583881378 74.8220977783
-26.1900177002 -15.9442129135 74.6510238647
-26.8403282166 -16.3590602875 74.4953918457
-27.5848999023 -16.8338356018 74.3476257324
-28.2601318359 -17.2645168304 74.1957473755
-28.7567157745 -17.5816020966 74.0313873291
-29.0707263947 -17.7825984955 73.8538665771
-29.2626380920 -17.9059619904 73.6674346924
-29.3919200897 -17.9895019531 73.4764328003
-29.4882755280 -18.0521049500 73.2830352783
-29.5586147308 -18.0981674194 73.0877151489
-29.6032352448 -18.1278781891 72.8904418945
-29.6256504059 -18.1434688568 72.6914443970
-29.6332759857 -18.1496582031 72.4912796021
-29.6324825287 -18.1504936218 72.2904281616
-29.6257324219 -18.1475429535 72.0890808105
-29.6145973206 -18.1418037415 71.8873443604
-29.6048316956 -18.1369342804 71.6856994629
-29.6070041656 -18.1396579742 71.4850463867
-29.6326217651 -18.1572856903 71.2863693237
-29.6905059814 -18.1954250336 71.0904998779
-29.7847576141 -18.2566852570 70.8978424072
-29.9130802155 -18.3396053314 70.7082824707
-30.0671691895 -18.4389057159 70.5211563110
-30.2369632721 -18.5481891632 70.3356399536
-30.4151058197 -18.6627750397 70.1510925293
-30.5971603394 -18.7798500061 69.9671478271
-30.7787036896 -18.8965969086 69.7834014893
-30.9539127350 -19.0093154907 69.5993270874
-31.1173820496 -19.1145687103 69.4144058228
-31.2665405273 -19.2107238770 69.2283859253
-31.4015808105 -19.2979030609 69.0412445068
-31.5228862762 -19.3763484955 68.8529891968
-31.6285190582 -19.4448318481 68.6634063721
-31.7135734558 -19.5002307892 68.4720001221
-31.7711277008 -19.5381488800 68.2780532837
-31.7945556641 -19.5543727875 68.0808639526
-31.7814750671 -19.5473899841 67.8801269531
-31.7376079559 -19.5208358765 67.6763305664
-31.6768493652 -19.4835453033 67.4707870483
-31.6170978546 -19.4468975067 67.2652511597
-31.5751972198 -19.4215946198 67.0614166260
-31.5634651184 -19.4154701233 66.8605728149
-31.5875968933 -19.4321422577 66.6633605957
-31.6464748383 -19.4708995819 66.4697494507
-31.7346343994 -19.5282688141 66.2792434692
-31.8456516266 -19.6001663208 66.0912399292
-31.9738788605 -19.6830024719 65.9051818848
-32.1145401001 -19.7737426758 65.7206192017
-32.2637863159 -19.8699340820 65.5371551514
-32.4183921814 -19.9695339203 65.3544692993
-32.5742530823 -20.0699291229 65.1721267700
-32.7250328064 -20.1670932770 64.9894485474
-32.8626785278 -20.2559070587 64.8055419922
-32.9795646667 -20.3315277100 64.6195373535
-33.0712471008 -20.3911266327 64.4309082031
-33.1385345459 -20.4352188110 64.2396774292
-33.1868247986 -20.4672374725 64.0464096069
-33.2221603394 -20.4910221100 63.8517456055
-33.2473449707 -20.5083541870 63.6559677124
-33.2617797852 -20.5188541412 63.4589881897
-33.2645263672 -20.5219268799 63.2606811523
-33.2576293945 -20.5188694000 63.0612525940
-33.2475967407 -20.5138187408 62.8614425659
-33.2444877625 -20.5131664276 62.6624183655
-33.2589454651 -20.5236835480 62.4654502869
-33.2999763489 -20.5510845184 62.2716369629
-33.3756523132 -20.6005058289 62.0820007324
-33.4940986633 -20.6771068573 61.8975906372
-33.6598205566 -20.7837524414 61.7190399170
-33.8672637939 -20.9169101715 61.5457687378
-34.0995826721 -21.0658740997 61.3758201599
-34.3358802795 -21.2173652649 61.2066802979
-34.5606613159 -21.3615360260 61.0364494324
-34.7674407959 -21.4942626953 60.8642921448
-34.9555015564 -21.6150932312 60.6900863647
-35.1245613098 -21.7238464355 60.5137519836
-35.2718124390 -21.8187389374 60.3348960876
-35.3921928406 -21.8965568542 60.1528320313
-35.4807319641 -21.9541378021 59.9668655396
-35.5353546143 -21.9901657104 59.7766647339
-35.5585479736 -22.0062198639 59.5824737549
-35.5572280884 -22.0066967010 59.3851280212
-35.5411987305 -21.9978275299 59.1858520508
-35.5211334229 -21.9863929749 58.9860191345
-35.5066871643 -21.9785289764 58.7868843079
-35.5053672791 -21.9790077209 58.5894622803
-35.5220031738 -21.9908943176 58.3944282532
-35.5585861206 -22.0154571533 58.2020759583
-35.6150321960 -22.0526428223 58.0124473572
-35.6912765503 -22.1024055481 57.8255729675
-35.7888259888 -22.1657066345 57.6416969299
-35.9098281860 -22.2439079285 57.4611625671
-36.0546646118 -22.3372535706 57.2840690613
-36.2205772400 -22.4439888000 57.1100883484
-36.4011306763 -22.5600261688 56.9383697510
-36.5857200623 -22.6786251068 56.7674636841
-36.7605400085 -22.7910156250 56.5954399109
-36.9122505188 -22.8887214661 56.4203948975
-37.0321693420 -22.9662246704 56.2410469055
-37.1180267334 -23.0220870972 56.0570030212
-37.1731262207 -23.0584049225 55.8686676025
-37.2042617798 -23.0794963837 55.6769523621
-37.2194252014 -23.0904407501 55.4829597473
-37.2259292603 -23.0958824158 55.2877235413
-37.2295494080 -23.0994911194 55.0920639038
-37.2345809937 -23.1039981842 54.8966102600
-37.2438964844 -23.1112270355 54.7017860413
-37.2587890625 -23.1219978333 54.5077934265
-37.2793769836 -23.1363868713 54.3146629333
-37.3058929443 -23.1545448303 54.1224403381
-37.3397026062 -23.1773338318 53.9313430786
-37.3831787109 -23.2062644958 53.7417449951
-37.4392662048 -23.2432060242 53.5541152954
-37.5117034912 -23.2905349731 53.3690490723
-37.6048736572 -23.3510360718 53.1872558594
-37.7217369080 -23.4265880585 53.0092353821
-37.8604545593 -23.5160198212 52.8347511292
-38.0127449036 -23.6140747070 52.6625633240
-38.1664466858 -23.7130260468 52.4908065796
-38.3106384277 -23.8059329987 52.3177680969
-38.4390258789 -23.8888015747 52.1424331665
-38.5495758057 -23.9603347778 51.9644546509
-38.6422119141 -24.0204868317 51.7837753296
-38.7173652649 -24.0695323944 51.6004333496
-38.7758026123 -24.1079597473 51.4145050049
-38.8181457520 -24.1361598969 51.2260589600
-38.8437500000 -24.1537303925 51.0349617004
-38.8509330750 -24.1595954895 50.8408927917
-38.8393821716 -24.1535625458 50.6437721252
-38.8128890991 -24.1380348206 50.4441757202
-38.7796936035 -24.1182518005 50.2434310913
-38.7505035400 -24.1010131836 50.0432929993
-38.7356567383 -24.0928859711 49.8454856873
-38.7431831360 -24.0989723206 49.6513786316
-38.7783432007 -24.1226100922 49.4619026184
-38.8439598083 -24.1655941010 49.2775917053
-38.9403114319 -24.2280979156 49.0985527039
-39.0643959045 -24.3082199097 48.9243469238
-39.2098655701 -24.4019222260 48.7539520264
-39.3681373596 -24.5037574768 48.5859489441
-39.5299682617 -24.6078491211 48.4187698364
-39.6867446899 -24.7087306976 48.2509422302
-39.8318748474 -24.8022136688 48.0813140869
-39.9619789124 -24.8861484528 47.9092674255
-40.0766754150 -24.9602985382 47.7347106934
-40.1769866943 -25.0253105164 47.5577888489
-40.2638359070 -25.0817699432 47.3786277771
-40.3377075195 -25.1299877167 47.1972923279
-40.3987541199 -25.1700592041 47.0137748718
-40.4466972351 -25.2018051147 46.8280029297
-40.4807662964 -25.2247409821 46.6398086548
-40.5001220703 -25.2383308411 46.4490127563
-40.5044479370 -25.2423744202 46.2555274963
-40.4942512512 -25.2371959686 46.0594100952
-40.4715118408 -25.2240505219 45.8609886169
-40.4417648315 -25.2064552307 45.6612510681
-40.4164466858 -25.1916732788 45.4622726440
-40.4108200073 -25.1893959045 45.2668685913
-40.4363021851 -25.2068786621 45.0771903992
-40.4940528870 -25.2448520660 44.8935203552
-40.5768890381 -25.2987575531 44.7145881653
-40.6765594482 -25.3633518219 44.5389060974
-40.7877845764 -25.4352836609 44.3655281067
-40.9068679810 -25.5122070313 44.1937751770
-41.0291557312 -25.5911636353 44.0227890015
-41.1490898132 -25.6686248779 43.8515243530
-41.2626647949 -25.7420425415 43.6792106628
-41.3697280884 -25.8113288879 43.5058097839
-41.4736518860 -25.8786182404 43.3319473267
-41.5779762268 -25.9461593628 43.1583061218
-41.6824798584 -26.0138168335 42.9848365784
-41.7816619873 -26.0780925751 42.8104743958
-41.8666648865 -26.1333656311 42.6334915161
-41.9291915894 -26.1743602753 42.4522285461
-41.9646568298 -26.1981735229 42.2657470703
-41.9733505249 -26.2049846649 42.0740394592
-41.9597053528 -26.1976108551 41.8779258728
-41.9306030273 -26.1804237366 41.6787223816
-41.8936309814 -26.1582355499 41.4779014587
-41.8560295105 -26.1356525421 41.2768974304
-41.8245887756 -26.1169795990 41.0770645142
-41.8060302734 -26.1064872742 40.8797645569
-41.8068771362 -26.1083164215 40.6863479614
-41.8319931030 -26.1255569458 40.4978332520
-41.8828468323 -26.1591396332 40.3145713806
-41.9572219849 -26.2076568604 40.1361732483
-42.0505790710 -26.2682266235 39.9617500305
-42.1573295593 -26.3372993469 39.7902030945
-42.2711143494 -26.4108390808 39.6202507019
-42.3852424622 -26.4845943451 39.4505195618
-42.4942321777 -26.5550842285 39.2798805237
-42.5952987671 -26.6205463409 39.1077384949
-42.6879119873 -26.6806373596 38.9339637756
-42.7714691162 -26.7349796295 38.7584190369
-42.8435363770 -26.7820243835 38.5805702209
-42.9006614685 -26.8195819855 38.3996620178
-42.9409484863 -26.8464488983 38.2152633667
-42.9655342102 -26.8633441925 38.0275764465
-42.9775238037 -26.8722457886 37.8372344971
-42.9797172546 -26.8749275208 37.6448059082
-42.9731826782 -26.8720645905 37.4504966736
-42.9574279785 -26.8633480072 37.2541885376
-42.9319229126 -26.8484458923 37.0557441711
-42.8982276917 -26.8283405304 36.8554801941
-42.8611106873 -26.8060646057 36.6544151306
-42.8268470764 -26.7856006622 36.4539108276
-42.7992744446 -26.7693843842 36.2548103333
-42.7778091431 -26.7570457458 36.0570068359
-42.7604408264 -26.7473068237 35.8600654602
-42.7493286133 -26.7415409088 35.6644706726
-42.7532653809 -26.7453308105 35.4721908569
-42.7832756042 -26.7656726837 35.2857055664
-42.8443107605 -26.8057098389 35.1061744690
-42.9308891296 -26.8619594574 34.9324417114
-43.0309677124 -26.9267826080 34.7618560791
-43.1333580017 -26.9930706024 34.5919227600
-43.2312126160 -27.0564765930 34.4211044312
-43.3208847046 -27.1146888733 34.2485656738
-43.4007606506 -27.1666831970 34.0739135742
-43.4715995789 -27.2129383087 33.8973083496
-43.5358543396 -27.2550125122 33.7192878723
-43.5952301025 -27.2939891815 33.5402336121
-43.6492004395 -27.3295364380 33.3600120544
-43.6958122253 -27.3604087830 33.1781539917
-43.7330627441 -27.3853416443 32.9941902161
-43.7598152161 -27.4036083221 32.8078308105
-43.7764472961 -27.4154510498 32.6191406250
-43.7849998474 -27.4221649170 32.4285774231
-43.7884063721 -27.4256114960 32.2368087769
-43.7893943787 -27.4275264740 32.0444717407
-43.7898368835 -27.4290924072 31.8519954681
-43.7905769348 -27.4308490753 31.6595821381
-43.7917633057 -27.4328861237 31.4672679901
-43.7941284180 -27.4356727600 31.2752285004
-43.8007926941 -27.4411888123 31.0842094421
-43.8176460266 -27.4531726837 30.8956336975
-43.8511047363 -27.4756946564 30.7110633850
-43.9045600891 -27.5109081268 30.5313491821
-43.9761390686 -27.5576267242 30.3560848236
-44.0592269897 -27.6116466522 30.1837043762
-44.1453971863 -27.6676254272 30.0121841431
-44.2278633118 -27.7212486267 29.8398742676
-44.3030738831 -27.7702693939 29.6659011841
-44.3699302673 -27.8139858246 29.4899768829
-44.4280967712 -27.8521862030 29.3120021820
-44.4771080017 -27.8845767975 29.1318454742
-44.5164680481 -27.9108390808 28.9493598938
-44.5456542969 -27.9306468964 28.7644004822
-44.5634002686 -27.9431915283 28.5766258240
-44.5669593811 -27.9467334747 28.3853282928
-44.5529975891 -27.9391574860 28.1896419525
-44.5199851990 -27.9194889069 27.9891452789
-44.4696960449 -27.8888549805 27.7842426300
-44.4060707092 -27.8497600555 27.5758953094
-44.3329200745 -27.8046188354 27.3650379181
-44.2534370422 -27.7554607391 27.1524581909
-44.1718635559 -27.7049770355 26.9392242432
-44.0944061279 -27.6571083069 26.7269153595
-44.0277862549 -27.6161155701 26.5172615051
-43.9769172668 -27.5851192474 26.3115482330
-43.9437294006 -27.5653438568 26.1103057861
-43.9275703430 -27.5563755035 25.9134044647
-43.9264717102 -27.5569648743 25.7203674316
-43.9384155273 -27.5658321381 25.5307083130
-43.9621582031 -27.5821838379 25.3441276550
-43.9973411560 -27.6057968140 25.1605587006
-44.0438652039 -27.6366062164 24.9800014496
-44.1005935669 -27.6738910675 24.8021793365
-44.1641044617 -27.7154788971 24.6262149811
-44.2284240723 -27.7575798035 24.4505481720
-44.2862129211 -27.7955379486 24.2732353210
-44.3307418823 -27.8250789642 24.0924797058
-44.3575172424 -27.8433532715 23.9070568085
-44.3650245667 -27.8494014740 23.7165222168
-44.3547477722 -27.8441677094 23.5212345123
-44.3302917480 -27.8299350739 23.3221206665
-44.2954826355 -27.8091316223 23.1201782227
-44.2524528503 -27.7831153870 22.9159622192
-44.2011947632 -27.7518768311 22.7094516754
-44.1407585144 -27.7148151398 22.5003719330
-44.0710220337 -27.6718521118 22.2886676788
-43.9942283630 -27.6244144440 22.0749340057
-43.9159736633 -27.5760478973 21.8606815338
-43.8446540833 -27.5320854187 21.6482086182
-43.7889289856 -27.4980144501 21.4399070740
-43.7546119690 -27.4775314331 21.2374134064
-43.7435836792 -27.4718227386 21.0412902832
-43.7548713684 -27.4802722931 20.8513202667
-43.7858810425 -27.5012378693 20.6668300629
-43.8325576782 -27.5321407318 20.4867343903
-43.8896408081 -27.5696468353 20.3096008301
-43.9520721436 -27.6105442047 20.1340370178
-44.0165176392 -27.6527194977 19.9591178894
-44.0814857483 -27.6952266693 19.7844276428
-44.1460990906 -27.7375087738 19.6097259521
-44.2087020874 -27.7785129547 19.4345378876
-44.2661628723 -27.8162555695 19.2579746246
-44.3140602112 -27.8479290009 19.0787715912
-44.3474845886 -27.8704223633 18.8955078125
-44.3622283936 -27.8810634613 18.7069530487
-44.3560714722 -27.8784446716 18.5124301910
-44.3295898438 -27.8629302979 18.3120594025
-44.2860374451 -27.8365859985 18.1067333221
-44.2302398682 -27.8024749756 17.8978080750
-44.1673774719 -27.7638835907 17.6867523193
-44.1026840210 -27.7241325378 17.4750690460
-44.0421981812 -27.6870479584 17.2645034790
-43.9932098389 -27.6572589874 17.0571899414
-43.9630393982 -27.6394081116 16.8552913666
-43.9564247131 -27.6365013123 16.6602325439
-43.9739227295 -27.6488895416 16.4722270966
-44.0130920410 -27.6750278473 16.2906093597
-44.0709762573 -27.7130355835 16.1145553589
-44.1447257996 -27.7611083984 15.9432630539
-44.2302589417 -27.8166542053 15.7755584717
-44.3214950562 -27.8758182526 15.6096611023
-44.4112854004 -27.9340610504 15.4434547424
-44.4931297302 -27.9872665405 15.2750005722
-44.5627326965 -28.0327053070 15.1029930115
-44.6183509827 -28.0692710876 14.9268856049
-44.6595954895 -28.0967197418 14.7465314865
-44.6858253479 -28.1146450043 14.5617055893
-44.6956405640 -28.1221561432 14.3719530106
-44.6875495911 -28.1183109283 14.1767883301
-44.6613197327 -28.1029605865 13.9760999680
-44.6196365356 -28.0778083801 13.7706680298
-44.5685882568 -28.0467147827 13.5623130798
-44.5153808594 -28.0142536163 13.3532161713
-44.4648284912 -27.9834766388 13.1448478699
-44.4182052612 -27.9551925659 12.9376049042
-44.3754234314 -27.9293441772 12.7314672470
-44.3376541138 -27.9066791534 12.5268068314
-44.3078041077 -27.8890342712 12.3245306015
-44.2890815735 -27.8784484863 12.1256504059
-44.2838630676 -27.8764286041 11.9309272766
-44.2938766479 -27.8840675354 11.7409296036
-44.3207740784 -27.9024162292 11.5562038422
-44.3656196594 -27.9321479797 11.3771219254
-44.4273376465 -27.9725799561 11.2033824921
-44.5018768311 -28.0211429596 11.0337505341
-44.5834503174 -28.0741672516 10.8664312363
-44.6666374207 -28.1282138824 10.6997299194
-44.7473297119 -28.1806774139 10.5323514938
-44.8221893311 -28.2294425964 10.3632326126
-44.8879585266 -28.2724380493 10.1913223267
-44.9413337708 -28.3075771332 10.0155544281
-44.9793548584 -28.3329753876 9.8349514008
-44.9998779297 -28.3472785950 9.6488008499
-45.0021896362 -28.3500308990 9.4568309784
-44.9874610901 -28.3419761658 9.2593822479
-44.9587059021 -28.3250255585 9.0573863983
-44.9197196960 -28.3015899658 8.8520393372
-44.8739738464 -28.2738647461 8.6444406509
-44.8249168396 -28.2440452576 8.4356946945
-44.7773208618 -28.2151489258 8.2273445129
-44.7374687195 -28.1911640167 8.0214385986
-44.7115554810 -28.1760196686 7.8200154305
-44.7036628723 -28.1723003387 7.6244397163
-44.7148056030 -28.1806545258 7.4350843430
-44.7435417175 -28.2001667023 7.2515158653
-44.7877502441 -28.2294883728 7.0730729103
-44.8460884094 -28.2677707672 6.8993477821
-44.9176635742 -28.3144454956 6.7300739288
-45.0004158020 -28.3682060242 6.5645976067
-45.0903816223 -28.4265422821 6.4016284943
-45.1825942993 -28.4863014221 6.2395277023
-45.2722740173 -28.5444526672 6.0767064095
-45.3553237915 -28.5984001160 5.9117894173
-45.4282379150 -28.6459217072 5.7435894012
-45.4879150391 -28.6850471497 5.5710420609
-45.5317115784 -28.7141036987 5.3932290077
-45.5580139160 -28.7320652008 5.2095737457
-45.5668182373 -28.7389335632 5.0200357437
-45.5593452454 -28.7354793549 4.8249912262
-45.5368881226 -28.7225265503 4.6248445511
-45.5002784729 -28.7005977631 4.4198441505
-45.4505577087 -28.6703567505 4.2103152275
-45.3898353577 -28.6331443787 3.9969515800
-45.3214225769 -28.5910530090 3.7808592319
-45.2495269775 -28.5467548370 3.5634663105
-45.1790580750 -28.5033645630 3.3464519978
-45.1148452759 -28.4639396667 3.1314811707
-45.0600738525 -28.4304981232 2.9196662903
-45.0155525208 -28.4035606384 2.7113099098
-44.9810867310 -28.3829975128 2.5063631535
-44.9568977356 -28.3689498901 2.3049271107
-44.9425506592 -28.3611431122 2.1068723202
-44.9346046448 -28.3573932648 1.9110198021
-44.9268302917 -28.3537521362 1.7152061462
-44.9134063721 -28.3465309143 1.5173959732
-44.8912811279 -28.3337955475 1.3165066242
-44.8592453003 -28.3147735596 1.1120916605
-44.8159599304 -28.2886219025 0.9036605954
-44.7601432800 -28.2545242310 0.6907348037
-44.6921730042 -28.2127227783 0.4734212756
-44.6142959595 -28.1646423340 0.2524908483
-44.5290336609 -28.1118812561 0.0288172178
-25.0946807861 37.9669456482 92.9743881226
-25.1097812653 37.9911689758 92.7829284668
-25.1333541870 38.0290145874 92.5918655396
-25.1601505280 38.0720405579 92.4009933472
-25.1861705780 38.1138229370 92.2101364136
-25.2098808289 38.1518859863 92.0192337036
-25.2323932648 38.1880264282 91.8283157349
-25.2565956116 38.2268867493 91.6375198364
-25.2851181030 38.2726898193 91.4469985962
-25.3182506561 38.3259048462 91.2567672729
-25.3532276154 38.3820838928 91.0667037964
-25.3851871490 38.4334144592 90.8765563965
-25.4090023041 38.4716491699 90.6860198975
-25.4208965302 38.4907188416 90.4948730469
-25.4190177917 38.4876441956 90.3029479980
-25.4029083252 38.4616889954 90.1101760864
-25.3726596832 38.4130058289 89.9165191650
-25.3288650513 38.3425445557 89.7219543457
-25.2735519409 38.2535629272 89.5265579224
-25.2105216980 38.1521720886 89.3305435181
-25.1439437866 38.0450820923 89.1341400146
-25.0769996643 37.9374008179 88.9375457764
-25.0130500793 37.8345336914 88.7409896851
-24.9583587646 37.7465515137 88.5448989868
-24.9226474762 37.6890830994 88.3499832153
-24.9160442352 37.6784133911 88.1570281982
-24.9447288513 37.7244758606 87.9665603638
-25.0079383850 37.8260498047 87.7786712646
-25.0974655151 37.9699287415 87.5928649902
-25.2001266479 38.1349258423 87.4082412720
-25.3027439117 38.2998542786 87.2238540649
-25.3969631195 38.4512786865 87.0390472412
-25.4806728363 38.5858116150 86.8536224365
-25.5555877686 38.7061996460 86.6676940918
-25.6235294342 38.8153762817 86.4813690186
-25.6844615936 38.9132881165 86.2946166992
-25.7370071411 38.9977149963 86.1072998047
-25.7796974182 39.0662956238 85.9192733765
-25.8114433289 39.1172790527 85.7304000854
-25.8314571381 39.1494026184 85.5405731201
-25.8393192291 39.1619911194 85.3497085571
-25.8352451324 39.1553878784 85.1577987671
-25.8202152252 39.1311721802 84.9648818970
-25.7958583832 39.0919570923 84.7710571289
-25.7642688751 39.0411186218 84.5765075684
-25.7281875610 38.9830551147 84.3814468384
-25.6915531158 38.9241027832 84.1862411499
-25.6593093872 38.8722114563 83.9913635254
-25.6358871460 38.8344993591 83.7972564697
-25.6235885620 38.8146743774 83.6041870117
-25.6223564148 38.8126411438 83.4121856689
-25.6307640076 38.8261032104 83.2211456299
-25.6469345093 38.8520507813 83.0309143066
-25.6687717438 38.8871040344 82.8412933350
-25.6939830780 38.9275856018 82.6520690918
-25.7207145691 38.9705085754 82.4630508423
-25.7487525940 39.0155334473 82.2742385864
-25.7800045013 39.0657272339 82.0858230591
-25.8171482086 39.1253890991 81.8981170654
-25.8612365723 39.1962165833 81.7112579346
-25.9103183746 39.2750778198 81.5250549316
-25.9600944519 39.3550491333 81.3390350342
-26.0057125092 39.4283409119 81.1526489258
-26.0432968140 39.4887123108 80.9654388428
-26.0706577301 39.5326461792 80.7771224976
-26.0872726440 39.5593070984 80.5876007080
-26.0935192108 39.5692977905 80.3968734741
-26.0894145966 39.5626449585 80.2049179077
-26.0738830566 39.5376205444 80.0115509033
-26.0454597473 39.4918708801 79.8165740967
-26.0041275024 39.4253654480 79.6199188232
-25.9526844025 39.3426055908 79.4219055176
-25.8962345123 39.2517929077 79.2231292725
-25.8402519226 39.1617355347 79.0242691040
-25.7893562317 39.0798568726 78.8259201050
-25.7480106354 39.0133285522 78.6286849976
-25.7219333649 38.9713516235 78.4333267212
-25.7181453705 38.9652099609 78.2408370972
-25.7429141998 39.0049781799 78.0521240234
-25.7983379364 39.0940284729 77.8675765991
-25.8796138763 39.2246475220 77.6866378784
-25.9756317139 39.3789672852 77.5079040527
-26.0732536316 39.5358657837 77.3295974731
-26.1619682312 39.6784439087 77.1502838135
-26.2360801697 39.7975425720 76.9691314697
-26.2948341370 39.8919525146 76.7859725952
-26.3414268494 39.9668083191 76.6012115479
-26.3806762695 40.0298576355 76.4155044556
-26.4160900116 40.0867385864 76.2293243408
-26.4483566284 40.1385650635 76.0427627563
-26.4760417938 40.1830215454 75.8555908203
-26.4973716736 40.2172622681 75.6675338745
-26.5114917755 40.2399101257 75.4784469604
-26.5184478760 40.2510414124 75.2882995605
-26.5182075500 40.2506027222 75.0970764160
-26.5097999573 40.2370300293 74.9045867920
-26.4915237427 40.2075958252 74.7105560303
-26.4621791840 40.1603622437 74.5147476196
-26.4227027893 40.0968399048 74.3172760010
-26.3776798248 40.0244026184 74.1188278198
-26.3356819153 39.9568290710 73.9207458496
-26.3066463470 39.9100914001 73.7246322632
-26.2967872620 39.8941879272 73.5315322876
-26.3055877686 39.9082870483 73.3414382935
-26.3284931183 39.9450569153 73.1536560059
-26.3623428345 39.9994277954 72.9677276611
-26.4076652527 40.0722427368 72.7837677002
-26.4662265778 40.1663398743 72.6021270752
-26.5373802185 40.2806854248 72.4227371216
-26.6166381836 40.4080581665 72.2448730469
-26.6969470978 40.5371208191 72.0673751831
-26.7712802887 40.6565818787 71.8890304565
-26.8347969055 40.7586479187 71.7089767456
-26.8856468201 40.8403472900 71.5268630981
-26.9244060516 40.9026107788 71.3427429199
-26.9526500702 40.9479675293 71.1568374634
-26.9713382721 40.9779586792 70.9692993164
-26.9801197052 40.9920234680 70.7800216675
-26.9784507751 40.9892883301 70.5888748169
-26.9677047729 40.9719581604 70.3960723877
-26.9518432617 40.9464035034 70.2023010254
-26.9356842041 40.9203720093 70.0084228516
-26.9226093292 40.8992958069 69.8150711060
-26.9135913849 40.8847465515 69.6224365234
-26.9073772430 40.8747024536 69.4302978516
-26.9009742737 40.8643569946 69.2381057739
-26.8908252716 40.8479843140 69.0451736450
-26.8747081757 40.8220176697 68.8510665894
-26.8531608582 40.7873229980 68.6558761597
-26.8291683197 40.7486953735 68.4601516724
-26.8066768646 40.7124824524 68.2646484375
-26.7897701263 40.6852455139 68.0701828003
-26.7830104828 40.6743240356 67.8776626587
-26.7912521362 40.6875228882 67.6880874634
-26.8173580170 40.7294425964 67.5020828247
-26.8596897125 40.7974472046 67.3193817139
-26.9123954773 40.8821372986 67.1388626099
-26.9682445526 40.9718742371 66.9590988159
-27.0211048126 41.0568084717 66.7788467407
-27.0667667389 41.1301651001 66.5972366333
-27.1029167175 41.1882324219 66.4137573242
-27.1293392181 41.2306632996 66.2283477783
-27.1481189728 41.2608032227 66.0413970947
-27.1626873016 41.2841758728 65.8535919189
-27.1753349304 41.3044548035 65.6654129028
-27.1849021912 41.3197860718 65.4766006470
-27.1869831085 41.3230781555 65.2862091064
-27.1767787933 41.3066177368 65.0931701660
-27.1523933411 41.2673568726 64.8970489502
-27.1163978577 41.2094345093 64.6983413696
-27.0750160217 41.1428489685 64.4983596802
-27.0355968475 41.0794181824 64.2987060547
-27.0038185120 41.0282707214 64.1006317139
-26.9825820923 40.9940757751 63.9048156738
-26.9728851318 40.9784317017 63.7115097046
-26.9743480682 40.9807319641 63.5206718445
-26.9839649200 40.9961395264 63.3316650391
-26.9956493378 41.0148735046 63.1431427002
-27.0033111572 41.0271377563 62.9537239075
-27.0047569275 41.0294113159 62.7628898621
-27.0019683838 41.0248756409 62.5710792542
-26.9982452393 41.0188369751 62.3790397644
-26.9958477020 41.0149269104 62.1872863770
-26.9953193665 41.0140266418 61.9959602356
-26.9954891205 41.0142440796 61.8047828674
-26.9939365387 41.0116958618 61.6131973267
-26.9882583618 41.0025138855 61.4206161499
-26.9776058197 40.9853363037 61.2268295288
-26.9631843567 40.9620971680 61.0321083069
-26.9470176697 40.9360466003 60.8369255066
-26.9297428131 40.9082183838 60.6414260864
-26.9092521667 40.8752250671 60.4450950623
-26.8812294006 40.8301162720 60.2468681335
-26.8412284851 40.7657508850 60.0456314087
-26.7870750427 40.6786308289 59.8407974243
-26.7204990387 40.5715408325 59.6327476501
-26.6481151581 40.4551086426 59.4230880737
-26.5820064545 40.3487663269 59.2148208618
-26.5388469696 40.2793235779 59.0121536255
-26.5354614258 40.2738265991 58.8194160461
-26.5807056427 40.3465156555 58.6389961243
-26.6679706573 40.4867668152 58.4693870544
-26.7756671906 40.6598663330 58.3052101135
-26.8787212372 40.8255004883 58.1400833130
-26.9627628326 40.9605674744 57.9702796936
-27.0286483765 41.0664443970 57.7959556580
-27.0853729248 41.1575889587 57.6193885803
-27.1407794952 41.2466201782 57.4426040649
-27.1977043152 41.3380889893 57.2663421631
-27.2549839020 41.4301300049 57.0903015137
-27.3097229004 41.5180854797 56.9137115479
-27.3593235016 41.5977783203 56.7358741760
-27.4025859833 41.6672821045 56.5564460754
-27.4388465881 41.7255287170 56.3752326965
-27.4661445618 41.7693634033 56.1916694641
-27.4811477661 41.7934341431 56.0048294067
-27.4817867279 41.7944068909 55.8140945435
-27.4698638916 41.7751846313 55.6199150085
-27.4506015778 41.7441635132 55.4236831665
-27.4296321869 41.7103958130 55.2269210815
-27.4100303650 41.6788291931 55.0304832458
-27.3907108307 41.6477127075 54.8340682983
-27.3657608032 41.6075439453 54.6360244751
-27.3258438110 41.5433158875 54.4337043762
-27.2650508881 41.4455184937 54.2253913879
-27.1917114258 41.3275527954 54.0133705139
-27.1311035156 41.2300529480 53.8047904968
-27.1099300385 41.1959609985 53.6073265076
-27.1346530914 41.2356529236 53.4229736328
-27.1878566742 41.3211441040 53.2468757629
-27.2454814911 41.4137382507 53.0721740723
-27.2937717438 41.4913253784 52.8948898315
-27.3316841125 41.5522270203 52.7146835327
-27.3639640808 41.6040725708 52.5329132080
-27.3948230743 41.6536369324 52.3507881165
-27.4256935120 41.7032165527 52.1687355042
-27.4559345245 41.7517852783 51.9865608215
-27.4844017029 41.7975006104 51.8039207458
-27.5099048615 41.8384513855 51.6204528809
-27.5302734375 41.8711471558 51.4355010986
-27.5417690277 41.8895759583 51.2479133606
-27.5403480530 41.8872375488 51.0564384460
-27.5240974426 41.8610572815 50.8604507446
-27.4943675995 41.8132057190 50.6603088379
-27.4543972015 41.7488861084 50.4569549561
-27.4073047638 41.6731185913 50.2513084412
-27.3557529449 41.5901832581 50.0441665649
-27.3026962280 41.5048255920 49.8364295959
-27.2512855530 41.4221153259 49.6290702820
-27.2041225433 41.3462333679 49.4229011536
-27.1633415222 41.2806129456 49.2186126709
-27.1315078735 41.2293777466 49.0170288086
-27.1118259430 41.1976814270 48.8191947937
-27.1069412231 41.1897735596 48.6259918213
-27.1172657013 41.2063179016 48.4376029968
-27.1403408051 41.2433662415 48.2532997131
-27.1717205048 41.2937660217 48.0717010498
-27.2064571381 41.3495635986 47.8912467957
-27.2402057648 41.4037704468 47.7105484009
-27.2699871063 41.4515991211 47.5286369324
-27.2946376801 41.4911804199 47.3451194763
-27.3143501282 41.5228195190 47.1600418091
-27.3294429779 41.5470314026 46.9734916687
-27.3396968842 41.5634651184 46.7853813171
-27.3448772430 41.5717391968 46.5956115723
-27.3452529907 41.5722923279 46.4042549133
-27.3409118652 41.5652618408 46.2113227844
-27.3306732178 41.5487442017 46.0164108276
-27.3121452332 41.5189018250 45.8186912537
-27.2831935883 41.4723014832 45.6174163818
-27.2434883118 41.4084091187 45.4124450684
-27.1947689056 41.3300247192 45.2043228149
-27.1399459839 41.2418289185 44.9940071106
-27.0825595856 41.1495094299 44.7826766968
-27.0273017883 41.0606117249 44.5719299316
-26.9805698395 40.9854240417 44.3639640808
-26.9496574402 40.9356689453 44.1613235474
-26.9406852722 40.9211883545 43.9661712646
-26.9564590454 40.9464988708 43.7795639038
