9.0663642883 46.0420455933 39.0424079895
9.1009931564 46.1767349243 38.8744277954
9.1348676682 46.3080673218 38.7059593201
9.1676979065 46.4347572327 38.5367393494
9.1995716095 46.5571784973 38.3668365479
9.2305593491 46.6756553650 38.1963043213
9.2604637146 46.7893104553 38.0249633789
9.2888422012 46.8961524963 37.8524055481
9.3151874542 46.9939193726 37.6781692505
9.3391637802 47.0811042786 37.5019340515
9.3609218597 47.1583824158 37.3238143921
9.3813705444 47.2298088074 37.1446075439
9.4020748138 47.3023872375 36.9657211304
9.4246215820 47.3832206726 36.7885894775
9.4498729706 47.4761619568 36.6140174866
9.4776868820 47.5805778503 36.4419021606
9.5072145462 47.6926689148 36.2714805603
9.5373716354 47.8075942993 36.1017799377
9.5671453476 47.9208183289 35.9318695068
9.5957050323 48.0286254883 35.7609786987
9.6224012375 48.1281051636 35.5884933472
9.6467981339 48.2173080444 35.4139938354
9.6688594818 48.2960700989 35.2374229431
9.6892528534 48.3673782349 35.0593872070
9.7094907761 48.4379920959 34.8812942505
9.7315883636 48.5169448853 34.7050361633
9.7572231293 48.6117401123 34.5322189331
9.7868928909 48.7246131897 34.3633422852
9.8198080063 48.8520317078 34.1976928711
9.8544950485 48.9874038696 34.0338973999
9.8892908096 49.1232795715 33.8703765869
9.9223508835 49.2513923645 33.7053604126
9.9518213272 49.3634490967 33.5370483398
9.9765729904 49.4543876648 33.3643226624
9.9968519211 49.5253028870 33.1873741150
10.0141315460 49.5827903748 33.0075950623
10.0302896500 49.6352615356 32.8267936707
10.0468187332 49.6893997192 32.6464157104
10.0645484924 49.7489242554 32.4672775269
10.0838136673 49.8153343201 32.2897224426
10.1046810150 49.8889312744 32.1138267517
10.1270084381 49.9690856934 31.9394664764
10.1504774094 50.0543632507 31.7663364410
10.1746349335 50.1427345276 31.5939979553
10.1989097595 50.2316436768 31.4218845367
10.2226362228 50.3181037903 31.2493324280
10.2452001572 50.3993721008 31.0757198334
10.2662448883 50.4738311768 30.9006748199
10.2857732773 50.5415039063 30.7241897583
10.3041315079 50.6039390564 30.5466003418
10.3218803406 50.6636505127 30.3684673309
10.3395700455 50.7231025696 30.1903457642
10.3575305939 50.7837753296 30.0125694275
10.3758468628 50.8460502625 29.8352317810
10.3945083618 50.9098854065 29.6583232880
10.4135332108 50.9753532410 29.4818668365
10.4329261780 51.0424842834 29.3058700562
10.4526062012 51.1109085083 29.1302509308
10.4724559784 51.1801033020 28.9548931122
10.4923696518 51.2495918274 28.7796840668
10.5121297836 51.3184051514 28.6043987274
10.5313148499 51.3846435547 28.4285945892
10.5494737625 51.4462814331 28.2517890930
10.5665159225 51.5029182434 28.0738811493
10.5829677582 51.5569114685 27.8954143524
10.5997905731 51.6125793457 27.7174072266
10.6178913116 51.6739883423 27.5408229828
10.6377468109 51.7432785034 27.3661861420
10.6593914032 51.8206138611 27.1935482025
10.6825447083 51.9047279358 27.0226211548
10.7066593170 51.9931755066 26.8528347015
10.7309951782 52.0826225281 26.6833953857
10.7547531128 52.1694869995 26.5134429932
10.7771244049 52.2501373291 26.3420925140
10.7972297668 52.3206176758 26.1683750153
10.8142366409 52.3771896362 25.9913654327
10.8277692795 52.4181632996 25.8106231689
10.8382635117 52.4454956055 25.6265945435
10.8469552994 52.4647293091 25.4406108856
10.8555889130 52.4837074280 25.2545833588
10.8660593033 52.5109329224 25.0706005096
10.8799715042 52.5536308289 24.8904647827
10.8981275558 52.6154060364 24.7150955200
10.9201440811 52.6945343018 24.5441017151
10.9444847107 52.7841186523 24.3758049011
10.9689731598 52.8743820190 24.2077865601
10.9916019440 52.9562950134 24.0377883911
11.0112018585 53.0246047974 23.8644790649
11.0275421143 53.0782661438 23.6875705719
11.0408935547 53.1184959412 23.5073394775
11.0516147614 53.1469078064 23.3241672516
11.0600566864 53.1650733948 23.1384315491
11.0666618347 53.1749801636 22.9506130219
11.0720615387 53.1794738770 22.7614212036
11.0771856308 53.1827201843 22.5719089508
11.0833234787 53.1905250549 22.3835601807
11.0919866562 53.2096900940 22.1981277466
11.1044807434 53.2460899353 22.0171451569
11.1214303970 53.3025360107 21.8413677216
11.1425619125 53.3778076172 21.6705207825
11.1668157578 53.4671287537 21.5034046173
11.1925230026 53.5630073547 21.3381004333
11.2175474167 53.6558189392 21.1721153259
11.2395944595 53.7352523804 21.0027484894
11.2568683624 53.7932090759 20.8278579712
11.2687349319 53.8268356323 20.6466522217
11.2759170532 53.8393821716 20.4599380493
11.2801313400 53.8385734558 20.2697124481
11.2834491730 53.8337249756 20.0784111023
11.2876625061 53.8329086304 19.8881626129
11.2938804626 53.8411178589 19.7003021240
11.3024721146 53.8600120544 19.5152912140
11.3132925034 53.8889389038 19.3329734802
11.3259639740 53.9262161255 19.1529197693
11.3400049210 53.9696540833 18.9745578766
11.3547887802 54.0164489746 18.7971477509
11.3695745468 54.0632591248 18.6197948456
11.3836641312 54.1069335938 18.4416465759
11.3966369629 54.1455841064 18.2621898651
11.4084863663 54.1791801453 18.0814018250
11.4195280075 54.2091407776 17.8996601105
11.4301376343 54.2371559143 17.7174205780
11.4405727386 54.2643890381 17.5349941254
11.4510478973 54.2918052673 17.3526458740
11.4618415833 54.3206634521 17.1707210541
11.4731588364 54.3518791199 16.9894771576
11.4848546982 54.3848037720 16.8087368011
11.4964027405 54.4170722961 16.6278495789
11.5072021484 54.4459648132 16.4460601807
11.5169181824 54.4699783325 16.2629451752
11.5256481171 54.4895477295 16.0786151886
11.5339012146 54.5069694519 15.8937034607
11.5424633026 54.5257873535 15.7091979980
11.5521173477 54.5495300293 15.5260896683
11.5632772446 54.5800628662 15.3449144363
11.5758218765 54.6168518066 15.1655330658
11.5892705917 54.6577148438 14.9873437881
11.6030492783 54.7000732422 14.8096237183
11.6165895462 54.7413597107 14.6316461563
11.6293478012 54.7791252136 14.4527130127
11.6409635544 54.8117408752 14.2723531723
11.6514034271 54.8390541077 14.0905132294
11.6608896255 54.8620643616 13.9074678421
11.6696844101 54.8819656372 13.7235527039
11.6779565811 54.8995018005 13.5389766693
11.6857547760 54.9149055481 13.3537988663
11.6930255890 54.9279251099 13.1679449081
11.6995964050 54.9377937317 12.9811878204
11.7052011490 54.9432945251 12.7931680679
11.7096261978 54.9434738159 12.6035995483
11.7129955292 54.9388885498 12.4126329422
11.7159881592 54.9326019287 12.2211561203
11.7198190689 54.9300918579 12.0307703018
11.7259035110 54.9377593994 11.8433599472
11.7353248596 54.9604949951 11.6603851318
11.7483625412 54.9995651245 11.4822483063
11.7643995285 55.0521850586 11.3081579208
11.7822246552 55.1128883362 11.1365222931
11.8004331589 55.1753311157 10.9654741287
11.8177013397 55.2335319519 10.7932386398
11.8329391479 55.2825698853 10.6183385849
11.8453855515 55.3189964294 10.4397287369
11.8546352386 55.3409919739 10.2568349838
11.8606557846 55.3484001160 10.0695877075
11.8638544083 55.3430519104 9.8785057068
11.8651456833 55.3290824890 9.6848106384
11.8659095764 55.3127288818 9.4903707504
11.8677682877 55.3013191223 9.2973966599
11.8721599579 55.3013572693 9.1078720093
11.8798294067 55.3162078857 8.9228439331
11.8905334473 55.3447837830 8.7420063019
11.9032707214 55.3825492859 8.5640048981
11.9168739319 55.4242362976 8.3872432709
11.9304494858 55.4658050537 8.2104921341
11.9433345795 55.5042533875 8.0328283310
11.9548215866 55.5363807678 7.8532624245
11.9641294479 55.5586662292 7.6706929207
11.9707145691 55.5686340332 7.4843368530
11.9746313095 55.5665321350 7.2942461967
11.9767150879 55.5561408997 7.1015720367
11.9784851074 55.5443267822 6.9084339142
11.9816789627 55.5389518738 6.7172803879
11.9875679016 55.5457649231 6.5299191475
11.9964799881 55.5662612915 6.3468437195
12.0078973770 55.5980911255 6.1673426628
12.0208883286 55.6370544434 5.9901170731
12.0344696045 55.6786842346 5.8137750626
12.0476722717 55.7186088562 5.6369419098
12.0594606400 55.7521400452 5.4581294060
12.0687465668 55.7743415833 5.2757625580
12.0747280121 55.7815895081 5.0886673927
12.0774269104 55.7739791870 4.8968439102
12.0779142380 55.7563552856 4.7018084526
12.0779409409 55.7366371155 4.5060734749
12.0793066025 55.7229843140 4.3122472763
12.0834751129 55.7220191956 4.1224670410
12.0913972855 55.7380485535 3.9381425381
12.1032705307 55.7719764709 3.7595982552
12.1183385849 55.8203773499 3.5857629776
12.1350708008 55.8763237000 3.4144237041
12.1517410278 55.9319915771 3.2430593967
12.1669979095 55.9812660217 3.0696845055
12.1801824570 56.0211601257 2.8933110237
12.1913652420 56.0519828796 2.7140250206
12.2011890411 56.0766563416 2.5327622890
12.2105855942 56.0993957520 2.3508894444
12.2204990387 56.1244812012 2.1698088646
12.2317438126 56.1556015015 1.9907368422
12.2448883057 56.1953315735 1.8145346642
12.2600841522 56.2443695068 1.6414465904
12.2769680023 56.3010635376 1.4709481001
12.2948627472 56.3623466492 1.3020346165
12.3131532669 56.4254341125 1.1337929964
12.3314304352 56.4884643555 0.9656078815
12.3492364883 56.5493659973 0.7967873216
12.3658237457 56.6047554016 0.6261971593
12.3802947998 56.6505508423 0.4524616301
12.3919801712 56.6837158203 0.2745435536
12.4007005692 56.7034378052 0.0921466202
-44.6674842834 39.8732376099 61.7261047363
-44.6825141907 39.8794174194 61.5396041870
-44.7135848999 39.9005546570 61.3554458618
-44.7573966980 39.9335784912 61.1731872559
-44.8101081848 39.9748992920 60.9922904968
-44.8684883118 40.0215110779 60.8123054504
-44.9305877686 40.0715942383 60.6329498291
-44.9952392578 40.1240615845 60.4540634155
-45.0608253479 40.1774024963 60.2754096985
-45.1249923706 40.2294235229 60.0966300964
-45.1859703064 40.2784767151 59.9174537659
-45.2436752319 40.3244781494 59.7378654480
-45.2991027832 40.3683624268 59.5580024719
-45.3532638550 40.4110641479 59.3780174255
-45.4071350098 40.4534988403 59.1980628967
-45.4618873596 40.4967613220 59.0183181763
-45.5180625916 40.5413513184 58.8388710022
-45.5743408203 40.5860404968 58.6595153809
-45.6277275085 40.6280364990 58.4797744751
-45.6751708984 40.6644897461 58.2991600037
-45.7148551941 40.6937065125 58.1173629761
-45.7460098267 40.7149658203 57.9342384338
-45.7683677673 40.7280158997 57.7497253418
-45.7824134827 40.7333145142 57.5638809204
-45.7896270752 40.7322349548 57.3769226074
-45.7920799255 40.7267112732 57.1891784668
-45.7918395996 40.7186775208 57.0009727478
-45.7908706665 40.7099609375 56.8126296997
-45.7914276123 40.7026634216 56.6245269775
-45.7966461182 40.6997222900 56.4371871948
-45.8108291626 40.7051429749 56.2513504028
-45.8383865356 40.7230567932 56.0677871704
-45.8813171387 40.7553138733 55.8868675232
-45.9369659424 40.7994499207 55.7081832886
-45.9985351563 40.8491172791 55.5305900574
-46.0578536987 40.8966827393 55.3526916504
-46.1077194214 40.9354286194 55.1732368469
-46.1426506042 40.9602355957 54.9912414551
-46.1593055725 40.9679718018 54.8060836792
-46.1576843262 40.9586524963 54.6177177429
-46.1421546936 40.9363403320 54.4268760681
-46.1204261780 40.9082412720 54.2348861694
-46.1001739502 40.8815193176 54.0431098938
-46.0851669312 40.8596916199 53.8522224426
-46.0736312866 40.8410987854 53.6619186401
-46.0597457886 40.8203163147 53.4711532593
-46.0371360779 40.7913818359 53.2787628174
-46.0027770996 40.7514762878 53.0841712952
-45.9594650269 40.7031974792 52.8878593445
-45.9148063660 40.6536636353 52.6912155151
-45.8769340515 40.6104621887 52.4957313538
-45.8502883911 40.5777435303 52.3022613525
-45.8346595764 40.5553169250 52.1107864380
-45.8270912170 40.5404167175 51.9207801819
-45.8240203857 40.5297164917 51.7315940857
-45.8223686218 40.5203437805 51.5426559448
-45.8199424744 40.5102424622 51.3535499573
-45.8155288696 40.4982872009 51.1640434265
-45.8088798523 40.4842414856 50.9740829468
-45.8003387451 40.4684257507 50.7837295532
-45.7901229858 40.4510459900 50.5930213928
-45.7776412964 40.4315414429 50.4018402100
-45.7615699768 40.4086875916 50.2099189758
-45.7411079407 40.3817253113 50.0170936584
-45.7169952393 40.3513488770 49.8235015869
-45.6908531189 40.3190727234 49.6294479370
-45.6637344360 40.2858848572 49.4351425171
-45.6361846924 40.2522888184 49.2406883240
-45.6095390320 40.2195358276 49.0463523865
-45.5860633850 40.1897430420 48.8525924683
-45.5672378540 40.1642951965 48.6597137451
-45.5523834229 40.1425552368 48.4675941467
-45.5390853882 40.1222724915 48.2757492065
-45.5251121521 40.1013565063 48.0837249756
-45.5103607178 40.0797080994 47.8915023804
-45.4971389771 40.0594902039 47.6995544434
-45.4879302979 40.0430259705 47.5083961487
-45.4826736450 40.0302467346 47.3180236816
-45.4787788391 40.0187492371 47.1279106140
-45.4737548828 40.0061912537 46.9375419617
-45.4665222168 39.9915657043 46.7466773987
-45.4556884766 39.9735755920 46.5550308228
-45.4378242493 39.9490051270 46.3618545532
-45.4091339111 39.9143066406 46.1663322449
-45.3692741394 39.8691596985 45.9683609009
-45.3234024048 39.8183860779 45.7690162659
-45.2808074951 39.7706794739 45.5702857971
-45.2509651184 39.7348899841 45.3742179871
-45.2388458252 39.7156829834 45.1819305420
-45.2423477173 39.7110786438 44.9930000305
-45.2540550232 39.7141571045 44.8058547974
-45.2660598755 39.7175102234 44.6187744141
-45.2734336853 39.7165336609 44.4306793213
-45.2743721008 39.7095336914 44.2411575317
-45.2685661316 39.6962242126 44.0501251221
-45.2562866211 39.6768569946 43.8576240540
-45.2388267517 39.6526374817 43.6639289856
-45.2190399170 39.6262435913 43.4696655273
-45.2006263733 39.6011314392 43.2756576538
-45.1865425110 39.5800666809 43.0825843811
-45.1782417297 39.5644149780 42.8907814026
-45.1759681702 39.5543975830 42.7003173828
-45.1789360046 39.5492897034 42.5110321045
-45.1852531433 39.5473136902 42.3225021362
-45.1923561096 39.5460739136 42.1341438293
-45.1979713440 39.5434417725 41.9454421997
-45.2004890442 39.5379104614 41.7560119629
-45.1985282898 39.5281829834 41.5655250549
-45.1909675598 39.5132179260 41.3737144470
-45.1781539917 39.4933319092 41.1806411743
-45.1629676819 39.4712219238 40.9869689941
-45.1500854492 39.4512672424 40.7938041687
-45.1435127258 39.4372177124 40.6020889282
-45.1444587708 39.4302101135 40.4121360779
-45.1511268616 39.4285545349 40.2235298157
-45.1602249146 39.4291763306 40.0354995728
-45.1688346863 39.4293441772 39.8473510742
-45.1752471924 39.4274520874 39.6586723328
-45.1786231995 39.4227142334 39.4692497253
-45.1783218384 39.4145317078 39.2789230347
-45.1735115051 39.4021301270 39.0874824524
-45.1633148193 39.3846740723 38.8947029114
-45.1474876404 39.3619499207 38.7005043030
-45.1274604797 39.3352890015 38.5052337646
-45.1067543030 39.3079948425 38.3097419739
-45.0899810791 39.2843780518 38.1151733398
-45.0809478760 39.2680091858 37.9224815369
-45.0812873840 39.2604179382 37.7320976257
-45.0899696350 39.2606430054 37.5437812805
-45.1030960083 39.2650299072 37.3565788269
-45.1141815186 39.2675094604 37.1688690186
-45.1160202026 39.2613182068 36.9788208008
-45.1036453247 39.2418174744 36.7851562500
-45.0762977600 39.2082824707 36.5876464844
-45.0372810364 39.1638107300 36.3870964050
-44.9929542542 39.1143569946 36.1851043701
-44.9515762329 39.0676651001 35.9837799072
-44.9212570190 39.0313339233 35.7852172852
-44.9069366455 39.0099906921 35.5907211304
-44.9085350037 39.0035667419 35.4003143311
-44.9216423035 39.0079269409 35.2128868103
-44.9397468567 39.0169754028 35.0267677307
-44.9564743042 39.0247306824 34.8403015137
-44.9669113159 39.0265884399 34.6521949768
-44.9680137634 39.0196990967 34.4616279602
-44.9585304260 39.0028839111 34.2682456970
-44.9389648438 38.9766159058 34.0721588135
-44.9119644165 38.9433784485 33.8740425110
-44.8824310303 38.9077606201 33.6751899719
-44.8569030762 38.8758964539 33.4773406982
-44.8420677185 38.8540573120 33.2823028564
-44.8427658081 38.8467788696 33.0914115906
-44.8601951599 38.8551864624 32.9050216675
-44.8912658691 38.8763885498 32.7223434448
-44.9296607971 38.9044570923 32.5416908264
-44.9678916931 38.9323768616 32.3610420227
-44.9991493225 38.9537544250 32.1785278320
-45.0185012817 38.9639701843 31.9927864075
-45.0237426758 38.9609527588 31.8031749725
-45.0158348083 38.9456062317 31.6099224091
-44.9983329773 38.9212570190 31.4139842987
-44.9758796692 38.8922615051 31.2166252136
-44.9529113770 38.8627777100 31.0190658569
-44.9334831238 38.8366165161 30.8224411011
-44.9213371277 38.8172836304 30.6278057098
-44.9186134338 38.8067893982 30.4357833862
-44.9241142273 38.8040084839 30.2460594177
-44.9335136414 38.8048858643 30.0574283600
-44.9416694641 38.8045959473 29.8684444427
-44.9445686340 38.7993736267 29.6779594421
-44.9394378662 38.7866172791 29.4851722717
-44.9242057800 38.7643775940 29.2894687653
-44.8979454041 38.7317924500 29.0905570984
-44.8624153137 38.6905059814 28.8889160156
-44.8227844238 38.6453666687 28.6860141754
-44.7857894897 38.6026992798 28.4837913513
-44.7565116882 38.5672683716 28.2837314606
-44.7365646362 38.5405960083 28.0863208771
-44.7248115540 38.5216102600 27.8912525177
-44.7189788818 38.5081748962 27.6978797913
-44.7165718079 38.4979591370 27.5054893494
-44.7149963379 38.4885215759 27.3133201599
-44.7113876343 38.4771728516 27.1205310822
-44.7026519775 38.4610099792 26.9261989594
-44.6860694885 38.4374847412 26.7295055389
-44.6606483459 38.4056549072 26.5301322937
-44.6286125183 38.3676147461 26.3287239075
-44.5957489014 38.3287963867 26.1269950867
-44.5694694519 38.2961540222 25.9271736145
-44.5556373596 38.2751960754 25.7310409546
-44.5563011169 38.2678489685 25.5392456055
-44.5693931580 38.2721710205 25.3512001038
-44.5899162292 38.2834663391 25.1654148102
-44.6118621826 38.2961044312 24.9800834656
-44.6301536560 38.3053092957 24.7936534882
-44.6416473389 38.3081321716 24.6051559448
-44.6449928284 38.3033027649 24.4141559601
-44.6400260925 38.2906646729 24.2205848694
-44.6274185181 38.2708511353 24.0246276855
-44.6086578369 38.2452507019 23.8267269135
-44.5861663818 38.2161483765 23.6276187897
-44.5633888245 38.1867752075 23.4283657074
-44.5442314148 38.1608009338 23.2301883698
-44.5316925049 38.1410408020 23.0340328217
-44.5264472961 38.1281280518 22.8401279449
-44.5266647339 38.1203498840 22.6479167938
-44.5290718079 38.1146278381 22.4563789368
-44.5301322937 38.1076393127 22.2644023895
-44.5267028809 38.0964355469 22.0709877014
-44.5165138245 38.0788764954 21.8753967285
-44.4988708496 38.0543098450 21.6773948669
-44.4751625061 38.0240440369 21.4774055481
-44.4484329224 37.9909324646 21.2763919830
-44.4222335815 37.9583206177 21.0754852295
-44.3996238708 37.9290809631 20.8756732941
-44.3826065063 37.9050941467 20.6776142120
-44.3716812134 37.8868255615 20.4814815521
-44.3655700684 37.8730888367 20.2868804932
-44.3615570068 37.8613204956 20.0929317474
-44.3563690186 37.8484458923 19.8985767365
-44.3472824097 37.8319015503 19.7029170990
-44.3329277039 37.8104095459 19.5054988861
-44.3135414124 37.7841796875 19.3063793182
-44.2906913757 37.7546958923 19.1060714722
-44.2670211792 37.7244377136 18.9054336548
-44.2458190918 37.6964988708 18.7055587769
-44.2300567627 37.6736679077 18.5074367523
-44.2210655212 37.6572036743 18.3115272522
-44.2180137634 37.6463279724 18.1175727844
-44.2184677124 37.6387405396 17.9247665405
-44.2193183899 37.6315269470 17.7320785522
-44.2174339294 37.6217460632 17.5384540558
-44.2099418640 37.6066856384 17.3429145813
-44.1945152283 37.5841636658 17.1446628571
-44.1702270508 37.5533065796 16.9433612823
-44.1388397217 37.5157699585 16.7395877838
-44.1051597595 37.4760704041 16.5349617004
-44.0751304626 37.4398040771 16.3315086365
-44.0528106689 37.4107856750 16.1306285858
-44.0388183594 37.3896026611 15.9325542450
-44.0310859680 37.3743019104 15.7365922928
-44.0263786316 37.3618469238 15.5416440964
-44.0213317871 37.3490715027 15.3465528488
-44.0130500793 37.3332519531 15.1503133774
-43.9998168945 37.3127746582 14.9523229599
-43.9818382263 37.2878265381 14.7526369095
-43.9614143372 37.2605781555 14.5520496368
-43.9422416687 37.2345046997 14.3518495560
-43.9281120300 37.2131729126 14.1533679962
-43.9216384888 37.1990470886 13.9575395584
-43.9234848022 37.1927452087 13.7646169662
-43.9320297241 37.1927528381 13.5740480423
-43.9437904358 37.1957817078 13.3846158981
-43.9548683167 37.1981697083 13.1949443817
-43.9625968933 37.1974067688 13.0040807724
-43.9659919739 37.1925621033 12.8116655350
-43.9648513794 37.1834526062 12.6176166534
-43.9588432312 37.1697540283 12.4218015671
-43.9476051331 37.1511306763 12.2240791321
-43.9317054749 37.1281242371 12.0246419907
-43.9132118225 37.1026687622 11.8242235184
-43.8949050903 37.0773887634 11.6238222122
-43.8785896301 37.0539817810 11.4240961075
-43.8640213013 37.0322189331 11.2249603271
-43.8493041992 37.0103111267 11.0257282257
-43.8322563171 36.9862098694 10.8256015778
-43.8115882874 36.9586982727 10.6241044998
-43.7871017456 36.9275856018 10.4211502075
-43.7592163086 36.8932723999 10.2168884277
-43.7289581299 36.8567237854 10.0116872787
-43.6985244751 36.8200073242 9.8063526154
-43.6714324951 36.7864303589 9.6021852493
-43.6514282227 36.7595291138 9.4005870819
-43.6409034729 36.7415542603 9.2024650574
-43.6400527954 36.7326889038 9.0079154968
-43.6469383240 36.7311096191 8.8162393570
-43.6577491760 36.7332267761 8.6260280609
-43.6671981812 36.7340621948 8.4353055954
-43.6699028015 36.7285423279 8.2420434952
-43.6626472473 36.7136421204 8.0450115204
-43.6457824707 36.6896858215 7.8443155289
-43.6224555969 36.6596374512 7.6411252022
-43.5966377258 36.6272468567 7.4369335175
-43.5719718933 36.5959281921 7.2331166267
-43.5516242981 36.5686836243 7.0308890343
-43.5380516052 36.5478210449 6.8311986923
-43.5323791504 36.5344009399 6.6344952583
-43.5344123840 36.5282363892 6.4407229424
-43.5429039001 36.5281600952 6.2494220734
-43.5552444458 36.5317115784 6.0596022606
-43.5673370361 36.5350303650 5.8696908951
-43.5751419067 36.5343093872 5.6781210899
-43.5770492554 36.5280265808 5.4842562675
-43.5747871399 36.5178146362 5.2887558937
-43.5723037720 36.5073928833 5.0931482315
-43.5740852356 36.5009880066 4.8991832733
-43.5840988159 36.5023460388 4.7084298134
-43.6049690247 36.5139389038 4.5219359398
-43.6366882324 36.5357551575 4.3397259712
-43.6757659912 36.5645179749 4.1604542732
-43.7161560059 36.5945129395 3.9817485809
-43.7518768311 36.6201171875 3.8012473583
-43.7796707153 36.6382408142 3.6176424026
-43.7996673584 36.6490173340 3.4309678078
-43.8140296936 36.6544761658 3.2420642376
-43.8249931335 36.6567344666 3.0518102646
-43.8338203430 36.6569786072 2.8607029915
-43.8408546448 36.6555290222 2.6688740253
-43.8460388184 36.6523361206 2.4762952328
-43.8493003845 36.6473312378 2.2829351425
-43.8506698608 36.6405410767 2.0887980461
-43.8502349854 36.6320457458 1.8939157724
-43.8482933044 36.6221275330 1.6984051466
-43.8456878662 36.6115875244 1.5026051998
-43.8441009521 36.6020050049 1.3071959019
-43.8460121155 36.5957221985 1.1131933928
-43.8543167114 36.5954666138 0.9217888117
-43.8715438843 36.6036338806 0.7340343595
-43.8988494873 36.6213073730 0.5504266620
-43.9352111816 36.6475257874 0.3705716729
-43.9775352478 36.6793708801 0.1932166666
-44.0218124390 36.7130622864 0.0167231075
12.2241296768 27.2761096954 62.6038017273
12.2314376831 27.2801322937 62.4006042480
12.2418966293 27.2901515961 62.1981391907
12.2529335022 27.3012695313 61.9958190918
12.2629432678 27.3104362488 61.7932662964
12.2722129822 27.3181934357 61.5905456543
12.2822732925 27.3274555206 61.3880157471
12.2946262360 27.3410835266 61.1860427856
12.3101291656 27.3607063293 60.9848403931
12.3289976120 27.3867378235 60.7844772339
12.3509120941 27.4185695648 60.5848884583
12.3753671646 27.4552421570 60.3859596252
12.4024028778 27.4968280792 60.1877136230
12.4331340790 27.5454540253 59.9904365540
12.4693174362 27.6044635773 59.7945785522
12.5120220184 27.6758937836 59.6004333496
12.5604333878 27.7581958771 59.4078216553
12.6118488312 27.8462238312 59.2160835266
12.6627788544 27.9333324432 59.0243377686
12.7100811005 28.0135402679 58.8317832947
12.7514839172 28.0825157166 58.6378173828
12.7858304977 28.1380596161 58.4421157837
12.8134088516 28.1807136536 58.2447280884
12.8361024857 28.2140655518 58.0461196899
12.8569946289 28.2439918518 57.8470764160
12.8794145584 28.2768268585 57.6484718323
12.9057579041 28.3171386719 57.4509506226
12.9367876053 28.3663806915 57.2547302246
12.9718971252 28.4233970642 57.0596694946
13.0098371506 28.4858093262 56.8654441833
13.0489301682 28.5504226685 56.6716156006
13.0868482590 28.6128005981 56.4775543213
13.1209611893 28.6679344177 56.2825317383
13.1494045258 28.7122688293 56.0860252380
13.1718759537 28.7452259064 55.8879203796
13.1895446777 28.7690334320 55.6885223389
13.2044086456 28.7875003815 55.4883728027
13.2185678482 28.8046226501 55.2880401611
13.2335853577 28.8233833313 55.0879707336
13.2502183914 28.8452224731 54.8883781433
13.2687349319 28.8706531525 54.6893463135
13.2895812988 28.9005260468 54.4910125732
13.3136415482 28.9365234375 54.2936363220
13.3416395187 28.9800319672 54.0974388123
13.3731813431 29.0302944183 53.9023284912
13.4064054489 29.0837688446 53.7077713013
13.4385948181 29.1352710724 53.5129814148
13.4670953751 29.1797485352 53.3171768188
13.4899492264 29.2134628296 53.1197586060
13.5064086914 29.2349891663 52.9204826355
13.5174617767 29.2462100983 52.7196197510
13.5258283615 29.2523097992 52.5179634094
13.5350103378 29.2599639893 52.3165512085
13.5478906631 29.2746696472 52.1162605286
13.5656623840 29.2987022400 51.9174728394
13.5875797272 29.3306427002 51.7199783325
13.6116294861 29.3666477203 51.5231742859
13.6358270645 29.4029407501 51.3264579773
13.6594486237 29.4381332397 51.1296119690
13.6834697723 29.4740924835 50.9329338074
13.7099914551 29.5148239136 50.7370796204
13.7410163879 29.5641422272 50.5426902771
13.7773704529 29.6236305237 50.3500366211
13.8183393478 29.6919231415 50.1589241028
13.8620395660 29.7654304504 49.9687652588
13.9063577652 29.8401203156 49.7789039612
13.9500579834 29.9136352539 49.5889434814
13.9932222366 29.9861354828 49.3989143372
14.0364742279 30.0588073730 49.2090072632
14.0797109604 30.1314525604 49.0191917419
14.1216173172 30.2015666962 48.8290405273
14.1603279114 30.2655868530 48.6379394531
14.1944322586 30.3208236694 48.4454116821
14.2236337662 30.3667087555 48.2513427734
14.2488451004 30.4049854279 48.0560073853
14.2717275620 30.4388198853 47.8599510193
14.2938327789 30.4711742401 47.6636734009
14.3159456253 30.5035438538 47.4674415588
14.3382072449 30.5361976624 47.2712974548
14.3607788086 30.5694465637 47.0752983093
14.3842630386 30.6044387817 46.8796501160
14.4095096588 30.6427974701 46.6846466064
14.4371328354 30.6856956482 46.4905052185
14.4672937393 30.7334365845 46.2972869873
14.4999427795 30.7859306335 46.1049880981
14.5351266861 30.8432674408 45.9136352539
14.5728464127 30.9054470062 45.7232398987
14.6127262115 30.9717540741 45.5336799622
14.6541194916 31.0409545898 45.3447380066
14.6965808868 31.1121997833 45.1562652588
14.7400932312 31.1854553223 44.9682579041
14.7849187851 31.2612209320 44.7808151245
14.8314256668 31.3402023315 44.5940704346
14.8799829483 31.4231052399 44.4081649780
14.9308099747 31.5103454590 44.2231864929
14.9838237762 31.6017684937 44.0391120911
15.0386896133 31.6967334747 43.8558273315
15.0949392319 31.7943458557 43.6731796265
15.1518669128 31.8932609558 43.4909095764
15.2083950043 31.9914188385 43.3086280823
15.2634038925 32.0866813660 43.1259231567
15.3165712357 32.1784324646 42.9426727295
15.3692150116 32.2691917419 42.7593536377
15.4244594574 32.3649215698 42.5771217346
15.4861831665 32.4730339050 42.3974342346
15.5570936203 32.5987014771 42.2213211060
15.6372470856 32.7420349121 42.0488471985
15.7239513397 32.8978843689 41.8790359497
15.8128776550 33.0579948425 41.7102813721
15.8997039795 33.2141036987 41.5409545898
15.9813232422 33.3602752686 41.3698616028
16.0558948517 33.4929924011 41.1962890625
16.1222095490 33.6099395752 41.0197334290
16.1796970367 33.7100334167 40.8399467468
16.2292346954 33.7949447632 40.6572341919
16.2734889984 33.8697662354 40.4725914001
16.3158302307 33.9409370422 40.2873039246
16.3585433960 34.0128250122 40.1022567749
16.4018001556 34.0857505798 39.9175224304
16.4443054199 34.1572494507 39.7325897217
16.4852142334 34.2257003784 39.5471229553
16.5257778168 34.2934989929 39.3616142273
16.5694065094 34.3671569824 39.1774101257
16.6200695038 34.4542655945 38.9961051941
16.6801624298 34.5594024658 38.8186874390
16.7491645813 34.6815757751 38.6449851990
16.8238525391 34.8146247864 38.4737358093
16.8998908997 34.9502639771 38.3032188416
16.9735603333 35.0813827515 38.1319313049
17.0425529480 35.2035713196 37.9589233398
17.1059360504 35.3150482178 37.7837982178
17.1641216278 35.4165878296 37.6067008972
17.2189731598 35.5117645264 37.4283752441
17.2735214233 35.6063690186 37.2500572205
17.3310337067 35.7066459656 37.0730895996
17.3938617706 35.8170928955 36.8984642029
17.4627037048 35.9390449524 36.7264938354
17.5365982056 36.0706672668 36.5568008423
17.6136093140 36.2082595825 36.3885917664
17.6916160583 36.3477630615 36.2209968567
17.7686042786 36.4853286743 36.0531654358
17.8427562714 36.6174812317 35.8843269348
17.9130973816 36.7423515320 35.7140541077
17.9801864624 36.8610115051 35.5425720215
18.0457916260 36.9768447876 35.3706169128
18.1119174957 37.0936775208 35.1990509033
18.1803951263 37.2150192261 35.0286521912
18.2530136108 37.3442840576 34.8602066040
18.3310699463 37.4839630127 34.6942977905
18.4142837524 37.6335182190 34.5308151245
18.5000362396 37.7879409790 34.3686485291
18.5838699341 37.9387054443 34.2058601379
18.6610450745 38.0767364502 34.0403633118
18.7282581329 38.1957168579 33.8706855774
18.7846660614 38.2940330505 33.6964111328
18.8319816589 38.3749580383 33.5182495117
18.8739013672 38.4455680847 33.3378105164
18.9151916504 38.5149726868 33.1571807861
18.9607772827 38.5926055908 32.9785652161
19.0152244568 38.6871986389 32.8040199280
19.0824928284 38.8063316345 32.6353607178
19.1654033661 38.9554138184 32.4739112854
19.2646064758 39.1356811523 32.3200263977
19.3774738312 39.3421173096 32.1725883484
19.4976577759 39.5625724792 32.0287666321
19.6159496307 39.7794151306 31.8843955994
19.7226448059 39.9740791321 31.7350254059
19.8106136322 40.1329116821 31.5773429871
19.8774166107 40.2512359619 31.4101448059
19.9253482819 40.3334465027 31.2344074249
19.9598922729 40.3900299072 31.0525836945
19.9878959656 40.4340972900 30.8678016663
20.0163288116 40.4789886475 30.6832771301
20.0517101288 40.5371894836 30.5020542145
20.0998096466 40.6197395325 30.3268642426
20.1649208069 40.7348709106 30.1597766876
20.2484951019 40.8853607178 30.0015449524
20.3477935791 41.0659713745 29.8509502411
20.4557018280 41.2630805969 29.7046909332
20.5623817444 41.4578514099 29.5581264496
20.6583385468 41.6320991516 29.4067249298
20.7372074127 41.7736358643 29.2474021912
20.7966957092 41.8780593872 29.0789871216
20.8379421234 41.9475555420 28.9019470215
20.8646221161 41.9891624451 28.7179813385
20.8823432922 42.0136070251 28.5297374725
20.8981571198 42.0344009399 28.3405952454
20.9201412201 42.0670166016 28.1544799805
20.9567890167 42.1277198792 27.9755535126
21.0155200958 42.2307319641 27.8075065613
21.0998897552 42.3828659058 27.6521759033
21.2066707611 42.5779495239 27.5080776215
21.3253993988 42.7959327698 27.3701457977
21.4419174194 43.0096931458 27.2314300537
21.5440654755 43.1959381104 27.0858917236
21.6256885529 43.3428688049 26.9304065704
21.6867561340 43.4504241943 26.7648792267
21.7308921814 43.5255432129 26.5910320282
21.7631359100 43.5778770447 26.4113273621
21.7892112732 43.6183967590 26.2285881042
21.8153209686 43.6589813232 26.0459175110
21.8474102020 43.7110328674 25.8663234711
21.8899478912 43.7831039429 25.6920948029
21.9447650909 43.8787193298 25.5242080688
22.0104827881 43.9952354431 25.3620071411
22.0830478668 44.1248817444 25.2034683228
22.1573009491 44.2577705383 25.0459766388
22.2285041809 44.3848266602 24.8871040344
22.2929592133 44.4989509583 24.7249298096
22.3481407166 44.5953063965 24.5581226349
22.3929443359 44.6717720032 24.3860740662
22.4279155731 44.7293968201 24.2090206146
22.4551696777 44.7722320557 24.0280265808
22.4781551361 44.8068809509 23.8448581696
22.5013637543 44.8419609070 23.6618499756
22.5297679901 44.8870086670 23.4816150665
22.5676155090 44.9501647949 23.3064098358
22.6168556213 45.0351676941 23.1373004913
22.6762218475 45.1395950317 22.9736652374
22.7417850494 45.2559127808 22.8134632111
22.8086433411 45.3747215271 22.6541118622
22.8727378845 45.4882354736 22.4934520721
22.9318027496 45.5921173096 22.3302612305
22.9850730896 45.6848869324 22.1641082764
23.0323009491 45.7660789490 21.9948348999
23.0733127594 45.8353462219 21.8223228455
23.1084289551 45.8933181763 21.6467227936
23.1390838623 45.9427299500 21.4687805176
23.1677818298 45.9883956909 21.2898426056
23.1974582672 46.0359382629 21.1114978790
23.2308044434 46.0905227661 20.9352169037
23.2699375153 46.1562156677 20.7621746063
23.3162670135 46.2357177734 20.5931701660
23.3701286316 46.3296775818 20.4284152985
23.4302845001 46.4357185364 20.2672615051
23.4937763214 46.5481681824 20.1080989838
23.5565052032 46.6591567993 19.9486675262
23.6142463684 46.7605895996 19.7866230011
23.6637020111 46.8461265564 19.6201038361
23.7032222748 46.9126014709 19.4481563568
23.7330780029 46.9605369568 19.2708892822
23.7552413940 46.9937095642 19.0893688202
23.7728500366 47.0181465149 18.9053287506
23.7895622253 47.0408668518 18.7208137512
23.8087558746 47.0683441162 18.5377254486
23.8328227997 47.1051788330 18.3574352264
23.8631629944 47.1540603638 18.1807537079
23.9007835388 47.2169189453 18.0082817078
23.9464321136 47.2951889038 17.8404769897
23.9996852875 47.3880653381 17.6771297455
24.0580673218 47.4907913208 17.5168533325
24.1174259186 47.5954017639 17.3572807312
24.1732769012 47.6932830811 17.1958312988
24.2220458984 47.7775726318 17.0304260254
24.2619476318 47.8448448181 16.8600025177
24.2935009003 47.8960914612 16.6848239899
24.3191967010 47.9360961914 16.5063037872
24.3422622681 47.9710540771 16.3263034821
24.3655185699 48.0063781738 16.1464576721
24.3911857605 48.0463294983 15.9680681229
24.4211349487 48.0945129395 15.7922468185
24.4566059113 48.1533050537 15.6197423935
24.4973220825 48.2221679688 15.4504098892
24.5409145355 48.2965583801 15.2828750610
24.5834712982 48.3689727783 15.1148271561
24.6210594177 48.4318466187 14.9439249039
24.6512012482 48.4804153442 14.7686700821
24.6733665466 48.5136718750 14.5887155533
24.6885643005 48.5335426331 14.4046325684
24.6987228394 48.5437355042 14.2175493240
24.7062339783 48.5488471985 14.0288820267
24.7134876251 48.5534591675 13.8400602341
24.7223186493 48.5611000061 13.6521921158
24.7337875366 48.5738143921 13.4659261703
24.7486190796 48.5929870605 13.2817134857
24.7678699493 48.6206512451 13.1002111435
24.7929325104 48.6594848633 12.9222860336
24.8246250153 48.7110595703 12.7484636307
24.8621730804 48.7738952637 12.5782966614
24.9031467438 48.8433113098 12.4103174210
24.9444904327 48.9134445190 12.2426605225
24.9838047028 48.9796829224 12.0738477707
25.0197238922 49.0394020081 11.9030265808
25.0513191223 49.0908126831 11.7296066284
25.0775966644 49.1320075989 11.5529527664
25.0978908539 49.1617050171 11.3726301193
25.1125469208 49.1805648804 11.1888265610
25.1229076385 49.1911697388 11.0023603439
25.1307296753 49.1968994141 10.8143119812
25.1378803253 49.2013320923 10.6258440018
25.1465511322 49.2086906433 10.4383325577
25.1593933105 49.2240676880 10.2534570694
25.1789455414 49.2523460388 10.0728387833
25.2065315247 49.2960739136 9.8973455429
25.2415904999 49.3541679382 9.7266521454
25.2821102142 49.4227676392 9.5595130920
25.3256607056 49.4972038269 9.3944005966
25.3698806763 49.5729217529 9.2298164368
25.4122791290 49.6451530457 9.0641708374
25.4502544403 49.7088775635 8.8957843781
25.4816951752 49.7600402832 8.7232799530
25.5055751801 49.7966651917 8.5459699631
25.5219650269 49.8188896179 8.3638687134
25.5318431854 49.8285903931 8.1775760651
25.5371093750 49.8294219971 7.9883003235
25.5405883789 49.8268165588 7.7978558540
25.5455436707 49.8270454407 7.6083641052
25.5548191071 49.8355903625 7.4216880798
25.5700817108 49.8556518555 7.2389359474
25.5914440155 49.8874435425 7.0602078438
25.6174201965 49.9281158447 6.8845515251
25.6453132629 49.9724769592 6.7102108002
25.6721591949 50.0148277283 6.5352377892
25.6957416534 50.0509033203 6.3581624031
25.7149906158 50.0786399841 6.1782588959
25.7297744751 50.0977935791 5.9954247475
25.7406883240 50.1094970703 5.8100357056
25.7489738464 50.1161422729 5.6229038239
25.7563228607 50.1209869385 5.4351496696
25.7644596100 50.1273460388 5.2479238510
25.7747707367 50.1378936768 5.0621609688
25.7882061005 50.1544532776 4.8785090446
25.8053798676 50.1782073975 4.6973938942
25.8265914917 50.2097358704 4.5190358162
25.8516426086 50.2486534119 4.3433146477
25.8795986176 50.2931671143 4.1696162224
25.9088211060 50.3401184082 3.9968359470
25.9371776581 50.3854064941 3.8235278130
25.9623737335 50.4246139526 3.6481230259
25.9824600220 50.4539909363 3.4692754745
25.9964389801 50.4716110229 3.2862782478
26.0045604706 50.4779510498 3.0992772579
26.0081081390 50.4754905701 2.9091336727
26.0089416504 50.4678001404 2.7171080112
26.0090732574 50.4587631226 2.5245809555
26.0104541779 50.4521255493 2.3328974247
26.0148601532 50.4513130188 2.1432979107
26.0238456726 50.4593200684 1.9568747282
26.0386180878 50.4784660339 1.7744858265
26.0598144531 50.5099868774 1.5966029167
26.0872230530 50.5534744263 1.4231042862
26.1195793152 50.6064949036 1.2531304359
26.1546649933 50.6647682190 1.0851417780
26.1896915436 50.7229385376 0.9171928167
26.2218246460 50.7755355835 0.7472810745
26.2486019135 50.8178215027 0.5736568570
26.2683544159 50.8465805054 0.3951169252
26.2806701660 50.8610153198 0.2113390863
26.2866306305 50.8632087708 0.0230601523
15.2296400070 -25.9548683167 67.2633132935
15.1552858353 -25.8500442505 67.0306320190
15.0105209351 -25.6328239441 66.8072433472
14.8102111816 -25.3269214630 66.5914535522
14.5756340027 -24.9662971497 66.3806228638
14.3312158585 -24.5899314880 66.1716079712
14.0978727341 -24.2312164307 65.9616394043
13.8860330582 -23.9068012238 65.7492446899
13.6939353943 -23.6138820648 65.5346069336
13.5130262375 -23.3388023376 65.3188323975
13.3356685638 -23.0693721771 65.1029434204
13.1592197418 -22.8013706207 64.8872985840
12.9853706360 -22.5375003815 64.6716690063
12.8175210953 -22.2831897736 64.4555435181
12.6585607529 -22.0430526733 64.2385025024
12.5099344254 -21.8194007874 64.0202941895
12.3721294403 -21.6130142212 63.8008155823
12.2455863953 -21.4245967865 63.5799674988
12.1309757233 -21.2552242279 63.3576126099
12.0292434692 -21.1064090729 63.1335639954
11.9420557022 -20.9808139801 62.9075279236
11.8718204498 -20.8822898865 62.6790924072
11.8205900192 -20.8141174316 62.4478874207
11.7888708115 -20.7771091461 62.2137641907
11.7755355835 -20.7694702148 61.9768371582
11.7784156799 -20.7877368927 61.7373771667
11.7944707870 -20.8270568848 61.4958114624
11.8196277618 -20.8809204102 61.2527389526
11.8492650986 -20.9419498444 61.0088653564
11.8794851303 -21.0039157867 60.7648048401
11.9080905914 -21.0633068085 60.5209083557
11.9345531464 -21.1192798615 60.2772712708
11.9592723846 -21.1724700928 60.0338325500
11.9823856354 -21.2230987549 59.7905731201
12.0023336411 -21.2686729431 59.5477638245
12.0155916214 -21.3035583496 59.3060035706
-38.6541519165 59.0463790894 56.6688919067
-38.6581344604 59.0422859192 56.4867134094
-38.6650733948 59.0429382324 56.3052368164
-38.6751518250 59.0486183167 56.1245079041
-38.6903228760 59.0624580383 55.9450149536
-38.7129669189 59.0882720947 55.7673530579
-38.7438354492 59.1272735596 55.5917282104
-38.7813758850 59.1769676208 55.4177932739
-38.8224792480 59.2323837280 55.2448005676
-38.8637046814 59.2879981995 55.0719146729
-38.9022293091 59.3392791748 54.8984260559
-38.9362907410 59.3834152222 54.7238922119
-38.9650802612 59.4191055298 54.5480918884
-38.9883422852 59.4459342957 54.3709411621
-39.0062522888 59.4641799927 54.1924667358
-39.0195808411 59.4750900269 54.0128440857
-39.0297355652 59.4809036255 53.8324203491
-39.0382995605 59.4841690063 53.6515922546
-39.0462150574 59.4864006042 53.4705963135
-39.0528945923 59.4866447449 53.2892761230
-39.0562286377 59.4815254211 53.1070785522
-39.0542221069 59.4678382874 52.9234733582
-39.0471038818 59.4459533691 52.7384986877
-39.0377540588 59.4204864502 52.5528984070
-39.0301666260 59.3978424072 52.3677215576
-39.0277290344 59.3834609985 52.1838760376
-39.0324287415 59.3805274963 52.0019149780
-39.0446472168 59.3896522522 51.8219566345
-39.0634994507 59.4094123840 51.6437988281
-39.0876693726 59.4377098083 51.4670982361
-39.1159324646 59.4725761414 51.2915458679
-39.1467781067 59.5115890503 51.1167449951
-39.1779785156 59.5511665344 50.9420890808
-39.2069511414 59.5871810913 50.7668724060
-39.2314796448 59.6160621643 50.5904731750
-39.2498359680 59.6350517273 50.4123954773
-39.2602386475 59.6412696838 50.2321243286
-39.2604713440 59.6311683655 50.0490074158
-39.2484130859 59.6013450623 49.8624153137
-39.2230720520 59.5501976013 49.6720275879
-39.1852531433 59.4790229797 49.4780235291
-39.1377983093 59.3923759460 49.2811698914
-39.0853385925 59.2976875305 49.0827560425
-39.0331077576 59.2033538818 48.8842620850
-38.9851760864 59.1159172058 48.6868705750
-38.9433631897 59.0382995605 48.4911155701
-38.9072494507 58.9698143005 48.2968940735
-38.8747062683 58.9070625305 48.1036148071
-38.8427619934 58.8452682495 47.9104118347
-38.8088340759 58.7802810669 47.7165298462
-38.7719879150 58.7105979919 47.5216865540
-38.7334403992 58.6381835938 47.3262367249
-38.6959915161 58.5675239563 47.1310043335
-38.6627464294 58.5036087036 46.9369163513
-38.6358680725 58.4499168396 46.7446365356
-38.6157646179 58.4070968628 46.5543136597
-38.6008415222 58.3725891113 46.3654861450
-38.5878219604 58.3411331177 46.1771774292
-38.5724067688 58.3058395386 45.9880905151
-38.5501136780 58.2594833374 45.7968444824
-38.5172958374 58.1962203979 45.6023025513
-38.4723739624 58.1135101318 45.4039421082
-38.4165153503 58.0132293701 45.2020797729
-38.3532447815 57.9010238647 44.9977684021
-38.2872810364 57.7844886780 44.7924575806
-38.2233009338 57.6711273193 44.5875854492
-38.1644668579 57.5660247803 44.3841590881
-38.1110572815 57.4696273804 44.1822814941
-38.0600814819 57.3771324158 43.9810295105
-38.0066146851 57.2806282043 43.7788467407
-37.9462890625 57.1730957031 43.5743408203
-37.8776550293 57.0522041321 43.3670196533
-37.8030738831 56.9217414856 43.1576156616
-37.7271728516 56.7891426086 42.9475936890
-37.6537551880 56.6605339050 42.7381744385
-37.5839424133 56.5376968384 42.5297317505
-37.5169487000 56.4193878174 42.3220214844
-37.4517860413 56.3040122986 42.1147346497
-37.3875045776 56.1900405884 41.9075622559
-37.3224792480 56.0748634338 41.6999740601
-37.2545776367 55.9550514221 41.4912681580
-37.1825218201 55.8285560608 41.2810096741
-37.1071090698 55.6966438293 41.0694465637
-37.0311851501 55.5639114380 40.8575210571
-36.9583358765 55.4361000061 40.6464233398
-36.8909111023 55.3170051575 40.4369544983
-36.8290405273 55.2068290710 40.2291793823
-36.7714385986 55.1035041809 40.0226783752
-36.7168579102 55.0050354004 39.8170471191
-36.6644821167 54.9101028442 39.6120147705
-36.6133575439 54.8171730042 39.4072685242
-36.5623130798 54.7243652344 39.2024116516
-36.5106430054 54.6305389404 38.9971961975
-36.4585266113 54.5359878540 38.7916870117
-36.4065780640 54.4417076111 38.5860977173
-36.3549270630 54.3478927612 38.3804664612
-36.3027648926 54.2532424927 38.1745147705
-36.2490615845 54.1561088562 37.9678802490
-36.1938400269 54.0565223694 37.7605705261
-36.1387596130 53.9571571350 37.5531616211
-36.0865097046 53.8623352051 37.3465995789
-36.0394554138 53.7758636475 37.1417350769
-35.9985122681 53.6992187500 36.9389076233
-35.9630661011 53.6314125061 36.7379264832
-35.9317626953 53.5702667236 36.5383186340
-35.9033164978 53.5137138367 36.3396377563
-35.8768882751 53.4604034424 36.1415977478
-35.8521080017 53.4097442627 35.9440727234
-35.8289642334 53.3617134094 35.7470588684
-35.8075714111 53.3164901733 35.5506019592
-35.7877693176 53.2738265991 35.3546562195
-35.7689552307 53.2327499390 35.1590042114
-35.7504844666 53.1922225952 34.9634132385
-35.7323150635 53.1521797180 34.7678680420
-35.7148284912 53.1132240295 34.5725059509
-35.6977195740 53.0748786926 34.3772277832
-35.6791610718 53.0341911316 34.1813468933
-35.6561546326 52.9863471985 33.9837455750
-35.6259880066 52.9269638062 33.7833938599
-35.5878028870 52.8546638489 33.5799407959
-35.5434989929 52.7725105286 33.3740844727
-35.4972915649 52.6872787476 33.1673774719
-35.4539794922 52.6067008972 32.9616432190
-35.4170722961 52.5364379883 32.7582130432
-35.3879051208 52.4786338806 32.5576210022
-35.3658828735 52.4323272705 32.3596687317
-35.3491058350 52.3944625854 32.1636505127
-35.3349342346 52.3607978821 31.9685745239
-35.3204956055 52.3266944885 31.7733402252
-35.3030395508 52.2877273560 31.5768833160
-35.2802658081 52.2401962280 31.3783035278
-35.2507629395 52.1818122864 31.1770324707
-35.2145919800 52.1126899719 30.9730701447
-35.1737785339 52.0360717773 30.7671871185
-35.1320343018 51.9579544067 30.5608215332
-35.0935287476 51.8850440979 30.3556118011
-35.0610923767 51.8219108582 30.1526851654
-35.0350265503 51.7690353394 29.9521808624
-35.0131340027 51.7228813171 29.7532520294
-34.9918708801 51.6777343750 29.5544986725
-34.9678649902 51.6281700134 29.3545818329
-34.9391708374 51.5710372925 29.1527080536
-34.9057464600 51.5062751770 28.9488449097
-34.8692741394 51.4366035461 28.7436561584
-34.8325347900 51.3664855957 28.5382518768
-34.7985458374 51.3008041382 28.3338546753
-34.7698402405 51.2436294556 28.1315021515
-34.7479286194 51.1974029541 27.9318294525
-34.7329788208 51.1623916626 27.7349262238
-34.7236289978 51.1364059448 27.5402622223
-34.7168540955 51.1145744324 27.3466129303
-34.7080230713 51.0894203186 27.1520786285
-34.6915092468 51.0518760681 26.9543247223
-34.6622543335 50.9937858582 26.7512321472
-34.6180725098 50.9116210938 26.5418453217
-34.5615234375 50.8095054626 26.3271789551
-34.4998703003 50.6991500854 26.1102256775
-34.4424934387 50.5956840515 25.8948974609
-34.3970565796 50.5114631653 25.6844329834
-34.3667640686 50.4516601563 25.4802207947
-34.3500556946 50.4137649536 25.2816581726
-34.3422927856 50.3902931213 25.0868244171
-34.3379325867 50.3723068237 24.8933963776
-34.3321533203 50.3520240784 24.6993293762
-34.3217315674 50.3242607117 24.5032463074
-34.3054809570 50.2870864868 24.3046188354
-34.2839889526 50.2414512634 24.1036777496
-34.2586326599 50.1895828247 23.9010009766
-34.2306327820 50.1334381104 23.6971015930
-34.2010841370 50.0747871399 23.4924411774
-34.1716041565 50.0162506104 23.2877235413
-34.1442871094 49.9611968994 23.0838527679
-34.1207809448 49.9122810364 22.8815612793
-34.1015930176 49.8703384399 22.6810836792
-34.0858535767 49.8339538574 22.4820537567
-34.0710678101 49.7990989685 22.2833805084
-34.0530242920 49.7589950562 22.0832176208
-34.0266876221 49.7054939270 21.8793182373
-33.9882888794 49.6325187683 21.6699848175
-33.9377021790 49.5398674011 21.4551181793
-33.8791656494 49.4343719482 21.2365646362
-33.8195190430 49.3270721436 21.0173530579
-33.7653007507 49.2285346985 20.8004169464
-33.7205734253 49.1453056335 20.5875968933
-33.6859626770 49.0783996582 20.3792076111
-33.6590652466 49.0239486694 20.1742019653
-33.6360931396 48.9758300781 19.9708881378
-33.6135864258 48.9284515381 19.7677097321
-33.5892257690 48.8780822754 19.5636119843
-33.5620079041 48.8230934143 19.3581314087
-33.5323295593 48.7641258240 19.1514377594
-33.5017242432 48.7036514282 18.9442272186
-33.4718894958 48.6444206238 18.7372760773
-33.4436035156 48.5876846313 18.5309486389
-33.4163398743 48.5325965881 18.3250045776
-33.3887214661 48.4769287109 18.1188106537
-33.3591957092 48.4181785583 17.9116420746
-33.3265953064 48.3544502258 17.7029495239
-33.2907104492 48.2854156494 17.4926242828
-33.2528152466 48.2131195068 17.2812500000
-33.2154579163 48.1416931152 17.0700187683
-33.1814537048 48.0756759644 16.8602523804
-33.1528015137 48.0183029175 16.6529121399
-33.1302604675 47.9707946777 16.4483718872
-33.1132125854 47.9321632385 16.2463588715
-33.0995941162 47.8990631104 16.0459156036
-33.0861015320 47.8661689758 15.8454780579
-33.0690345764 47.8274917603 15.6432762146
