-12.8618488312 53.4237670898 14.0931186676
-12.8557434082 53.3917121887 13.8938493729
-12.8476171494 53.3495864868 13.6916055679
-12.8375463486 53.2977752686 13.4864797592
-12.8258008957 53.2376136780 13.2788438797
-12.8132753372 53.1735725403 13.0699863434
-12.8011398315 53.1114730835 12.8616085052
-12.7899303436 53.0539817810 12.6544961929
-12.7794427872 53.0000915527 12.4483613968
-12.7698955536 52.9508857727 12.2435331345
-12.7629089355 52.9144325256 12.0424022675
-12.7607116699 52.9018402100 11.8482875824
-12.7640514374 52.9168357849 11.6623411179
-12.7710742950 52.9501800537 11.4818668365
-12.7785854340 52.9859542847 11.3021535873
-12.7844123840 53.0133399963 11.1199703217
-12.7884607315 53.0318641663 10.9351606369
-12.7917404175 53.0465583801 10.7492179871
-12.7948570251 53.0604438782 10.5630416870
-12.7975893021 53.0724105835 10.3762979507
-12.7995758057 53.0806655884 10.1884403229
-12.8009099960 53.0856704712 9.9996013641
-12.8018712997 53.0888137817 9.8101959229
-12.8027505875 53.0915451050 9.6206626892
-12.8047704697 53.0999679565 9.4328594208
-12.8109226227 53.1289749146 9.2513427734
-12.8247804642 53.1963768005 9.0816059113
-12.8480138779 53.3104934692 8.9262714386
-12.8792610168 53.4645385742 8.7833471298
-12.9152727127 53.6423225403 8.6479234695
-12.9526386261 53.8268585205 8.5148057938
-12.9888429642 54.0056076050 8.3801279068
-13.0227689743 54.1730041504 8.2421560287
-13.0546140671 54.3300399780 8.1011743546
-13.0849866867 54.4797363281 7.9581055641
-13.1139268875 54.6223030090 7.8129973412
-13.1409158707 54.7551422119 7.6650280952
-13.1656742096 54.8768730164 7.5137429237
-13.1886615753 54.9897727966 7.3598384857
-13.2106428146 55.0976676941 7.2044968605
-13.2318172455 55.2015419006 7.0480213165
-13.2513828278 55.2973976135 6.8891406059
-13.2678995132 55.3780632019 6.7255716324
-13.2801752090 55.4376029968 6.5554013252
-13.2879972458 55.4749450684 6.3782510757
-13.2921075821 55.4937934875 6.1952552795
-13.2934875488 55.4990386963 6.0079369545
-13.2926063538 55.4930152893 5.8170175552
-13.2892322540 55.4745674133 5.6221051216
-13.2829275131 55.4415130615 5.4224734306
-13.2738962173 55.3948745728 5.2184252739
-13.2634229660 55.3410530090 5.0119938850
-13.2532558441 55.2887535095 4.8059768677
-13.2443819046 55.2429008484 4.6019701958
-13.2364311218 55.2016448975 4.3993859291
-13.2283010483 55.1594924927 4.1964497566
-13.2194080353 55.1135406494 3.9922149181
-13.2103443146 55.0667381287 3.7876350880
-13.2022838593 55.0249366760 3.5846202374
-13.1957311630 54.9906425476 3.3840022087
-13.1899089813 54.9599914551 3.1845259666
-13.1834220886 54.9260292053 2.9839148521
-13.1755733490 54.8852767944 2.7810163498
-13.1670818329 54.8413238525 2.5770010948
-13.1595277786 54.8020362854 2.3744640350
-13.1541080475 54.7733917236 2.1753928661
-13.1509704590 54.7561149597 1.9800484180
-13.1494960785 54.7471313477 1.7874320745
-13.1489200592 54.7426223755 1.5962861776
-13.1486158371 54.7394638062 1.4055783749
-13.1480588913 54.7350463867 1.2144378424
-13.1467103958 54.7266883850 1.0219626427
-13.1440143585 54.7116127014 0.8272141814
-13.1396064758 54.6880073547 0.6295692325
-13.1336679459 54.6567687988 0.4293129742
-13.1270313263 54.6220550537 0.2278350145
-13.1207304001 54.5890121460 0.0268708467
-44.8973197937 15.5031232834 91.0340652466
-44.9149360657 15.5073337555 90.8413543701
-44.9519805908 15.5179386139 90.6489715576
-45.0015983582 15.5326814651 90.4568557739
-45.0515708923 15.5475397110 90.2647933960
-45.0885810852 15.5581340790 90.0725479126
-45.1038970947 15.5615901947 89.8799133301
-45.0958099365 15.5573425293 89.6868133545
-45.0678520203 15.5465564728 89.4932937622
-45.0244789124 15.5306968689 89.2993927002
-44.9670600891 15.5102128983 89.1051177979
-44.8934478760 15.4843988419 88.9104003906
-44.8021774292 15.4527730942 88.7151718140
-44.6974563599 15.4167175293 88.5195007324
-44.5893363953 15.3795433044 88.3236007690
-44.4882621765 15.3446865082 88.1277313232
-44.3995895386 15.3139114380 87.9320449829
-44.3235359192 15.2872886658 87.7365646362
-44.2596321106 15.2646636963 87.5413131714
-44.2111549377 15.2471160889 87.3463973999
-44.1873168945 15.2376785278 87.1520996094
-44.2033271790 15.2413578033 86.9589157104
-44.2768821716 15.2639799118 86.7674331665
-44.4194908142 15.3093328476 86.5781173706
-44.6257438660 15.3756380081 86.3909225464
-44.8689498901 15.4541110992 86.2051391602
-45.1096687317 15.5317678452 86.0195770264
-45.3129272461 15.5970945358 85.8330764771
-45.4613380432 15.6443672180 85.6450042725
-45.5555114746 15.6737842560 85.4552688599
-45.6053466797 15.6886062622 85.2641143799
-45.6219635010 15.6924924850 85.0718460083
-45.6150016785 15.6886157990 84.8787460327
-45.5928497314 15.6797370911 84.6850738525
-45.5618400574 15.6679430008 84.4910354614
-45.5242843628 15.6539926529 84.2966995239
-45.4778251648 15.6371107101 84.1019668579
-45.4176483154 15.6157112122 83.9066314697
-45.3403358459 15.5886688232 83.7105331421
-45.2468223572 15.5562925339 83.5136795044
-45.1423110962 15.5202922821 83.3162460327
-45.0334014893 15.4828424454 83.1184844971
-44.9254074097 15.4456930161 82.9206237793
-44.8216705322 15.4099454880 82.7227935791
-44.7237930298 15.3761243820 82.5250778198
-44.6326255798 15.3445138931 82.3275222778
-44.5511093140 15.3160791397 82.1302719116
-44.4865150452 15.2932157516 81.9336776733
-44.4483184814 15.2790451050 81.7381973267
-44.4430503845 15.2757177353 81.5441970825
-44.4708786011 15.2832908630 81.3517303467
-44.5260543823 15.2998695374 81.1605987549
-44.5995521545 15.3224830627 80.9704132080
-44.6818389893 15.3479909897 80.7807388306
-44.7647590637 15.3737087250 80.5911941528
-44.8425865173 15.3977508545 80.4014892578
-44.9121246338 15.4190626144 80.2114486694
-44.9716033936 15.4370622635 80.0209655762
-45.0186119080 15.4509553909 79.8298950195
-45.0484695435 15.4591989517 79.6379699707
-45.0547637939 15.4596824646 79.4448165894
-45.0322723389 15.4506835938 79.2501068115
-44.9805641174 15.4320631027 79.0537567139
-44.9065246582 15.4060840607 78.8561019897
-44.8237838745 15.3772382736 78.6578521729
-44.7480354309 15.3506956100 78.4598846436
-44.6903915405 15.3301153183 78.2628479004
-44.6541709900 15.3165922165 78.0669708252
-44.6378517151 15.3096237183 77.8721923828
-44.6408233643 15.3090095520 77.6785354614
-44.6661491394 15.3157587051 77.4861984253
-44.7181510925 15.3312978745 77.2954940796
-44.7980651855 15.3560323715 77.1065521240
-44.9019622803 15.3886671066 76.9191741943
-45.0214996338 15.4264564514 76.7328948975
-45.1457252502 15.4657926559 76.5470504761
-45.2637977600 15.5031003952 76.3609619141
-45.3684043884 15.5359754562 76.1741409302
-45.4569702148 15.5635652542 75.9864120483
-45.5292053223 15.5857753754 75.7977142334
-45.5844345093 15.6023836136 75.6079788208
-45.6218681335 15.6131277084 75.4171142578
-45.6423149109 15.6182765961 75.2251434326
-45.6482391357 15.6186399460 75.0322036743
-45.6415710449 15.6148529053 74.8383941650
-45.6217765808 15.6067428589 74.6436614990
-45.5866279602 15.5935716629 74.4478225708
-45.5359306335 15.5752773285 74.2508316040
-45.4755554199 15.5537919998 74.0530776978
-45.4177551270 15.5331554413 73.8554229736
-45.3770561218 15.5181531906 73.6589279175
-45.3650245667 15.5125980377 73.4644622803
-45.3870468140 15.5182638168 73.2724685669
-45.4414176941 15.5345907211 73.0829086304
-45.5212287903 15.5593023300 72.8953018188
-45.6190605164 15.5899534225 72.7091522217
-45.7309837341 15.6252489090 72.5241851807
-45.8555908203 15.6647262573 72.3403244019
-45.9897308350 15.7073459625 72.1573486328
-46.1264533997 15.7508172989 71.9747314453
-46.2573127747 15.7923603058 71.7918243408
-46.3761863708 15.8299512863 71.6081161499
-46.4808349609 15.8628559113 71.4234085083
-46.5721893311 15.8913812637 71.2377548218
-46.6531295776 15.9164743423 71.0513687134
-46.7265319824 15.9390821457 70.8644485474
-46.7919578552 15.9590625763 70.6769561768
-46.8437995911 15.9745655060 70.4884109497
-46.8735961914 15.9828023911 70.2980728149
-46.8743438721 15.9814653397 70.1053161621
-46.8426666260 15.9694395065 69.9097900391
-46.7782592773 15.9466238022 69.7114105225
-46.6835060120 15.9138031006 69.5103302002
-46.5652236938 15.8732252121 69.3070678711
-46.4368247986 15.8293113708 69.1027679443
-46.3169670105 15.7882127762 68.8990478516
-46.2237358093 15.7558889389 68.6975250244
-46.1693115234 15.7363586426 68.4993438721
-46.1600532532 15.7317171097 68.3051528931
-46.2001991272 15.7433633804 68.1154251099
-46.2932548523 15.7724542618 67.9305572510
-46.4383926392 15.8187170029 67.7505950928
-46.6251754761 15.8787097931 67.5746612549
-46.8322372437 15.9453916550 67.4008407593
-47.0326538086 16.0098857880 67.2266540527
-47.2028121948 16.0644035339 67.0498428345
-47.3291740417 16.1044826508 66.8690795898
-47.4101524353 16.1296005249 66.6841201782
-47.4535865784 16.1423397064 66.4956359863
-47.4715843201 16.1466903687 66.3047256470
-47.4752807617 16.1463260651 66.1124343872
-47.4719467163 16.1436424255 65.9194488525
-47.4645271301 16.1396141052 65.7260437012
-47.4526290894 16.1341056824 65.5321731567
-47.4342918396 16.1264762878 65.3376388550
-47.4084854126 16.1163825989 65.1423110962
-47.3768348694 16.1043605804 64.9463500977
-47.3431930542 16.0916824341 64.7501296997
-47.3115730286 16.0796699524 64.5540771484
-47.2847976685 16.0692558289 64.3584671021
-47.2649459839 16.0611248016 64.1635360718
-47.2546577454 16.0561466217 63.9695663452
-47.2580451965 16.0556793213 63.7770156860
-47.2804565430 16.0614852905 63.5864715576
-47.3263893127 16.0750484467 63.3984527588
-47.3962783813 16.0965137482 63.2130470276
-47.4849739075 16.1241836548 63.0297470093
-47.5840873718 16.1552886963 62.8476791382
-47.6859130859 16.1872901917 62.6660232544
-47.7853775024 16.2185153961 62.4842300415
-47.8795013428 16.2479763031 62.3019599915
-47.9658012390 16.2748603821 62.1189308167
-48.0408668518 16.2980384827 61.9347496033
-48.1005668640 16.3161487579 61.7489318848
-48.1422843933 16.3283290863 61.5611457825
-48.1665077209 16.3347377777 61.3714218140
-48.1759567261 16.3362731934 61.1800308228
-48.1734275818 16.3338565826 60.9872703552
-48.1602134705 16.3279170990 60.7932624817
-48.1355247498 16.3181915283 60.5978965759
-48.0966606140 16.3037872314 60.4008369446
-48.0404739380 16.2836685181 60.2016830444
-47.9664192200 16.2576560974 60.0003471375
-47.8798294067 16.2275047302 59.7974166870
-47.7930603027 16.1972942352 59.5943489075
-47.7233810425 16.1727237701 59.3932075500
-47.6885910034 16.1596603394 59.1961708069
-47.7018966675 16.1624660492 59.0049018860
-47.7673835754 16.1824874878 58.8199882507
-47.8778762817 16.2173576355 58.6406555176
-48.0175590515 16.2618618011 58.4650459290
-48.1688079834 16.3101825714 58.2910308838
-48.3181343079 16.3578720093 58.1169586182
-48.4571952820 16.4021739960 57.9417839050
-48.5804595947 16.4412670135 57.7647933960
-48.6835250854 16.4736938477 57.5853996277
-48.7636299133 16.4985466003 57.4032173157
-48.8208885193 16.5158596039 57.2182159424
-48.8583526611 16.5266437531 57.0307426453
-48.8806457520 16.5324211121 56.8413543701
-48.8922462463 16.5346679688 56.6506042480
-48.8963584900 16.5344467163 56.4588813782
-48.8943443298 16.5322017670 56.2663574219
-48.8857536316 16.5277862549 56.0729560852
-48.8696098328 16.5208778381 55.8785400391
-48.8465232849 16.5116786957 55.6831741333
-48.8192634583 16.5011024475 55.4872093201
-48.7905006409 16.4900283813 55.2910041809
-48.7608184814 16.4786510468 55.0946273804
-48.7309532166 16.4672145844 54.8981781006
-48.7065238953 16.4575691223 54.7024154663
-48.6990203857 16.4535102844 54.5089225769
-48.7204132080 16.4589900970 54.3193664551
-48.7758827209 16.4757175446 54.1345138550
-48.8606948853 16.5021305084 53.9537773132
-48.9630355835 16.5343303680 53.7755737305
-49.0701713562 16.5681133270 53.5981597900
-49.1732444763 16.6005554199 53.4202995300
-49.2675628662 16.6301097870 53.2413330078
-49.3497886658 16.6556739807 53.0607604980
-49.4166145325 16.6761531830 52.8781013489
-49.4664802551 16.6910362244 52.6930961609
-49.5008277893 16.7007961273 52.5059204102
-49.5226860046 16.7064323425 52.3169784546
-49.5343055725 16.7086906433 52.1265792847
-49.5360031128 16.7076740265 51.9347419739
-49.5262908936 16.7028884888 51.7412338257
-49.5028800964 16.6935806274 51.5456962585
-49.4644775391 16.6793231964 51.3479118347
-49.4123954773 16.6605491638 51.1480522156
-49.3503761292 16.6384944916 50.9466400146
-49.2825050354 16.6145076752 50.7442665100
-49.2112503052 16.5894012451 50.5412902832
-49.1381759644 16.5636920929 50.3379402161
-49.0677032471 16.5388431549 50.1348838806
-49.0104675293 16.5183620453 49.9337310791
-48.9817504883 16.5072994232 49.7368354797
-48.9947204590 16.5100002289 49.5462646484
-49.0528335571 16.5276050568 49.3626251221
-49.1470375061 16.5571308136 49.1846122742
-49.2604217529 16.5929889679 49.0096778870
-49.3770370483 16.6299152374 48.8353805542
-49.4872932434 16.6647434235 48.6602287292
-49.5867118835 16.6959953308 48.4835090637
-49.6729316711 16.7228870392 48.3048286438
-49.7452812195 16.7451992035 48.1240615845
-49.8050308228 16.7633533478 47.9413757324
-49.8538627625 16.7779006958 47.7570190430
-49.8917007446 16.7888183594 47.5709609985
-49.9157142639 16.7951698303 47.3827209473
-49.9212684631 16.7954254150 47.1915245056
-49.9051818848 16.7885341644 46.9968299866
-49.8693695068 16.7751274109 46.7989006042
-49.8208084106 16.7575111389 46.5988388062
-49.7669219971 16.7381343842 46.3978347778
-49.7108764648 16.7180423737 46.1963958740
-49.6515502930 16.6968688965 45.9943351746
-49.5880393982 16.6743106842 45.7914962769
-49.5244102478 16.6517124176 45.5885505676
-49.4702911377 16.6322555542 45.3870964050
-49.4367980957 16.6196117401 45.1890182495
-49.4314117432 16.6162509918 44.9956092834
-49.4553337097 16.6225700378 44.8071327209
-49.5035934448 16.6369304657 44.6227951050
-49.5676460266 16.6565074921 44.4411964417
-49.6402168274 16.6788978577 44.2611198425
-49.7192687988 16.7034320831 44.0822372437
-49.8065147400 16.7306728363 43.9048538208
-49.9016075134 16.7605075836 43.7289276123
-49.9984130859 16.7909069061 43.5534057617
-50.0869293213 16.8185691833 43.3765602112
-50.1584434509 16.8406181335 43.1968498230
-50.2094078064 16.8558750153 43.0136222839
-50.2413864136 16.8648624420 42.8271141052
-50.2581939697 16.8688354492 42.6379585266
-50.2628593445 16.8687992096 42.4466667175
-50.2562713623 16.8650436401 42.2533760071
-50.2371330261 16.8571414948 42.0578269958
-50.2028999329 16.8442516327 41.8595428467
-50.1520538330 16.8258724213 41.6582183838
-50.0872154236 16.8028697968 41.4543037415
-50.0162010193 16.7778244019 41.2491798401
-49.9484558105 16.7538585663 41.0445442200
-49.8897438049 16.7328777313 40.8414611816
-49.8412666321 16.7152767181 40.6401634216
-49.8046493530 16.7015972137 40.4409675598
-49.7864112854 16.6939868927 40.2450981140
-49.7953834534 16.6953716278 40.0542182922
-49.8353385925 16.7069931030 39.8690795898
-49.9005317688 16.7269535065 39.6886749268
-49.9778594971 16.7509269714 39.5106086731
-50.0525550842 16.7740306854 39.3321380615
-50.1135368347 16.7926025391 39.1511764526
-50.1563186646 16.8051605225 38.9668540955
-50.1822967529 16.8121643066 38.7793960571
-50.1953125000 16.8148860931 38.5895042419
-50.1983757019 16.8143177032 38.3977203369
-50.1924552917 16.8107795715 38.2042198181
-50.1767921448 16.8040218353 38.0088310242
-50.1495780945 16.7934474945 37.8111915588
-50.1090507507 16.7784709930 37.6109390259
-50.0554199219 16.7591629028 37.4080886841
-49.9926948547 16.7368469238 37.2033958435
-49.9283065796 16.7139835358 36.9982872009
-49.8700294495 16.6931381226 36.7942810059
-49.8228721619 16.6759662628 36.5923728943
-49.7886428833 16.6630687714 36.3929367065
-49.7678260803 16.6546039581 36.1960945129
-49.7614631653 16.6509151459 36.0020790100
-49.7717857361 16.6527442932 35.8113594055
-49.8017616272 16.6610698700 35.6245613098
-49.8534660339 16.6765785217 35.4421348572
-49.9260520935 16.6989898682 35.2639541626
-50.0153884888 16.7269401550 35.0892257690
-50.1162910461 16.7587146759 34.9169387817
-50.2245254517 16.7929153442 34.7462501526
-50.3356094360 16.8280582428 34.5762748718
-50.4424018860 16.8617839813 34.4055519104
-50.5356330872 16.8910255432 34.2321853638
-50.6080474854 16.9133872986 34.0546607971
-50.6584472656 16.9284706116 33.8726882935
-50.6919631958 16.9379711151 33.6872863770
-50.7162399292 16.9444160461 33.5000076294
-50.7360038757 16.9493713379 33.3118095398
-50.7487182617 16.9519958496 33.1221618652
-50.7441062927 16.9488906860 32.9289016724
-50.7093353271 16.9358139038 32.7293052673
-50.6374816895 16.9104728699 32.5218620300
-50.5327873230 16.8742733002 32.3073921204
-50.4087677002 16.8316822052 32.0886955261
-50.2815132141 16.7880191803 31.8691425323
-50.1630859375 16.7472743988 31.6512947083
-50.0582809448 16.7110328674 31.4361934662
-49.9673271179 16.6793708801 31.2239112854
-49.8939895630 16.6535320282 31.0152854919
-49.8505516052 16.6375827789 30.8129901886
-49.8504981995 16.6359786987 30.6199970245
-49.8951606750 16.6491641998 30.4366779327
-49.9707031250 16.6725616455 30.2601127625
-50.0582046509 16.6999149323 30.0862388611
-50.1440429688 16.7267189026 29.9121036530
-50.2224769592 16.7510757446 29.7364463806
-50.2930603027 16.7728347778 29.5591526031
-50.3559799194 16.7920627594 29.3802528381
-50.4078292847 16.8076286316 29.1989746094
-50.4412422180 16.8170967102 29.0136661530
-50.4489288330 16.8180541992 28.8226718903
-50.4280738831 16.8095722198 28.6253147125
-50.3818893433 16.7927131653 28.4222602844
-50.3177413940 16.7699108124 28.2151050568
-50.2425041199 16.7434387207 28.0053672791
-50.1585083008 16.7140693665 27.7935466766
-50.0644950867 16.6813850403 27.5793437958
-49.9612655640 16.6456508636 27.3629207611
-49.8560829163 16.6092681885 27.1459102631
-49.7612533569 16.5763111115 26.9311199188
-49.6884117126 16.5506267548 26.7212238312
-49.6436882019 16.5342426300 26.5176734924
-49.6276245117 16.5273399353 26.3206481934
-49.6384544373 16.5293331146 26.1297931671
-49.6739730835 16.5394954681 25.9446506500
-49.7300071716 16.5564460754 25.7643032074
-49.7990417480 16.5776958466 25.5870380402
-49.8726730347 16.6004695892 25.4109249115
-49.9454498291 16.6229610443 25.2346954346
-50.0146560669 16.6442699432 25.0577125549
-50.0767707825 16.6632347107 24.8791408539
-50.1266899109 16.6781654358 24.6977653503
-50.1609535217 16.6879138947 24.5127410889
-50.1799774170 16.6926231384 24.3241386414
-50.1861839294 16.6930904388 24.1325054169
-50.1804504395 16.6896057129 23.9380245209
-50.1606445313 16.6814651489 23.7401657104
-50.1235580444 16.6676063538 23.5381298065
-50.0688629150 16.6479187012 23.3318061829
-50.0012512207 16.6239566803 23.1222934723
-49.9276542664 16.5980148315 22.9112377167
-49.8520355225 16.5714015961 22.6995887756
-49.7742881775 16.5440845490 22.4873161316
-49.6949195862 16.5162277222 22.2745380402
-49.6193962097 16.4896450043 22.0625896454
-49.5563697815 16.4671955109 21.8535900116
-49.5118827820 16.4508819580 21.6490497589
-49.4862327576 16.4407997131 21.4490737915
-49.4757881165 16.4357528687 21.2528057098
-49.4768218994 16.4345016479 21.0593528748
-49.4880409241 16.4366245270 20.8684158325
-49.5109367371 16.4426097870 20.6803855896
-49.5476264954 16.4531631470 20.4958114624
-49.5970230103 16.4679203033 20.3144493103
-49.6524772644 16.4846839905 20.1346569061
-49.7040634155 16.5001678467 19.9539566040
-49.7437095642 16.5116996765 19.7703037262
-49.7679023743 16.5181179047 19.5827922821
-49.7761077881 16.5192413330 19.3912563324
-49.7676963806 16.5148658752 19.1955070496
-49.7407112122 16.5043430328 18.9950141907
-49.6934165955 16.4870967865 18.7892971039
-49.6274108887 16.4636535645 18.5787277222
-49.5490646362 16.4361248016 18.3649024963
-49.4668502808 16.4073162079 18.1499729156
-49.3871040344 16.3793239594 17.9355640411
-49.3136367798 16.3534069061 17.7226619720
-49.2517814636 16.3313350677 17.5126609802
-49.2108802795 16.3162002563 17.3080081940
-49.2004318237 16.3111457825 17.1112117767
-49.2231178284 16.3170623779 16.9230327606
-49.2724494934 16.3318004608 16.7418346405
-49.3377456665 16.3518238068 16.5648727417
-49.4106292725 16.3743610382 16.3899784088
-49.4860572815 16.3977413177 16.2158374786
-49.5589790344 16.4202919006 16.0411205292
-49.6232528687 16.4399795532 15.8641996384
-49.6744041443 16.4553241730 15.6838712692
-49.7118568420 16.4661331177 15.4999570847
-49.7377700806 16.4731197357 15.3130054474
-49.7545318604 16.4770774841 15.1236324310
-49.7633781433 16.4784145355 14.9321517944
-49.7642669678 16.4771156311 14.7385358810
-49.7561759949 16.4728431702 14.5424957275
-49.7375259399 16.4650726318 14.3435869217
-49.7064514160 16.4531898499 14.1412858963
-49.6612510681 16.4366283417 13.9351062775
-49.6018409729 16.4153594971 13.7250003815
-49.5322837830 16.3907299042 13.5120449066
-49.4618492126 16.3658084869 13.2987499237
-49.4020233154 16.3444004059 13.0882577896
-49.3613204956 16.3293247223 12.8829212189
-49.3428764343 16.3216190338 12.6836395264
-49.3465232849 16.3212318420 12.4904108047
-49.3719215393 16.3280467987 12.3031816483
-49.4190063477 16.3420467377 12.1219778061
-49.4857940674 16.3625717163 11.9462890625
-49.5667495728 16.3877906799 11.7746152878
-49.6538581848 16.4150485992 11.6047506332
-49.7388648987 16.4416103363 11.4344005585
-49.8145332336 16.4650783539 11.2615356445
-49.8757171631 16.4837532043 11.0846929550
-49.9208602905 16.4971122742 10.9034080505
-49.9516067505 16.5057029724 10.7181110382
-49.9696846008 16.5100975037 10.5292654037
-49.9743461609 16.5100479126 10.3366336823
-49.9634437561 16.5048427582 10.1395816803
-49.9363327026 16.4942665100 9.9378929138
-49.8947486877 16.4788970947 9.7320337296
-49.8419418335 16.4598083496 9.5229053497
-49.7830162048 16.4386920929 9.3119449615
-49.7260856628 16.4182357788 9.1014719009
-49.6810836792 16.4017314911 8.8943481445
-49.6566390991 16.3920364380 8.6930828094
-49.6587715149 16.3911476135 8.4994554520
-49.6921272278 16.4006023407 8.3148641586
-49.7602729797 16.4215831757 8.1404018402
-49.8634452820 16.4541721344 7.9762082100
-49.9958534241 16.4964485168 7.8206586838
-50.1449699402 16.5442619324 7.6701521873
-50.2944374084 16.5921916962 7.5199294090
-50.4300575256 16.6355361938 7.3658261299
-50.5452575684 16.6721153259 7.2058806419
-50.6413841248 16.7023754120 7.0404515266
-50.7227516174 16.7277469635 6.8707766533
-50.7913513184 16.7488861084 6.6974163055
-50.8459663391 16.7653923035 6.5199856758
-50.8852500916 16.7768211365 6.3380570412
-50.9101676941 16.7834873199 6.1518883705
-50.9233741760 16.7862720490 5.9622440338
-50.9271240234 16.7859249115 5.7697777748
-50.9220199585 16.7826423645 5.5746507645
-50.9069213867 16.7760486603 5.3765034676
-50.8794479370 16.7653503418 5.1745986938
-50.8369827271 16.7496871948 4.9681258202
-50.7785758972 16.7287387848 4.7567653656
-50.7073211670 16.7035293579 4.5414242744
-50.6317367554 16.6768875122 4.3246679306
-50.5642776489 16.6529350281 4.1102766991
-50.5170516968 16.6356887817 3.9019613266
-50.4974937439 16.6276130676 3.7020325661
-50.5064353943 16.6289825439 3.5107984543
-50.5386848450 16.6380786896 3.3267209530
-50.5855102539 16.6520061493 3.1471588612
-50.6388702393 16.6680984497 2.9696607590
-50.6949768066 16.6851043701 2.7930703163
-50.7534790039 16.7029018402 2.6172831059
-50.8130302429 16.7210483551 2.4418864250
-50.8687820435 16.7379379272 2.2653765678
-50.9146690369 16.7515583038 2.0858557224
-50.9470787048 16.7607097626 1.9021767378
-50.9655876160 16.7652511597 1.7141815424
-50.9705924988 16.7653179169 1.5219676495
-50.9608955383 16.7605113983 1.3251340389
-50.9336891174 16.7498989105 1.1227668524
-50.8867645264 16.7327499390 0.9141381979
-50.8210754395 16.7093791962 0.6995084286
-50.7420387268 16.6815814972 0.4805581272
-50.6593894958 16.6525859833 0.2603499293
-50.5851707458 16.6263847351 0.0427049361
0.8948966861 53.6272850037 94.1137542725
0.8961917758 53.6578483582 93.9267807007
0.8987008333 53.7113876343 93.7402648926
0.9022041559 53.7837486267 93.5541687012
0.9064560533 53.8702774048 93.3684387207
0.9111517668 53.9652023315 93.1829757690
0.9159224629 54.0615463257 92.9976501465
0.9203837514 54.1520271301 92.8123168945
0.9241800308 54.2299156189 92.6268005371
0.9270513058 54.2902946472 92.4409790039
0.9289385676 54.3320503235 92.2547836304
0.9300023913 54.3582153320 92.0682601929
0.9304927588 54.3735275269 91.8814926147
0.9306018353 54.3816184998 91.6945571899
0.9304235578 54.3842735291 91.5074768066
0.9299820662 54.3819503784 91.3202667236
0.9292231202 54.3736152649 91.1328811646
0.9279295802 54.3551673889 90.9451904297
0.9256610870 54.3182678223 90.7569503784
0.9219303727 54.2537002563 90.5678482056
0.9166778326 54.1603355408 90.3777999878
0.9106707573 54.0526962280 90.1872024536
0.9052942395 53.9569931030 89.9968261719
0.9017613530 53.8961830139 89.8074340820
0.9004197121 53.8768348694 89.6192855835
0.9007259607 53.8886718750 89.4321289063
0.9018067718 53.9151649475 89.2454681396
0.9030815959 53.9453239441 89.0589599609
0.9045093060 53.9783782959 88.8725738525
0.9064209461 54.0205879211 88.6865539551
0.9091771245 54.0787734985 88.5011520386
0.9128772616 54.1548156738 88.3164596558
0.9172816277 54.2441787720 88.1323547363
0.9219880700 54.3392562866 87.9485702515
0.9266878963 54.4342041016 87.7648925781
0.9312529564 54.5265960693 87.5812225342
0.9356784225 54.6163444519 87.3975524902
0.9400504827 54.7050819397 87.2139511108
0.9444670081 54.7946548462 87.0304870605
0.9487811327 54.8822860718 86.8470458984
0.9523835182 54.9564552307 86.6631317139
0.9543805122 55.0002479553 86.4780120850
0.9541351795 55.0016288757 86.2910919189
0.9517310858 54.9621772766 86.1023788452
0.9479556680 54.8967895508 85.9124450684
0.9437731504 54.8237037659 85.7220687866
0.9397051930 54.7527885437 85.5317001343
0.9356589317 54.6822853088 85.3412551880
0.9312998056 54.6058692932 85.1504287720
0.9265162945 54.5214309692 84.9591217041
0.9216192961 54.4348449707 84.7675933838
0.9173499942 54.3601417542 84.5765380859
0.9147872925 54.3177108765 84.3869781494
0.9149371386 54.3265800476 84.1999359131
0.9180757403 54.3919677734 84.0157775879
0.9235031605 54.5006408691 83.8339157104
0.9300626516 54.6307144165 83.6532974243
0.9368603230 54.7652854919 83.4730758667
0.9434591532 54.8960914612 83.2928085327
0.9495739937 55.0177421570 83.1122055054
0.9548459649 55.1234512329 82.9308776855
0.9589832425 55.2076988220 82.7484817505
0.9619815946 55.2704124451 82.5649871826
0.9640948176 55.3163871765 82.3806152344
0.9656180143 55.3512039185 82.1956558228
0.9667299390 55.3782424927 82.0102767944
0.9674896598 55.3986206055 81.8245468140
0.9678996205 55.4123878479 81.6384353638
0.9679438472 55.4192390442 81.4519271851
0.9675709605 55.4182052612 81.2649383545
0.9666568637 55.4069442749 81.0773239136
0.9650279284 55.3821640015 80.8888549805
0.9626016617 55.3423156738 80.6994094849
0.9595397115 55.2904510498 80.5091552734
0.9561904073 55.2331581116 80.3184890747
0.9528140426 55.1753540039 80.1277008057
0.9494344592 55.1174964905 79.9368362427
0.9460430145 55.0594139099 79.7458801270
0.9429467916 55.0069122314 79.5552062988
0.9408891797 54.9740486145 79.3657608032
0.9408083558 54.9785461426 79.1787796021
0.9433436394 55.0324897766 78.9951400757
0.9483780861 55.1336669922 78.8147888184
0.9550282359 55.2653770447 78.6366653442
0.9621865153 55.4066886902 78.4593658447
0.9691141248 55.5436286926 78.2819290161
0.9755251408 55.6708068848 78.1039581299
0.9812375307 55.7847747803 77.9252014160
0.9859421253 55.8796920776 77.7452011108
0.9893657565 55.9504013062 77.5635528564
0.9915312529 55.9973297119 77.3802413940
0.9927546978 56.0264549255 77.1956634521
0.9934275150 56.0451774597 77.0103378296
0.9938366413 56.0589141846 76.8246612549
0.9941312671 56.0704879761 76.6388168335
0.9943394661 56.0804252625 76.4528656006
0.9943136573 56.0859451294 76.2665710449
0.9936112761 56.0786819458 76.0792846680
0.9915097952 56.0449790955 75.8899078369
0.9873690605 55.9727554321 75.6974487305
0.9812013507 55.8622360229 75.5018386841
0.9739337564 55.7309379578 75.3044128418
0.9670287967 55.6064987183 75.1073684692
0.9617623091 55.5130195618 74.9126892090
0.9587628245 55.4623756409 74.7213973999
0.9580259919 55.4544754028 74.5335769653
0.9591363072 55.4814682007 74.3486404419
0.9614714384 55.5316009521 74.1656723022
0.9644405246 55.5937042236 73.9837722778
0.9677321911 55.6619033813 73.8024597168
0.9713335633 55.7359466553 73.6217269897
0.9752628803 55.8161849976 73.4416122437
0.9793216586 55.8988647461 73.2618103027
0.9831443429 55.9770812988 73.0817031860
0.9864473343 56.0454788208 72.9008255005
0.9891934395 56.1033554077 72.7190933228
0.9915506244 56.1538848877 72.5367584229
0.9937176108 56.2008171082 72.3541564941
0.9957579374 56.2453613281 72.1713943481
0.9975634217 56.2854652405 71.9882659912
0.9989361167 56.3173942566 71.8044357300
0.9996803403 56.3374519348 71.6195297241
0.9996457696 56.3428039551 71.4332733154
0.9987214208 56.3313522339 71.2454376221
0.9967831373 56.3007545471 71.0557708740
0.9936707020 56.2479858398 70.8639450073
0.9893224239 56.1718788147 70.6698074341
0.9840334654 56.0780181885 70.4738540649
0.9785537720 55.9805564880 70.2774276733
0.9737932086 55.8966751099 70.0821990967
0.9703388810 55.8374671936 69.8892822266
0.9682456255 55.8039588928 69.6988220215
0.9672502875 55.7911796570 69.5103836060
0.9671316147 55.7949562073 69.3235778809
0.9679323435 55.8160934448 69.1385192871
0.9699558020 55.8603096008 68.9558258057
0.9734985232 55.9332122803 68.7761077881
0.9783998132 56.0317611694 68.5990982056
0.9838073850 56.1398620605 68.4232025146
0.9885462523 56.2353363037 68.2461166382
0.9918201566 56.3031501770 68.0662460327
0.9935385585 56.3415946960 67.8833694458
0.9940606356 56.3574562073 67.6981353760
0.9938051105 56.3586425781 67.5113601685
0.9930996895 56.3513298035 67.3236618042
0.9921929240 56.3402214050 67.1355361938
0.9912643433 56.3287010193 66.9473495483
0.9904241562 56.3188514709 66.7593231201
0.9896789789 56.3107948303 66.5714721680
0.9888249040 56.3006820679 66.3833770752
0.9874369502 56.2804908752 66.1941452026
0.9851095080 56.2425727844 66.0028991699
0.9817656279 56.1854743958 65.8094482422
0.9777554870 56.1157989502 65.6145095825
0.9737309217 56.0458564758 65.4194335938
0.9704288840 55.9895515442 65.2258224487
0.9684871435 55.9589233398 65.0350799561
0.9683827162 55.9629707336 64.8482818604
0.9704195857 56.0074234009 64.6661605835
0.9745694399 56.0917510986 64.4887390137
0.9802462459 56.2048912048 64.3147811890
0.9864073992 56.3271636963 64.1420364380
0.9921085835 56.4407539368 63.9684104919
0.9970315695 56.5396575928 63.7931709290
1.0014612675 56.6292457581 63.6169319153
1.0057927370 56.7169799805 63.4405746460
1.0100886822 56.8040390015 63.2642402649
1.0140377283 56.8845520020 63.0872077942
1.0172271729 56.9507255554 62.9085197449
1.0194292068 56.9982681274 62.7276229858
1.0206968784 57.0281829834 62.5446014404
1.0212659836 57.0449180603 62.3599739075
1.0213856697 57.0531730652 62.1743011475
1.0211929083 57.0555305481 61.9878959656
1.0206472874 57.0512351990 61.8006477356
1.0194796324 57.0352058411 61.6119003296
1.0171945095 56.9980926514 61.4204483032
1.0133001804 56.9306297302 61.2250633240
1.0077891350 56.8326683044 61.0256690979
1.0014554262 56.7191925049 60.8241424561
0.9955773950 56.6143226624 60.6235847473
0.9911875725 56.5375251770 60.4265403748
0.9886652231 56.4959564209 60.2340049744
0.9878832102 56.4872131348 60.0457305908
0.9884660244 56.5042152405 59.8608360291
0.9898877144 56.5370407104 59.6780548096
0.9915952682 56.5752525330 59.4960289001
0.9932501912 56.6124725342 59.3139076233
0.9948646426 56.6489295959 59.1317214966
0.9966971874 56.6894950867 58.9501304626
0.9990438819 56.7397575378 58.7699012756
1.0020501614 56.8024597168 58.5914268494
1.0055683851 56.8748092651 58.4143447876
1.0091427565 56.9482192993 58.2374916077
1.0122306347 57.0124511719 58.0594520569
1.0145236254 57.0616874695 57.8794021606
1.0160588026 57.0966377258 57.6974105835
1.0170500278 57.1213264465 57.5140151978
1.0176860094 57.1393165588 57.3296966553
1.0180828571 57.1527976990 57.1447563171
1.0183032751 57.1629524231 56.9593544006
1.0183039904 57.1689643860 56.7733650208
1.0178705454 57.1667861938 56.5862007141
1.0166709423 57.1501693726 56.3969459534
1.0144054890 57.1134529114 56.2047538757
1.0109202862 57.0537452698 56.0091667175
1.0062669516 56.9720153809 55.8102836609
1.0007586479 56.8741722107 55.6089286804
0.9949319363 56.7703285217 55.4065589905
0.9893154502 56.6704521179 55.2046394348
0.9842493534 56.5809593201 55.0041275024
0.9800783992 56.5083389282 54.8060112000
0.9774489403 56.4647865295 54.6121444702
0.9770346880 56.4629898071 54.4244956970
0.9788233042 56.5027198792 54.2431068420
0.9819493294 56.5676574707 54.0655784607
0.9853492975 56.6377563477 53.8889122009
0.9883915186 56.7011070251 53.7112922668
0.9909057617 56.7545051575 53.5322189331
0.9929088354 56.7982673645 53.3517189026
0.9944288731 56.8329238892 53.1698570251
0.9954674840 56.8585090637 52.9866218567
0.9960103631 56.8747444153 52.8019523621
0.9960549474 56.8815917969 52.6158256531
0.9956376553 56.8797340393 52.4283294678
0.9948359728 56.8706321716 52.2396812439
0.9937284589 56.8557662964 52.0500984192
0.9923185706 56.8352050781 51.8595848083
0.9904950261 56.8068466187 51.6677932739
0.9881372452 56.7684249878 51.4743423462
0.9853603840 56.7221069336 51.2795677185
0.9826459885 56.6769676208 51.0849113464
0.9805989265 56.6444053650 50.8922348022
0.9795251489 56.6301879883 50.7024993896
0.9793457985 56.6328201294 50.5154914856
0.9799070954 56.6494064331 50.3307723999
0.9811541438 56.6789169312 50.1481933594
0.9829353094 56.7184906006 49.9673080444
0.9848720431 56.7609901428 49.7869491577
0.9865813255 56.7992057800 49.6059226990
0.9879242778 56.8305168152 49.4237823486
0.9889734983 56.8562927246 49.2407455444
0.9898411036 56.8786468506 49.0571556091
0.9906002283 56.8989562988 48.8732414246
0.9913100004 56.9183349609 48.6891860962
0.9920452833 56.9381942749 48.5052261353
0.9928855896 56.9600334167 48.3216247559
0.9938447475 56.9841079712 48.1384277344
0.9947870970 57.0078697205 47.9551963806
0.9954541326 57.0264396667 47.7710914612
0.9956154227 57.0354843140 47.5853500366
0.9951807261 57.0333023071 47.3976554871
0.9941497445 57.0198898315 47.2079887390
0.9924622774 56.9941139221 47.0161247253
0.9898941517 56.9517517090 46.8213005066
0.9861286283 56.8868370056 46.6224327087
0.9810450077 56.7971038818 46.4190711975
0.9750415087 56.6900444031 46.2125053406
0.9690688848 56.5835762024 46.0059051514
0.9643218517 56.5001907349 45.8032989502
0.9618569613 56.4597892761 45.6083106995
0.9622559547 56.4733238220 45.4230003357
0.9652846456 56.5363769531 45.2466659546
0.9698305726 56.6280021667 45.0755996704
0.9744749665 56.7214775085 44.9049720764
0.9783170819 56.7998428345 44.7316932678
0.9812443852 56.8609771729 44.5553398132
0.9835082293 56.9096183777 44.3767547607
0.9852010012 56.9475059509 44.1962356567
0.9861310720 56.9710273743 44.0130882263
0.9860656261 56.9758071899 43.8264770508
0.9850326180 56.9623680115 43.6364593506
0.9834114909 56.9378547668 43.4443435669
0.9817435741 56.9124641418 43.2520217896
0.9804415703 56.8939628601 43.0609588623
0.9796326756 56.8847427368 42.8716239929
0.9791186452 56.8810806274 42.6833267212
0.9783422351 56.8724784851 42.4940757751
0.9765337706 56.8444442749 42.3010864258
0.9732427597 56.7885017395 42.1027069092
0.9688529968 56.7118797302 41.9002685547
0.9643964171 56.6340026855 41.6974792480
0.9607775807 56.5718994141 41.4976425171
0.9582648873 56.5306205750 41.3017692566
0.9566506147 56.5062561035 41.1091308594
0.9556659460 56.4937438965 40.9187698364
0.9551957250 56.4909172058 40.7302894592
0.9552798867 56.4985198975 40.5438499451
0.9560813904 56.5196304321 40.3600769043
0.9578559399 56.5590515137 40.1799545288
0.9608060718 56.6205978394 40.0042686462
0.9648034573 56.7018508911 39.8325805664
0.9692514539 56.7915840149 39.6626853943
0.9733699560 56.8751106262 39.4916496277
0.9766981006 56.9437599182 39.3177146912
0.9792823792 56.9984092712 39.1410369873
0.9813955426 57.0441894531 38.9626197815
0.9831649661 57.0834999084 38.7829399109
0.9844657183 57.1139907837 38.6015052795
0.9850376248 57.1307640076 38.4172935486
0.9846071005 57.1286735535 38.2292327881
0.9829573631 57.1036415100 38.0364418030
0.9800188541 57.0543594360 37.8386077881
0.9759421349 56.9836616516 37.6362724304
0.9710375071 56.8973922729 37.4306068420
0.9656080008 56.8012504578 37.2227745056
0.9597761631 56.6975402832 37.0132293701
0.9533934593 56.5834732056 36.8013763428
0.9462695122 56.4554634094 36.5864448547
0.9388315082 56.3215484619 36.3700981140
0.9325372577 56.2091598511 36.1581268311
0.9291580915 56.1516189575 35.9576301575
0.9293900728 56.1620140076 35.7714958191
0.9323657155 56.2240257263 35.5963706970
0.9365977645 56.3096694946 35.4263725281
0.9411553741 56.4014358521 35.2577857971
0.9459289312 56.4972610474 35.0901794434
0.9511682391 56.6018447876 34.9245758057
0.9570248723 56.7180328369 34.7616081238
0.9633167386 56.8424072266 34.6005554199
0.9694148898 56.9631309509 34.4388580322
0.9743745327 57.0624389648 34.2726287842
0.9773190618 57.1238365173 34.0982208252
0.9777429700 57.1378250122 33.9134750366
0.9755660295 57.1028938293 33.7179679871
0.9711416364 57.0256919861 33.5130767822
0.9652487040 56.9208755493 33.3019676208
0.9588484764 56.8065261841 33.0886001587
0.9527061582 56.6970291138 32.8761596680
0.9472261667 56.5999946594 32.6663589478
0.9424981475 56.5171051025 32.4595947266
0.9383368492 56.4448738098 32.2551116943
0.9343926907 56.3767318726 32.0514526367
0.9304552078 56.3087196350 31.8477249146
0.9267027378 56.2441864014 31.6446933746
0.9235690832 56.1912956238 31.4442176819
0.9213536382 56.1556701660 31.2475986481
0.9200166464 56.1365661621 31.0546989441
0.9193521738 56.1301078796 30.8646621704
0.9193418622 56.1359481812 30.6774349213
0.9203611016 56.1611518860 30.4946651459
0.9229744077 56.2163200378 30.3188381195
0.9273591638 56.3047943115 30.1507835388
0.9328703284 56.4144439697 29.9877471924
0.9382749200 56.5220870972 29.8243751526
0.9424846768 56.6072578430 29.6558856964
0.9450650811 56.6618003845 29.4803276062
0.9461426735 56.6880836487 29.2982006073
0.9460147023 56.6917037964 29.1107654572
0.9449006319 56.6767845154 28.9189529419
0.9429055452 56.6453094482 28.7231979370
0.9400247931 56.5971832275 28.5234451294
0.9361393452 56.5301742554 28.3191337585
0.9310963154 56.4414062500 28.1095428467
0.9248985052 56.3309402466 27.8946418762
0.9178524613 56.2045326233 27.6757736206
0.9104813933 56.0720214844 27.4552707672
0.9032781720 55.9426689148 27.2353553772
0.8966577649 55.8242797852 27.0179157257
0.8911822438 55.7274093628 26.8055324554
0.8875942826 55.6660232544 26.6016368866
0.8864082098 55.6497802734 26.4086475372
0.8875150681 55.6766319275 26.2261524200
0.8902517557 55.7341117859 26.0511779785
0.8937894702 55.8066444397 25.8799629211
0.8975246549 55.8828849792 25.7097434998
0.9013100863 55.9600677490 25.5398464203
0.9053958654 56.0428886414 25.3714332581
0.9100772738 56.1369018555 25.2058906555
0.9153387547 56.2418136597 25.0431671143
0.9207886457 56.3502578735 24.8814487457
0.9258644581 56.4516716003 24.7181053162
0.9300740957 56.5368041992 24.5508022308
0.9331240058 56.6001434326 24.3781280518
0.9349292517 56.6400909424 24.1996383667
0.9355481267 56.6577529907 24.0155677795
0.9350950718 56.6552696228 23.8264141083
0.9336835742 56.6347808838 23.6326847076
0.9314118624 56.5981292725 23.4348125458
0.9283695817 56.5470046997 23.2331962585
0.9246695638 56.4835281372 23.0283527374
0.9204650521 56.4105720520 22.8209934235
0.9158589840 56.3300743103 22.6115970612
0.9107834101 56.2407646179 22.3998222351
0.9050728083 56.1395263672 22.1848487854
0.8987222910 56.0262756348 21.9666328430
0.8920214176 55.9064445496 21.7465591431
0.8854040504 55.7881851196 21.5267353058
0.8792287111 55.6782379150 21.3089199066
0.8737706542 55.5817680359 21.0944786072
0.8693819046 55.5053863525 20.8851661682
0.8665016890 55.4573440552 20.6831855774
0.8653620481 55.4419937134 20.4897403717
0.8656728268 55.4538879395 20.3034515381
0.8666869402 55.4789924622 20.1206607819
0.8676577210 55.5032806396 19.9376792908
0.8682363033 55.5202026367 19.7527637482
0.8684376478 55.5300407410 19.5659732819
0.8683693409 55.5348129272 19.3778381348
0.8681064844 55.5359306335 19.1887245178
0.8677270412 55.5348625183 18.9990158081
0.8673102856 55.5330924988 18.8091106415
0.8668610454 55.5307121277 18.6190299988
0.8662356138 55.5250244141 18.4280452728
0.8651181459 55.5100975037 18.2345447540
0.8631029129 55.4783134460 18.0364456177
0.8599267006 55.4247283936 17.8323688507
0.8557143211 55.3516921997 17.6229133606
0.8509429693 55.2681655884 17.4104919434
0.8460606337 55.1825561523 17.1973876953
0.8411446810 55.0963211060 16.9839954376
0.8359839916 55.0054931641 16.7692222595
0.8304297924 54.9072837830 16.5522899628
0.8245921135 54.8037528992 16.3337574005
0.8187966347 54.7010192871 16.1153049469
0.8134806156 54.6072921753 15.8992147446
0.8090623021 54.5304222107 15.6876897812
0.8057721257 54.4747352600 15.4819669724
0.8035880327 54.4398117065 15.2819709778
0.8023453951 54.4225654602 15.0868740082
0.8018761277 54.4198379517 14.8958253860
0.8020482063 54.4291496277 14.7081527710
0.8027316928 54.4480628967 14.5231924057
0.8037683964 54.4736022949 14.3401222229
0.8049776554 54.5023803711 14.1579933167
0.8061943650 54.5312957764 13.9759321213
0.8073008060 54.5581474304 13.7933120728
0.8082190156 54.5814590454 13.6097087860
0.8088828921 54.5999984741 13.4247627258
0.8092339635 54.6126670837 13.2381496429
0.8092431426 54.6189155579 13.0497026443
0.8089280128 54.6190795898 12.8595046997
0.8083451986 54.6142196655 12.6678495407
0.8075636029 54.6056289673 12.4751024246
0.8066281080 54.5941543579 12.2814998627
0.8055194616 54.5794296265 12.0869321823
0.8041145205 54.5591430664 11.8907213211
0.8021723032 54.5287780762 11.6915359497
0.7994030118 54.4828910828 11.4877710342
0.7956170440 54.4179306030 11.2783536911
0.7908080220 54.3337783813 11.0632123947
0.7850456834 54.2317390442 10.8426980972
0.7783290148 54.1117973328 10.6167697906
0.7706605196 53.9740028381 10.3854084015
0.7623330355 53.8238487244 10.1502056122
0.7541432977 53.6762886047 9.9155740738
0.7472857237 53.5537261963 9.6881790161
0.7429847121 53.4791336060 9.4749107361
0.7422201633 53.4708938599 9.2813482285
0.7457122803 53.5425148010 9.1116600037
0.7538105845 53.7005424500 8.9679594040
0.7660432458 53.9361305237 8.8477525711
0.7808659673 54.2202949524 8.7424621582
0.7962319851 54.5146408081 8.6405954361
0.8105812669 54.7899017334 8.5333242416
0.8232751489 55.0340995789 8.4169816971
0.8342905641 55.2467994690 8.2913799286
0.8438104391 55.4314422607 8.1575021744
0.8521066904 55.5931243896 8.0168504715
0.8595442772 55.7386932373 7.8714742661
0.8664720654 55.8746948242 7.7233452797
0.8730257154 56.0036773682 7.5732264519
0.8790405393 56.1225433350 7.4201555252
0.8841897845 56.2251739502 7.2622246742
0.8882387280 56.3071632385 7.0980453491
0.8911719918 56.3682212830 6.9274888039
0.8930865526 56.4101753235 6.7510795593
0.8940212131 56.4337539673 6.5690078735
0.8939567804 56.4385910034 6.3811264038
0.8929353952 56.4254837036 6.1876468658
0.8910756111 56.3966522217 5.9892306328
0.8884826303 56.3540763855 5.7864646912
0.8852556944 56.2996139526 5.5799078941
0.8815803528 56.2367439270 5.3706316948
0.8777104020 56.1702270508 5.1601190567
0.8738822937 56.1044998169 4.9497623444
0.8703920841 56.0451087952 4.7413196564
0.8677532673 56.0016860962 4.5378532410
0.8665726185 55.9856071472 4.3430075645
0.8671267033 56.0020523071 4.1584825516
0.8691236377 56.0455513000 3.9825959206
0.8719757795 56.1050796509 3.8118779659
0.8752648234 56.1727981567 3.6438491344
0.8788778186 56.2465896606 3.4778454304
0.8827719688 56.3256454468 3.3136205673
0.8867536187 56.4063415527 3.1500155926
0.8905083537 56.4827804565 2.9851315022
0.8937696815 56.5499687195 2.8173453808
0.8964428306 56.6061248779 2.6460652351
0.8986040950 56.6526870728 2.4717330933
0.9003728032 56.6918869019 2.2950589657
0.9017484784 56.7237167358 2.1160259247
0.9025596380 56.7449645996 1.9335711002
0.9025644064 56.7510986328 1.7461909056
0.9016171694 56.7393875122 1.5529631376
0.8998075128 56.7115097046 1.3544049263
0.8974767327 56.6738700867 1.1525911093
0.8950439692 56.6343193054 0.9500915408
0.8927561045 56.5974845886 0.7484319210
0.8906202912 56.5635032654 0.5476606488
0.8885756135 56.5312309265 0.3474054635
0.8866766691 56.5016899109 0.1480092257
-44.1546173096 29.0935440063 93.0112915039
-44.2035980225 29.1231250763 92.8221359253
-44.2902412415 29.1768054962 92.6334991455
-44.3927345276 29.2406272888 92.4451751709
-44.4905090332 29.3014297485 92.2569198608
-44.5718269348 29.3517055511 92.0685577393
-44.6368942261 29.3915843964 91.8800659180
-44.6944618225 29.4266643524 91.6915359497
-44.7535934448 29.4627475739 91.5031051636
-44.8167419434 29.5013999939 91.3148193359
-44.8788375854 29.5393810272 91.1265869141
-44.9303474426 29.5705852509 90.9382400513
-44.9592742920 29.5873413086 90.7495269775
-44.9532318115 29.5817222595 90.5601577759
-44.9067420959 29.5502185822 90.3699417114
-44.8296356201 29.4991226196 90.1789932251
-44.7449836731 29.4431972504 89.9877624512
-44.6762466431 29.3974552155 89.7967681885
-44.6358642578 29.3698558807 89.6063232422
-44.6209716797 29.3585700989 89.4164199829
-44.6140632629 29.3523921967 89.2266845703
-44.5914268494 29.3361492157 89.0365295410
-44.5397949219 29.3013496399 88.8455734253
-44.4675064087 29.2533302307 88.6539764404
-44.3973197937 29.2066535950 88.4623260498
-44.3487434387 29.1738090515 88.2711791992
-44.3285026550 29.1590957642 88.0807723999
-44.3347778320 29.1613521576 87.8911209106
-44.3660011292 29.1795749664 87.7022171021
-44.4245948792 29.2153186798 87.5141983032
-44.5141754150 29.2708911896 87.3272476196
-44.6335105896 29.3455104828 87.1413726807
-44.7721214294 29.4324684143 86.9562988281
-44.9119033813 29.5201759338 86.7714538574
-45.0353851318 29.5974540710 86.5862350464
-45.1339759827 29.6588020325 86.4002990723
-45.2084465027 29.7047119141 86.2136230469
-45.2630043030 29.7378787994 86.0263061523
-45.3004913330 29.7601184845 85.8384170532
-45.3215637207 29.7718544006 85.6499481201
-45.3255767822 29.7726669312 85.4608306885
-45.3121719360 29.7623348236 85.2710189819
-45.2836036682 29.7422924042 85.0805664063
-45.2452888489 29.7160129547 84.8896636963
-45.2026214600 29.6869468689 84.6985168457
-45.1562156677 29.6554870605 84.5071411133
-45.1003341675 29.6179618835 84.3152770996
-45.0274276733 29.5695343018 84.1225738525
-44.9368705750 29.5098094940 83.9289703369
-44.8405227661 29.4463748932 83.7349700928
-44.7584609985 29.3920879364 83.5414733887
-44.7083358765 29.3582401276 83.3493499756
-44.6981582642 29.3499679565 83.1590347290
-44.7262687683 29.3662033081 82.9705429077
-44.7840385437 29.4014263153 82.7835235596
-44.8586769104 29.4474506378 82.5974197388
-44.9373207092 29.4960384369 82.4116058350
-45.0125885010 29.5424652100 82.2257308960
-45.0864067078 29.5879650116 82.0398712158
-45.1681365967 29.6385345459 81.8545227051
-45.2665710449 29.6997966766 81.6701660156
-45.3808555603 29.7712059021 81.4867935181
-45.4979133606 29.8443946838 81.3037185669
-45.5992507935 29.9075202942 81.1199417114
-45.6716308594 29.9521064758 80.9346694946
-45.7126541138 29.9766178131 80.7477188110
-45.7277832031 29.9845504761 80.5593261719
-45.7232284546 29.9798793793 80.3698043823
-45.7009696960 29.9638748169 80.1792221069
-45.6585578918 29.9349670410 79.9873962402
-45.5925445557 29.8909435272 79.7940826416
-45.5028991699 29.8317909241 79.5992202759
-45.3961753845 29.7616996765 79.4031677246
-45.2860298157 29.6894168854 79.2067413330
-45.1901054382 29.6262397766 79.0110397339
-45.1239852905 29.5821437836 78.8171005249
-45.0963211060 29.5626697540 78.6255340576
-45.1085548401 29.5687446594 78.4365234375
-45.1573677063 29.5982437134 78.2499313354
-45.2364463806 29.6471233368 78.0654067993
-45.3379783630 29.7103786469 77.8825073242
-45.4549789429 29.7835445404 77.7007904053
-45.5821838379 29.8632431030 77.5199279785
-45.7129631042 29.9452342987 77.3394927979
-45.8359832764 30.0222568512 77.1586837769
-45.9380912781 30.0858898163 76.9765548706
-46.0123367310 30.1316814423 76.7925720215
-46.0619277954 30.1616859436 76.6068954468
