-2.3109631538 33.7714462280 75.7359695435
-2.3122255802 33.8027305603 75.5373306274
-2.3127987385 33.8158531189 75.3375701904
-2.3128290176 33.8146743774 75.1369018555
-2.3123271465 33.7994766235 74.9353179932
-2.3112637997 33.7694816589 74.7327423096
-2.3097662926 33.7280502319 74.5293731689
-2.3082470894 33.6860504150 74.3259124756
-2.3072893620 33.6588363647 74.1233825684
-2.3073189259 33.6576385498 73.9225769043
-2.3083164692 33.6819419861 73.7235107422
-2.3097956181 33.7189331055 73.5253524780
-2.3110792637 33.7507781982 73.3268737793
-2.3116750717 33.7644996643 73.1271514893
-2.3114633560 33.7569427490 72.9259338379
-2.3105819225 33.7317428589 72.7234420776
-2.3091721535 33.6926193237 72.5198974609
-2.3072390556 33.6397018433 72.3152999878
-2.3047015667 33.5708694458 72.1094589233
-2.3015360832 33.4854850769 71.9023056030
-2.2979044914 33.3878211975 71.6941146851
-2.2942078114 33.2884368896 71.4856719971
-2.2909979820 33.2018814087 71.2780685425
-2.2887811661 33.1414871216 71.0723648071
-2.2878301144 33.1144485474 70.8691482544
-2.2881042957 33.1196861267 70.6684112549
-2.2892584801 33.1481170654 70.4694900513
-2.2907302380 33.1849136353 70.2712707520
-2.2919347286 33.2146682739 70.0725250244
-2.2924883366 33.2272758484 69.8724288940
-2.2922751904 33.2196769714 69.6707153320
-2.2913322449 33.1928520203 69.4674148560
-2.2897572517 33.1493644714 69.2627029419
-2.2877752781 33.0951576233 69.0570449829
-2.2858293056 33.0418930054 68.8513870239
-2.2844634056 33.0039215088 68.6469497681
-2.2840147018 32.9901123047 68.4445037842
-2.2843804359 32.9977645874 68.2438735962
-2.2850975990 33.0146789551 68.0440368652
-2.2856705189 33.0277900696 67.8438873291
-2.2858452797 33.0304145813 67.6428375244
-2.2856066227 33.0221366882 67.4408264160
-2.2849829197 33.0037193298 67.2379074097
-2.2839238644 32.9738273621 67.0339279175
-2.2823472023 32.9302940369 66.8286819458
-2.2802338600 32.8726158142 66.6221084595
-2.2776532173 32.8026237488 66.4143218994
-2.2747449875 32.7240028381 66.2056655884
-2.2716825008 32.6413078308 65.9965209961
-2.2685356140 32.5563888550 65.7870635986
-2.2651178837 32.4643363953 65.5768280029
-2.2611315250 32.3572921753 65.3650588989
-2.2566809654 32.2380180359 65.1519851685
-2.2526209354 32.1290283203 64.9397506714
-2.2501277924 32.0613365173 64.7313308716
-2.2497105598 32.0483474731 64.5281143188
-2.2506301403 32.0705909729 64.3283004761
-2.2513880730 32.0885734558 64.1280899048
-2.2508566380 32.0725784302 63.9245491028
-2.2489960194 32.0215568542 63.7175102234
-2.2465908527 31.9561710358 63.5089721680
-2.2444527149 31.8978309631 63.3010520935
-2.2429227829 31.8555183411 63.0946731567
-2.2419319153 31.8274116516 62.8896789551
-2.2412743568 31.8080863953 62.6855430603
-2.2407565117 31.7924461365 62.4817581177
-2.2402033806 31.7758712769 62.2778511047
-2.2394435406 31.7538528442 62.0733528137
-2.2383744717 31.7236843109 61.8679656982
-2.2370755672 31.6874542236 61.6618957520
-2.2358112335 31.6521377563 61.4558715820
-2.2348434925 31.6246356964 61.2506332397
-2.2342581749 31.6072139740 61.0464363098
-2.2340223789 31.5990028381 60.8432044983
-2.2341120243 31.5993690491 60.6408882141
-2.2344827652 31.6071453094 60.4393768311
-2.2349972725 31.6187171936 60.2382888794
-2.2354905605 31.6297206879 60.0371475220
-2.2358760834 31.6378879547 59.8356971741
-2.2361388206 31.6428146362 59.6338882446
-2.2362334728 31.6433162689 59.4315872192
-2.2359929085 31.6349792480 59.2282829285
-2.2351088524 31.6096858978 59.0230331421
-2.2332558632 31.5588436127 58.8148307800
-2.2303371429 31.4799137115 58.6033363342
-2.2266435623 31.3805599213 58.3893775940
-2.2227232456 31.2752265930 58.1745986938
-2.2191112041 31.1780204773 57.9606246948
-2.2162156105 31.0996932983 57.7487449646
-2.2143411636 31.0482883453 57.5399322510
-2.2136359215 31.0276985168 57.3347053528
-2.2139549255 31.0341072083 57.1326675415
-2.2148561478 31.0558624268 56.9324684143
-2.2158186436 31.0792350769 56.7324905396
-2.2165181637 31.0956764221 56.5316925049
-2.2169218063 31.1043167114 56.3299636841
-2.2171700001 31.1088600159 56.1277389526
-2.2174124718 31.1132507324 55.9254951477
-2.2177300453 31.1196231842 55.7234954834
-2.2181375027 31.1283626556 55.5217933655
-2.2186064720 31.1387271881 55.3202972412
-2.2190783024 31.1491661072 55.1188201904
-2.2194657326 31.1573772430 54.9170722961
-2.2196464539 31.1601448059 54.7146377563
-2.2194771767 31.1536827087 54.5110244751
-2.2188513279 31.1351852417 54.3058586121
-2.2177836895 31.1050376892 54.0991668701
-2.2164421082 31.0676727295 53.8914985657
-2.2151210308 31.0308399200 53.6838455200
-2.2142086029 31.0047893524 53.4775505066
-2.2140920162 30.9997138977 53.2739639282
-2.2149155140 31.0194187164 53.0736351013
-2.2163934708 31.0563850403 52.8756065369
-2.2179625034 31.0957489014 52.6779403687
-2.2191534042 31.1251449585 52.4789848328
-2.2197842598 31.1397743225 52.2780799866
-2.2198219299 31.1387653351 52.0750770569
-2.2191550732 31.1191864014 51.8695526123
-2.2175874710 31.0758571625 51.6607627869
-2.2151236534 31.0088977814 51.4486846924
-2.2122848034 30.9320487976 51.2351570129
-2.2100195885 30.8703231812 51.0236167908
-2.2091410160 30.8451576233 50.8170585632
-2.2098152637 30.8609352112 50.6161689758
-2.2116167545 30.9064292908 50.4194488525
-2.2139720917 30.9665222168 50.2248344421
-2.2164640427 31.0302219391 50.0307998657
-2.2188398838 31.0908603668 49.8364028931
-2.2209408283 31.1442546844 49.6410446167
-2.2226994038 31.1886215210 49.4444618225
-2.2241573334 31.2250614166 49.2467842102
-2.2254514694 31.2571811676 49.0485267639
-2.2267842293 31.2903175354 48.8504524231
-2.2284214497 31.3314876556 48.6535835266
-2.2306888103 31.3892688751 48.4591865540
-2.2338533401 31.4707050323 48.2683334351
-2.2378833294 31.5749683380 48.0809402466
-2.2423262596 31.6901187897 47.8952827454
-2.2465331554 31.7990417480 47.7088432312
-2.2500572205 31.8899650574 47.5198440552
-2.2528202534 31.9608268738 47.3279457092
-2.2549648285 32.0153732300 47.1336746216
-2.2566533089 32.0578956604 46.9376487732
-2.2579970360 32.0913352966 46.7402915955
-2.2590737343 32.1177330017 46.5419006348
-2.2599501610 32.1388435364 46.3427238464
-2.2606813908 32.1561279297 46.1429824829
-2.2613012791 32.1704788208 45.9428024292
-2.2618131638 32.1819801331 45.7421989441
-2.2621879578 32.1898689270 45.5410385132
-2.2623703480 32.1926841736 45.3390884399
-2.2623198032 32.1893501282 45.1361732483
-2.2621080875 32.1817703247 44.9325828552
-2.2620139122 32.1772956848 44.7294654846
-2.2624716759 32.1873626709 44.5286483765
-2.2638783455 32.2224655151 44.3318252563
-2.2664580345 32.2884941101 44.1399879456
-2.2702286243 32.3859329224 43.9532775879
-2.2749068737 32.5073013306 43.7705383301
-2.2798085213 32.6345710754 43.5889053345
-2.2840793133 32.7452049255 43.4047203064
-2.2871885300 32.8252029419 43.2156715393
-2.2891831398 32.8758125305 43.0219078064
-2.2904858589 32.9081726074 42.8251991272
-2.2915530205 32.9343223572 42.6275024414
-2.2927167416 32.9630203247 42.4302558899
-2.2942137718 33.0005035400 42.2345008850
-2.2962434292 33.0520401001 42.0411338806
-2.2989239693 33.1207427979 41.8507003784
-2.3021492958 33.2038078308 41.6627655029
-2.3055310249 33.2910079956 41.4756240845
-2.3086063862 33.3701171875 41.2872200012
-2.3111836910 33.4361000061 41.0966758728
-2.3135001659 33.4952011108 40.9050331116
-2.3160324097 33.5599937439 40.7144355774
-2.3191604614 33.6405029297 40.5266189575
-2.3229870796 33.7394371033 40.3420753479
-2.3274171352 33.8542861938 40.1604042053
-2.3323016167 33.9811248779 39.9809570313
-2.3374316692 34.1144371033 39.8027954102
-2.3424525261 34.2448730469 39.6242904663
-2.3469116688 34.3604965210 39.4433441162
-2.3504738808 34.4524612427 39.2583656311
-2.3531184196 34.5202293396 39.0692138672
-2.3551669121 34.5722732544 38.8773498535
-2.3571488857 34.6225624084 38.6852378845
-2.3596034050 34.6853179932 38.4954071045
-2.3628687859 34.7694664001 38.3094940186
-2.3669180870 34.8742828369 38.1273994446
-2.3713469505 34.9891166687 37.9472427368
-2.3755946159 35.0991706848 37.7663612366
-2.3793389797 35.1959495544 37.5831947327
-2.3827865124 35.2849044800 37.3987159729
-2.3865063190 35.3810348511 37.2156562805
-2.3908443451 35.4934806824 37.0357170105
-2.3955347538 35.6152191162 36.8576240540
-2.3999834061 35.7305831909 36.6785011292
-2.4038836956 35.8314857483 36.4968299866
-2.4074647427 35.9239730835 36.3137130737
-2.4112348557 36.0214385986 36.1316375732
-2.4156315327 36.1354331970 35.9527816772
-2.4208438396 36.2709503174 35.7781143188
-2.4267020226 36.4235038757 35.6068305969
-2.4326407909 36.5781860352 35.4361381531
-2.4379885197 36.7172775269 35.2626686096
-2.4424993992 36.8342933655 35.0851554871
-2.4465534687 36.9392623901 34.9054832458
-2.4507350922 37.0475997925 34.7265815735
-2.4552240372 37.1640396118 34.5493736267
-2.4596488476 37.2787971497 34.3719787598
-2.4635355473 37.3793525696 34.1919708252
-2.4668705463 37.4653663635 34.0092544556
-2.4702050686 37.5513572693 33.8266372681
-2.4742097855 37.6550369263 33.6475868225
-2.4791610241 37.7836799622 33.4735641479
-2.4848151207 37.9308700562 33.3033561707
-2.4906675816 38.0832977295 33.1343574524
-2.4962852001 38.2295265198 32.9643211365
-2.5014894009 38.3648567200 32.7922935486
-2.5063412189 38.4908866882 32.6185722351
-2.5109994411 38.6118125916 32.4439849854
-2.5155942440 38.7310676575 32.2692108154
-2.5201835632 38.8501815796 32.0945510864
-2.5247802734 38.9694900513 31.9200744629
-2.5294356346 39.0903396606 31.7460556030
-2.5342833996 39.2162742615 31.5732192993
-2.5393922329 39.3491058350 31.4019393921
-2.5445759296 39.4839019775 31.2312278748
-2.5495381355 39.6128578186 31.0594787598
-2.5542671680 39.7356643677 30.8866214752
-2.5590686798 39.8603897095 30.7143096924
-2.5640807152 39.9906654358 30.5433006287
-2.5689480305 40.1171264648 30.3716564178
-2.5731494427 40.2260208130 30.1965045929
-2.5765571594 40.3139724731 30.0171089172
-2.5795636177 40.3913421631 29.8355998993
-2.5827372074 40.4731216431 29.6551113129
-2.5864717960 40.5697059631 29.4778404236
-2.5909366608 40.6855583191 29.3047637939
-2.5961890221 40.8221855164 29.1362342834
-2.6021912098 40.9785995483 28.9720821381
-2.6087412834 41.1494712830 28.8112068176
-2.6154704094 41.3250732422 28.6515541077
-2.6219558716 41.4942398071 28.4907360077
-2.6278641224 41.6481819153 28.3268489838
-2.6330373287 41.7827377319 28.1589622498
-2.6374616623 41.8975334167 27.9869613647
-2.6411924362 41.9940223694 27.8111228943
-2.6444072723 42.0769119263 27.6324386597
-2.6475710869 42.1584510803 27.4535598755
-2.6513931751 42.2573547363 27.2785816193
-2.6564269066 42.3882369995 27.1107482910
-2.6626505852 42.5505104065 26.9499931335
-2.6694579124 42.7281951904 26.7928409576
-2.6760380268 42.8998832703 26.6345787048
-2.6817667484 43.0491065979 26.4715366364
-2.6864020824 43.1694869995 26.3022480011
-2.6901006699 43.2651481628 26.1275806427
-2.6932766438 43.3470153809 25.9499378204
-2.6963586807 43.4264068604 25.7718372345
-2.6996469498 43.5112419128 25.5950584412
-2.7034173012 43.6088027954 25.4212551117
-2.7080850601 43.7300453186 25.2529392242
-2.7140915394 43.8866081238 25.0927963257
-2.7215223312 44.0807647705 24.9414138794
-2.7298853397 44.2995185852 24.7958908081
-2.7383344173 44.5205421448 24.6511592865
-2.7461302280 44.7243423462 24.5027427673
-2.7529366016 44.9020271301 24.3485603333
-2.7588131428 45.0551795959 24.1889286041
-2.7640192509 45.1906356812 24.0253849030
-2.7687714100 45.3141212463 23.8592262268
-2.7730958462 45.4263153076 23.6905879974
-2.7768750191 45.5241279602 23.5187263489
-2.7800488472 45.6059608459 23.3432407379
-2.7827939987 45.6764869690 23.1651992798
-2.7855346203 45.7468910217 22.9872112274
-2.7887690067 45.8303298950 22.8123836517
-2.7928316593 45.9356193542 22.6428298950
-2.7977433205 46.0633201599 22.4787216187
-2.8032433987 46.2065582275 22.3184661865
-2.8089475632 46.3551750183 22.1596698761
-2.8144855499 46.4994125366 22.0000095367
-2.8195476532 46.6310920715 21.8375110626
-2.8238854408 46.7436561584 21.6705780029
-2.8273422718 46.8329772949 21.4981765747
-2.8299255371 46.8992347717 21.3203086853
-2.8318631649 46.9484596252 21.1383895874
-2.8335623741 46.9913940430 20.9549980164
-2.8354365826 47.0389480591 20.7727813721
-2.8377168179 47.0972099304 20.5932350159
-2.8404467106 47.1673469543 20.4166660309
-2.8436791897 47.2507476807 20.2434368134
-2.8476097584 47.3525772095 20.0748443604
-2.8524367809 47.4780654907 19.9122123718
-2.8580901623 47.6253700256 19.7551326752
-2.8641517162 47.7834434509 19.6009044647
-2.8700461388 47.9371109009 19.4457740784
-2.8752815723 48.0733833313 19.2864971161
-2.8795566559 48.1843109131 19.1210498810
-2.8827762604 48.2673835754 18.9487590790
-2.8850653172 48.3258934021 18.7703971863
-2.8867604733 48.3687286377 18.5881576538
-2.8883130550 48.4078025818 18.4050159454
-2.8901319504 48.4539070129 18.2236976624
-2.8924934864 48.5143318176 18.0460681915
-2.8955814838 48.5939369202 17.8733863831
-2.8995349407 48.6963882446 17.7066249847
-2.9043393135 48.8212928772 17.5457286835
-2.9096393585 48.9592933655 17.3883399963
-2.9147837162 49.0931739807 17.2300624847
-2.9191896915 49.2075767517 17.0669307709
-2.9227123260 49.2986526489 16.8979187012
-2.9256279469 49.3737144470 16.7248725891
-2.9282801151 49.4418220520 16.5501117706
-2.9307713509 49.5056838989 16.3743267059
-2.9329853058 49.5622253418 16.1967086792
-2.9348254204 49.6088981628 16.0165805817
-2.9363746643 49.6478996277 15.8344955444
-2.9378738403 49.6855697632 15.6521053314
-2.9396402836 49.7303047180 15.4716167450
-2.9420208931 49.7912483215 15.2954559326
-2.9453134537 49.8762702942 15.1257333755
-2.9496181011 49.9879989624 14.9631938934
-2.9547235966 50.1208801270 14.8064098358
-2.9601819515 50.2630767822 14.6522693634
-2.9655196667 50.4020881653 14.4974527359
-2.9703834057 50.5285873413 14.3394575119
-2.9745426178 50.6364936829 14.1766300201
-2.9778928757 50.7230453491 14.0081930161
-2.9805178642 50.7904472351 13.8346996307
-2.9826669693 50.8452873230 13.6578922272
-2.9845938683 50.8942642212 13.4795618057
-2.9864413738 50.9411430359 13.3007183075
-2.9883024693 50.9883842468 13.1220283508
-2.9903292656 51.0400009155 12.9445848465
-2.9927163124 51.1011314392 12.7698011398
-2.9955921173 51.1751594543 12.5986232758
-2.9989418983 51.2617034912 12.4309692383
-3.0026175976 51.3568534851 12.2657880783
-3.0064146519 51.4552078247 12.1016054153
-3.0101432800 51.5517578125 11.9370431900
-3.0136418343 51.6422386169 11.7709150314
-3.0167686939 51.7229042053 11.6021728516
-3.0194137096 51.7908439636 11.4299831390
-3.0215046406 51.8441658020 11.2537975311
-3.0230188370 51.8822555542 11.0734148026
-3.0240275860 51.9070014954 10.8893375397
-3.0247519016 51.9242401123 10.7031764984
-3.0255551338 51.9435615540 10.5176191330
-3.0268375874 51.9755325317 10.3356504440
-3.0288786888 52.0275344849 10.1593790054
-3.0317413807 52.1012344360 9.9893169403
-3.0353097916 52.1935653687 9.8246345520
-3.0393736362 52.2989768982 9.6637878418
-3.0436723232 52.4105873108 9.5048370361
-3.0479187965 52.5208244324 9.3456287384
-3.0518286228 52.6221733093 9.1840085983
-3.0551373959 52.7076606750 9.0179557800
-3.0576496124 52.7721099854 8.8459510803
-3.0593435764 52.8149528503 8.6677923203
-3.0604281425 52.8417053223 8.4850320816
-3.0612468719 52.8614463806 8.3002672195
-3.0621075630 52.8822898865 8.1158447266
-3.0632054806 52.9094009399 7.9332656860
-3.0646750927 52.9463195801 7.7535758018
-3.0666286945 52.9960250854 7.5776634216
-3.0690951347 53.0592727661 7.4057750702
-3.0719633102 53.1331291199 7.2370743752
-3.0750575066 53.2129516602 7.0702180862
-3.0782539845 53.2954750061 6.9042515755
-3.0814652443 53.3783912659 6.7385025024
-3.0845448971 53.4578323364 6.5718231201
-3.0872967243 53.5286178589 6.4026713371
-3.0895879269 53.5872421265 6.2299895287
-3.0913801193 53.6326904297 6.0534515381
-3.0926485062 53.6643066406 5.8728365898
-3.0933532715 53.6810417175 5.6878046989
-3.0935328007 53.6839065552 5.4986314774
-3.0933458805 53.6770973206 5.3065495491
-3.0928845406 53.6630325317 5.1122703552
-3.0917952061 53.6323852539 4.9129667282
-3.0890932083 53.5591621399 4.7007470131
-3.0837266445 53.4155616760 4.4671096802
-3.0758774281 53.2063980103 4.2133831978
-3.0678157806 52.9916305542 3.9576814175
-3.0629906654 52.8623237610 3.7277565002
-3.0638668537 52.8835792542 3.5436546803
-3.0704977512 53.0568046570 3.4060933590
-3.0808622837 53.3286399841 3.2989926338
-3.0922446251 53.6273574829 3.2004926205
-3.1025085449 53.8965377808 3.0932674408
-3.1106503010 54.1096801758 2.9690833092
-3.1166009903 54.2649574280 2.8272678852
-3.1207010746 54.3713645935 2.6704988480
-3.1233427525 54.4392585754 2.5019004345
-3.1249001026 54.4785118103 2.3244707584
-3.1257474422 54.4990158081 2.1412398815
-3.1262423992 54.5102157593 1.9551231861
-3.1266977787 54.5203704834 1.7686890364
-3.1273744106 54.5363693237 1.5840951204
-3.1284756660 54.5635757446 1.4030394554
-3.1301238537 54.6052322388 1.2265641689
-3.1323449612 54.6620254517 1.0549135208
-3.1350710392 54.7321472168 0.8875442743
-3.1381392479 54.8113098145 0.7231233716
-3.1413154602 54.8933296204 0.5597038865
-3.1443970203 54.9728469849 0.3955875933
-3.1473376751 55.0486412048 0.2303806543
-3.1502304077 55.1231803894 0.0648625866
-55.0699157715 27.8543014526 79.3490753174
-55.0935745239 27.8663940430 79.1647109985
-55.1328010559 27.8866748810 78.9811477661
-55.1737670898 27.9078712463 78.7977218628
-55.2058715820 27.9244079590 78.6138916016
-55.2251358032 27.9341869354 78.4294204712
-55.2324752808 27.9376983643 78.2443466187
-55.2286224365 27.9353199005 78.0586776733
-55.2092628479 27.9247894287 77.8721542358
-55.1658897400 27.9016265869 77.6842803955
-55.0948104858 27.8638916016 77.4947967529
-55.0071449280 27.8174324036 77.3042831421
-54.9269943237 27.7749252319 77.1140747070
-54.8783988953 27.7490158081 76.9255676270
-54.8758087158 27.7473030090 76.7396774292
-54.9249076843 27.7727756500 76.5568313599
-55.0244979858 27.8248062134 76.3770523071
-55.1627731323 27.8971843719 76.1997375488
-55.3145217896 27.9766483307 76.0234298706
-55.4473876953 28.0461826324 75.8461532593
-55.5347404480 28.0917778015 75.6662139893
-55.5647735596 28.1072235107 75.4827728271
-55.5409851074 28.0943622589 75.2959365845
-55.4786376953 28.0612182617 75.1065750122
-55.4009628296 28.0200138092 74.9161300659
-55.3320426941 27.9834117889 74.7261581421
-55.2871818542 27.9594669342 74.5376739502
-55.2692604065 27.9496898651 74.3509368896
-55.2735214233 27.9515800476 74.1656723022
-55.2929573059 27.9614524841 73.9814529419
-55.3184471130 27.9745101929 73.7976684570
-55.3382568359 27.9845790863 73.6135177612
-55.3429298401 27.9866867065 73.4283142090
-55.3320846558 27.9806308746 73.2420196533
-55.3145027161 27.9710330963 73.0552139282
-55.3017234802 27.9639606476 72.8687286377
-55.3033905029 27.9644870758 72.6832733154
-55.3268737793 27.9764900208 72.4994354248
-55.3736839294 28.0007610321 72.3173599243
-55.4304962158 28.0302944183 72.1360931396
-55.4682426453 28.0497970581 71.9534454346
-55.4608688354 28.0455684662 71.7673950195
-55.4085998535 28.0177249908 71.5778579712
-55.3377571106 27.9801120758 71.3868026733
-55.2769317627 27.9477653503 71.1964340210
-55.2375755310 27.9267158508 71.0076751709
-55.2149887085 27.9144840240 70.8201980591
-55.1988258362 27.9056301117 70.6332092285
-55.1787796021 27.8947353363 70.4458694458
-55.1447906494 27.8765068054 70.2573547363
-55.0891265869 27.8468761444 70.0670013428
-55.0134658813 27.8067264557 69.8749008179
-54.9346466064 27.7649154663 69.6824264526
-54.8808174133 27.7362499237 69.4919586182
-54.8778495789 27.7343368530 69.3057556152
-54.9333992004 27.7632064819 69.1245727539
-55.0275154114 27.8123607635 68.9468002319
-55.1204071045 27.8608741760 68.7690505981
-55.1782455444 27.8909473419 68.5883255005
-55.1947822571 27.8992938995 68.4040145874
-55.1868476868 27.8947696686 68.2175369263
-55.1733818054 27.8873367310 68.0305328369
-55.1629409790 27.8814926147 67.8437881470
-55.1559371948 27.8774566650 67.6573410034
-55.1508522034 27.8744335175 67.4710464478
-55.1469879150 27.8720493317 67.2848587036
-55.1443748474 27.8703231812 67.0987777710
-55.1432838440 27.8693981171 66.9128341675
-55.1442527771 27.8695564270 66.7270736694
-55.1491165161 27.8717632294 66.5416793823
-55.1623687744 27.8783836365 66.3571014404
-55.1909103394 27.8930473328 66.1740036011
-55.2383422852 27.9176464081 65.9927902222
-55.2950668335 27.9471359253 65.8125457764
-55.3358345032 27.9682312012 65.6307983398
-55.3355216980 27.9677162170 65.4450073242
-55.2914733887 27.9441928864 65.2548294067
-55.2264785767 27.9096527100 65.0624771118
-55.1684913635 27.8787975311 64.8707351685
-55.1312408447 27.8588485718 64.6810302734
-55.1133232117 27.8490734100 64.4932632446
-55.1082572937 27.8460578918 64.3068008423
-55.1117477417 27.8475418091 64.1212158203
-55.1222343445 27.8527088165 63.9363632202
-55.1377525330 27.8605194092 63.7520523071
-55.1530952454 27.8682403564 63.5677375793
-55.1610374451 27.8720664978 63.3826446533
-55.1573257446 27.8697624207 63.1963043213
-55.1435165405 27.8621482849 63.0088615417
-55.1235466003 27.8512916565 62.8207206726
-55.0984954834 27.8377628326 62.6319885254
-55.0661315918 27.8203849792 62.4424133301
-55.0252990723 27.7985534668 62.2518463135
-54.9806213379 27.7746982574 62.0607910156
-54.9434890747 27.7548122406 61.8705139160
-54.9271583557 27.7458705902 61.6825370789
-54.9368133545 27.7505970001 61.4974899292
-54.9623680115 27.7636909485 61.3142662048
-54.9831809998 27.7742881775 61.1305274963
-54.9825325012 27.7735939026 60.9443283081
-54.9594306946 27.7610912323 60.7555046082
-54.9281921387 27.7443046570 60.5656929016
-54.9060668945 27.7323131561 60.3769073486
-54.8993186951 27.7284126282 60.1899108887
-54.9009666443 27.7289257050 60.0038948059
-54.9017257690 27.7289752960 59.8177757263
-54.9013252258 27.7284107208 59.6315078735
-54.9079589844 27.7315502167 59.4460868835
-54.9280586243 27.7417736053 59.2623138428
-54.9584655762 27.7574176788 59.0798225403
-54.9890632629 27.7731647491 58.8973922729
-55.0113792419 27.7845516205 58.7139739990
-55.0234375000 27.7905445099 58.5292968750
-55.0279769897 27.7925815582 58.3436927795
-55.0284423828 27.7924747467 58.1575775146
-55.0270271301 27.7913780212 57.9712181091
-55.0247612000 27.7898330688 57.7847404480
-55.0222663879 27.7881698608 57.5982284546
-55.0202827454 27.7867736816 57.4117698669
-55.0201759338 27.7863674164 57.2255516052
-55.0247001648 27.7883949280 57.0399246216
-55.0390739441 27.7956066132 56.8555870056
-55.0710220337 27.8120613098 56.6735725403
-55.1270980835 27.8412113190 56.4947814941
-55.2054595947 27.8820877075 56.3190193176
-55.2918815613 27.9272022247 56.1444358826
-55.3659515381 27.9658203125 55.9683036804
-55.4129447937 27.9901924133 55.7886199951
-55.4289741516 27.9982757568 55.6048011780
-55.4161529541 27.9911766052 55.4170722961
-55.3769950867 27.9702262878 55.2257156372
-55.3164863586 27.9380397797 55.0313682556
-55.2485733032 27.9019584656 54.8359107971
-55.1966743469 27.8743019104 54.6425781250
-55.1827201843 27.8666076660 54.4544639587
-55.2121849060 27.8817596436 54.2724075317
-55.2691383362 27.9113731384 54.0942611694
-55.3267364502 27.9413242340 53.9162788391
-55.3636474609 27.9603919983 53.7354240417
-55.3734779358 27.9652118683 53.5507469177
-55.3640174866 27.9598846436 53.3633079529
-55.3504104614 27.9523735046 53.1752510071
-55.3458061218 27.9496002197 52.9884757996
-55.3541450500 27.9536361694 52.8035736084
-55.3705291748 27.9619045258 52.6198539734
-55.3876152039 27.9705429077 52.4362564087
-55.4003486633 27.9768905640 52.2520332336
-55.4066238403 27.9798393250 52.0668601990
-55.4070816040 27.9797306061 51.8808288574
-55.4045829773 27.9780635834 51.6943473816
-55.4012374878 27.9759521484 51.5077323914
-55.3944625854 27.9720363617 51.3205871582
-55.3764076233 27.9621849060 51.1317176819
-55.3392524719 27.9422855377 50.9399070740
-55.2841453552 27.9129390717 50.7452926636
-55.2256507874 27.8818111420 50.5500793457
-55.1844711304 27.8597927094 50.3574523926
-55.1732063293 27.8535137177 50.1694068909
-55.1899909973 27.8619937897 49.9857063293
-55.2259025574 27.8805351257 49.8050155640
-55.2752532959 27.9061508179 49.6264801025
-55.3358726501 27.9376945496 49.4497871399
-55.4014625549 27.9718532562 49.2739562988
-55.4589385986 28.0017414093 49.0969161987
-55.4960136414 28.0208969116 48.9166908264
-55.5097770691 28.0277881622 48.7327690125
-55.5070037842 28.0259780884 48.5461921692
-55.4980163574 28.0208969116 48.3586006165
-55.4902801514 28.0164756775 48.1711959839
-55.4847564697 28.0132179260 47.9841384888
-55.4770584106 28.0088138580 47.7967109680
-55.4634628296 28.0013103485 47.6082954407
-55.4457168579 27.9916210175 47.4191703796
-55.4295120239 27.9827423096 47.2302703857
-55.4199523926 27.9773616791 47.0424537659
-55.4200248718 27.9770488739 46.8562278748
-55.4319610596 27.9829769135 46.6719894409
-55.4573173523 27.9959659576 46.4900245667
-55.4942741394 28.0150604248 46.3100547791
-55.5357170105 28.0365161896 46.1308937073
-55.5717353821 28.0551166534 45.9508552551
-55.5946960449 28.0668449402 45.7686195374
-55.6014595032 28.0700511932 45.5836257935
-55.5914688110 28.0644454956 45.3957443237
-55.5651855469 28.0502624512 45.2050170898
-55.5258674622 28.0292224884 45.0119819641
-55.4816246033 28.0055904388 44.8180236816
-55.4430809021 27.9849586487 44.6250038147
-55.4178810120 27.9713459015 44.4342727661
-55.4075126648 27.9655399323 44.2461242676
-55.4088058472 27.9658679962 44.0600280762
-55.4171028137 27.9698810577 43.8751754761
-55.4281997681 27.9753684998 43.6908264160
-55.4387969971 27.9805927277 43.5064010620
-55.4464454651 27.9842662811 43.3214530945
-55.4495582581 27.9855518341 43.1356887817
-55.4475288391 27.9841308594 42.9489898682
-55.4408988953 27.9802932739 42.7614440918
-55.4313049316 27.9748916626 42.5733413696
-55.4211196899 27.9691791534 42.3851127625
-55.4128723145 27.9644889832 42.1972236633
-55.4085578918 27.9618644714 42.0100440979
-55.4092254639 27.9618663788 41.8237762451
-55.4153099060 27.9647159576 41.6385154724
-55.4275588989 27.9708080292 41.4544067383
-55.4477539063 27.9810829163 41.2718048096
-55.4777603149 27.9965209961 41.0910682678
-55.5166091919 28.0166130066 40.9120407104
-55.5584411621 28.0382728577 40.7336273193
-55.5943336487 28.0568065643 40.5541343689
-55.6166572571 28.0682029724 40.3720893860
-55.6212806702 28.0702838898 40.1866798401
-55.6064529419 28.0621299744 39.9975280762
-55.5722084045 28.0437564850 39.8045997620
-55.5225448608 28.0172729492 39.6086311340
-55.4671440125 27.9877662659 39.4114761353
-55.4181785583 27.9616489410 39.2154960632
-55.3840560913 27.9433403015 39.0223503113
-55.3662986755 27.9336433411 38.8323669434
-55.3617820740 27.9309139252 38.6449661255
-55.3667793274 27.9331912994 38.4594383240
-55.3788070679 27.9391689301 38.2753028870
-55.3955841064 27.9476451874 38.0921287537
-55.4129638672 27.9564380646 37.9090881348
-55.4245834351 27.9622020721 37.7249145508
-55.4245567322 27.9618358612 37.5384025574
-55.4112205505 27.9544639587 37.3492012024
-55.3887023926 27.9422626495 37.1581153870
-55.3647537231 27.9293079376 36.9667053223
-55.3463287354 27.9192600250 36.7763824463
-55.3364639282 27.9137172699 36.5877799988
-55.3345069885 27.9123344421 36.4007797241
-55.3380813599 27.9138622284 36.2149162292
-55.3444633484 27.9168682098 36.0296287537
-55.3509559631 27.9199333191 35.8443679810
-55.3550834656 27.9217510223 35.6586189270
-55.3548355103 27.9212703705 35.4719581604
-55.3486671448 27.9176692963 35.2840499878
-55.3350067139 27.9101295471 35.0945549011
-55.3119354248 27.8976345062 34.9030532837
-55.2783622742 27.8796157837 34.7092971802
-55.2371215820 27.8575592041 34.5138587952
-55.1971702576 27.8361816406 34.3186340332
-55.1710815430 27.8220996857 34.1263122559
-55.1681747437 27.8202171326 33.9389114380
-55.1887321472 27.8306827545 33.7565422058
-55.2242660522 27.8490314484 33.5774230957
-55.2638053894 27.8694877625 33.3992118835
-55.3007354736 27.8885688782 33.2204818726
-55.3343086243 27.9058837891 33.0410690308
-55.3657913208 27.9221000671 32.8612403870
-55.3946266174 27.9369220734 32.6808700562
-55.4177398682 27.9487342834 32.4992752075
-55.4305152893 27.9551048279 32.3154296875
-55.4286727905 27.9537830353 32.1283683777
-55.4118537903 27.9445781708 31.9379768372
-55.3861007690 27.9306735992 31.7455730438
-55.3609390259 27.9170799255 31.5532608032
-55.3431243896 27.9073505402 31.3625526428
-55.3334350586 27.9018993378 31.1736354828
-55.3287200928 27.8990650177 30.9858207703
-55.3255615234 27.8970489502 30.7983455658
-55.3219642639 27.8948040009 30.6107616425
-55.3171730042 27.8919296265 30.4228954315
-55.3108901978 27.8882713318 30.2346763611
-55.3028831482 27.8837032318 30.0460510254
-55.2929878235 27.8781414032 29.8569774628
-55.2813644409 27.8716716766 29.6674861908
-55.2688522339 27.8647365570 29.4777717590
-55.2573661804 27.8583374023 29.2882690430
-55.2499122620 27.8540611267 29.0996818542
-55.2494888306 27.8534870148 28.9127140045
-55.2568283081 27.8569965363 28.7275485992
-55.2687911987 27.8629379272 28.5434703827
-55.2796249390 27.8682880402 28.3591365814
-55.2838096619 27.8701362610 28.1732501984
-55.2772712708 27.8663444519 27.9848327637
-55.2565879822 27.8551044464 27.7930545807
-55.2186775208 27.8347988129 27.5971565247
-55.1622962952 27.8047714233 27.3968067169
-55.0897598267 27.7662429810 27.1925201416
-55.0074691772 27.7225799561 26.9857940674
-54.9249534607 27.6787967682 26.7788963318
-54.8523979187 27.6402587891 26.5742778778
-54.7970771790 27.6107883453 26.3737163544
-54.7605628967 27.5912170410 26.1776237488
-54.7390480042 27.5795402527 25.9851188660
-54.7264518738 27.5725555420 25.7947483063
-54.7175941467 27.5675411224 25.6052684784
-54.7094764709 27.5629158020 25.4159507751
-54.7008819580 27.5580368042 25.2265014648
-54.6913757324 27.5526790619 25.0368099213
-54.6804428101 27.5465717316 24.8467464447
-54.6670074463 27.5391464233 24.6560459137
-54.6499137878 27.5297946930 24.4644126892
-54.6297264099 27.5188179016 24.2719821930
-54.6104698181 27.5083293915 24.0797500610
-54.5982818604 27.5015583038 23.8892536163
-54.5968322754 27.5004425049 23.7014293671
-54.6043319702 27.5040340424 23.5158500671
-54.6156768799 27.5096530914 23.3312454224
-54.6266860962 27.5150928497 23.1465644836
-54.6357612610 27.5195159912 22.9614048004
-54.6430931091 27.5230216980 22.7758083344
-54.6496391296 27.5261116028 22.5900154114
-54.6561279297 27.5291728973 22.4042110443
-54.6616134644 27.5317058563 22.2181529999
-54.6635055542 27.5323486328 22.0311737061
-54.6607360840 27.5305366516 21.8429908752
-54.6565971375 27.5280036926 21.6544456482
-54.6561241150 27.5274009705 21.4668369293
-54.6600379944 27.5291061401 21.2803630829
-54.6628456116 27.5302295685 21.0935993195
-54.6576728821 27.5271530151 20.9047527313
-54.6421699524 27.5186405182 20.7131881714
-54.6197471619 27.5064849854 20.5197811127
-54.5957221985 27.4934825897 20.3259162903
-54.5723381042 27.4808216095 20.1321830750
-54.5470657349 27.4671649933 19.9379138947
-54.5154914856 27.4501914978 19.7419319153
-54.4762077332 27.4291591644 19.5438537598
-54.4332733154 27.4062061310 19.3447418213
-54.3936882019 27.3850173950 19.1464614868
-54.3622856140 27.3681316376 18.9503135681
-54.3387680054 27.3553981781 18.7562351227
-54.3185005188 27.3443756104 18.5629959106
-54.2948570251 27.3315773010 18.3688106537
-54.2618942261 27.3138713837 18.1720676422
-54.2175369263 27.2901668549 17.9721794128
-54.1655960083 27.2624740601 17.7701663971
-54.1138839722 27.2348976135 17.5681362152
-54.0693244934 27.2110881805 17.3679885864
-54.0346984863 27.1925067902 17.1704940796
-54.0090866089 27.1786708832 16.9754257202
-53.9902954102 27.1684246063 16.7821941376
-53.9769401550 27.1610412598 16.5904312134
-53.9689559937 27.1564826965 16.4001331329
-53.9659576416 27.1545486450 16.2112007141
-53.9651298523 27.1537590027 16.0228633881
-53.9616584778 27.1515750885 15.8337812424
-53.9518432617 27.1460533142 15.6429157257
-53.9352493286 27.1369628906 15.4501342773
-53.9135360718 27.1251773834 15.2558851242
-53.8882102966 27.1114921570 15.0605850220
-53.8606262207 27.0966167450 14.8646068573
-53.8334312439 27.0819454193 14.6686964035
-53.8104629517 27.0694999695 14.4739408493
-53.7945404053 27.0607624054 14.2811527252
-53.7859153748 27.0558681488 14.0904159546
-53.7828178406 27.0538806915 13.9012403488
-53.7828750610 27.0535564423 13.7129592896
-53.7839736938 27.0537796021 13.5249719620
-53.7844314575 27.0536632538 13.3367948532
-53.7829704285 27.0525398254 13.1480607986
-53.7786369324 27.0499019623 12.9584884644
-53.7705078125 27.0452690125 12.7678060532
-53.7573051453 27.0379619598 12.5756330490
-53.7375907898 27.0272293091 12.3815412521
-53.7115287781 27.0131549835 12.1855649948
-53.6835174561 26.9980525970 11.9889774323
-53.6620788574 26.9864120483 11.7942733765
-53.6546401978 26.9821414948 11.6036481857
-53.6613197327 26.9853000641 11.4171648026
-53.6747703552 26.9920253754 11.2326831818
-53.6860542297 26.9976081848 11.0475730896
-53.6894874573 26.9990596771 10.8601455688
-53.6826248169 26.9950923920 10.6696577072
-53.6642379761 26.9850559235 10.4757213593
-53.6339683533 26.9687671661 10.2782077789
-53.5937500000 26.9472389221 10.0776681900
-53.5487289429 26.9231834412 9.8756294250
-53.5064430237 26.9005661011 9.6743440628
-53.4744567871 26.8833732605 9.4761009216
-53.4578323364 26.8742637634 9.2824468613
-53.4572219849 26.8735866547 9.0936117172
-53.4680099487 26.8789100647 8.9082279205
-53.4811325073 26.8854618073 8.7235641479
-53.4864730835 26.8879165649 8.5365400314
-53.4776306152 26.8829059601 8.3451871872
-53.4547348022 26.8704948425 8.1495141983
-53.4233055115 26.8535938263 7.9511880875
-53.3906288147 26.8360347748 7.7524294853
-53.3623542786 26.8207950592 7.5549769402
-53.3410644531 26.8092288971 7.3596372604
-53.3269309998 26.8014335632 7.1664791107
-53.3194351196 26.7971305847 6.9753541946
-53.3186416626 26.7963562012 6.7862973213
-53.3253211975 26.7995147705 6.5995612144
-53.3397979736 26.8067798615 6.4152646065
-53.3602790833 26.8172073364 6.2328600883
-53.3819808960 26.8282737732 6.0508608818
-53.3984870911 26.8366069794 5.8672533035
-53.4046249390 26.8394813538 5.6803970337
-53.3984832764 26.8358917236 5.4896683693
-53.3816261292 26.8266620636 5.2955360413
-53.3584823608 26.8141212463 5.0993833542
-53.3354492188 26.8016376495 4.9032268524
-53.3190574646 26.7926521301 4.7091484070
-53.3136024475 26.7894229889 4.5185317993
-53.3197174072 26.7922859192 4.3316020966
-53.3345756531 26.7997512817 4.1474752426
-53.3532180786 26.8092098236 3.9645805359
-53.3706474304 26.8180294037 3.7813138962
-53.3838768005 26.8246364594 3.5967111588
-53.3928260803 26.8289909363 3.4107384682
-53.3997955322 26.8323040009 3.2241311073
-53.4084091187 26.8364830017 3.0380620956
-53.4224700928 26.8435287476 2.8537697792
-53.4445190430 26.8547801971 2.6720952988
-53.4749412537 26.8704395294 2.4931786060
-53.5124740601 26.8898429871 2.3166263103
-53.5554962158 26.9121360779 2.1419184208
-53.6024360657 26.9364929199 1.9685521126
-53.6514930725 26.9619636536 1.7959420681
-53.7006683350 26.9874973297 1.6234323978
-53.7486495972 27.0124015808 1.4505892992
-53.7963180542 27.0371417999 1.2777028084
-53.8477363586 27.0638580322 1.1061211824
-53.9087600708 27.0956287384 0.9377995133
-53.9836158752 27.1346836090 0.7741678357
-54.0726280212 27.1811904907 0.6153618097
-54.1730079651 27.2336826324 0.4604783058
-54.2807312012 27.2900409698 0.3081886768
-54.3908195496 27.3476486206 0.1568370163
-54.4968490601 27.4031143188 0.0042621149
2.1452066898 34.0720252991 79.7614288330
2.1458151340 34.0793571472 79.5614776611
2.1469054222 34.0918617249 79.3617935181
2.1486585140 34.1114692688 79.1624832153
2.1510865688 34.1383209229 78.9635772705
2.1537628174 34.1678390503 78.7648391724
2.1557590961 34.1900558472 78.5657424927
2.1560535431 34.1940231323 78.3656768799
2.1542398930 34.1753730774 78.1643676758
2.1508655548 34.1399879456 77.9620971680
2.1470649242 34.1000251770 77.7595291138
2.1439864635 34.0678100586 77.5573348999
2.1425182819 34.0528678894 77.3560943604
2.1431972980 34.0609588623 77.1561660767
2.1461071968 34.0929794312 76.9576492310
2.1508142948 34.1442756653 76.7603073120
2.1564745903 34.2057991028 76.5636367798
2.1621851921 34.2678565979 76.3670730591
2.1673521996 34.3240890503 76.1702194214
2.1716835499 34.3713531494 75.9728851318
2.1749601364 34.4073066711 75.7748947144
2.1770727634 34.4307746887 75.5761566162
2.1782972813 34.4447135925 75.3768310547
2.1792755127 34.4560127258 75.1773529053
2.1805920601 34.4709396362 74.9781188965
2.1823146343 34.4902229309 74.7791900635
2.1838917732 34.5079460144 74.5801696777
2.1845841408 34.5161781311 74.3805313110
2.1842236519 34.5131187439 74.1801376343
2.1836237907 34.5074882507 73.9795608521
2.1840615273 34.5129890442 73.7797317505
2.1861827374 34.5365486145 73.5811614990
2.1894209385 34.5720863342 73.3834533691
2.1924948692 34.6058654785 73.1856613159
2.1943683624 34.6267662048 72.9869918823
2.1947028637 34.6311569214 72.7871551514
2.1936576366 34.6207542419 72.5862426758
2.1915998459 34.5994911194 72.3845138550
2.1890468597 34.5729141235 72.1823654175
2.1865813732 34.5472717285 71.9802551270
2.1845736504 34.5265464783 71.7784652710
2.1830267906 34.5107612610 71.5770263672
2.1817762852 34.4981536865 71.3757934570
2.1807508469 34.4879608154 71.1747360229
2.1799910069 34.4806213379 70.9738769531
2.1795227528 34.4764022827 70.7732467651
2.1792678833 34.4744796753 70.5727920532
2.1789982319 34.4723892212 70.3723144531
2.1782629490 34.4653129578 70.1714248657
2.1763360500 34.4454498291 69.9694900513
2.1723778248 34.4038047791 69.7657623291
2.1659665108 34.3358459473 69.5598144531
2.1577062607 34.2480583191 69.3521423340
2.1492178440 34.1578254700 69.1441497803
2.1422626972 34.0840377808 68.9374160767
2.1377387047 34.0363197327 68.7327880859
2.1354393959 34.0124664307 68.5301208496
2.1345605850 34.0038528442 68.3287277222
2.1342897415 34.0017547607 68.1278762817
2.1340551376 34.0000457764 67.9270553589
2.1334919930 33.9948158264 67.7259140015
2.1323072910 33.9829177856 67.5241775513
2.1301944256 33.9610633850 67.3215332031
2.1269445419 33.9270172119 67.1177673340
2.1227655411 33.8830032349 66.9130554199
2.1184742451 33.8377876282 66.7081756592
2.1152155399 33.8036460876 66.5042419434
2.1138494015 33.7898025513 66.3021316528
2.1145391464 33.7980117798 66.1020355225
2.1168084145 33.8231582642 65.9035263062
2.1198995113 33.8571166992 65.7058715820
2.1230962276 33.8922119141 65.5083618164
2.1257762909 33.9217605591 65.3103561401
2.1273379326 33.9393196106 65.1112442017
2.1273534298 33.9402961731 64.9105453491
2.1258838177 33.9253387451 64.7082977295
2.1235392094 33.9010047913 64.5051116943
2.1211404800 33.8760871887 64.3018264771
2.1192920208 33.8570709229 64.0990982056
2.1182010174 33.8461799622 63.8971443176
2.1177611351 33.8422698975 63.6958694458
2.1176934242 33.8423538208 63.4949874878
2.1175839901 33.8419876099 63.2940559387
2.1168088913 33.8344841003 63.0923881531
2.1145117283 33.8106575012 62.8890342712
2.1099181175 33.7621994019 62.6830978394
2.1029937267 33.6887512207 62.4744987488
2.0948517323 33.6022415161 62.2644348145
2.0872468948 33.5214920044 62.0548667908
2.0814960003 33.4606285095 61.8472900391
2.0778820515 33.4226799011 61.6420745850
2.0759468079 33.4027328491 61.4387321472
2.0750796795 33.3942451477 61.2365951538
2.0748205185 33.3922767639 61.0351448059
2.0748581886 33.3934898376 60.8340377808
2.0749661922 33.3954620361 60.6330070496
2.0749804974 33.3964233398 60.4318618774
2.0748033524 33.3953361511 60.2304878235
2.0743944645 33.3917617798 60.0288276672
2.0737221241 33.3853607178 59.8268432617
2.0727076530 33.3752899170 59.6244316101
2.0712544918 33.3605155945 59.4214668274
2.0694315434 33.3417778015 59.2180252075
2.0676641464 33.3236351013 59.0146255493
2.0665762424 33.3127784729 58.8120384216
2.0664618015 33.3123626709 58.6106414795
2.0669348240 33.3182449341 58.4099693298
2.0671551228 33.3214187622 58.2089843750
2.0663130283 33.3131980896 58.0066566467
2.0639414787 33.2885780334 57.8023719788
2.0600702763 33.2478752136 57.5961341858
2.0552165508 33.1966362000 57.3885841370
2.0500595570 33.1421432495 57.1805686951
2.0450327396 33.0890464783 56.9726524353
2.0403606892 33.0397567749 56.7651214600
2.0364518166 32.9986495972 56.5585250854
2.0340113640 32.9732933044 56.3538093567
2.0336866379 32.9706230164 56.1518516541
2.0356321335 32.9922981262 55.9529075623
2.0392906666 33.0323410034 55.7562713623
2.0434474945 33.0777282715 55.5603523254
2.0466074944 33.1124267578 55.3631401062
2.0475654602 33.1235084534 55.1629791260
2.0458419323 33.1058387756 54.9591674805
2.0418515205 33.0638618469 54.7522201538
2.0367543697 33.0100135803 54.5436897278
2.0319190025 32.9589729309 54.3354530334
2.0282125473 32.9200401306 54.1287117004
2.0257372856 32.8943061829 53.9236412048
2.0243041515 32.8797531128 53.7199935913
2.0241279602 32.8786735535 53.5180969238
2.0259339809 32.8988533020 53.3190040588
2.0302712917 32.9461746216 53.1235389709
2.0367469788 33.0164260864 52.9311866760
2.0440616608 33.0956764221 52.7401237488
2.0508525372 33.1693077087 52.5484008789
2.0565040112 33.2307205200 52.3551101685
2.0612201691 33.2821044922 52.1605262756
2.0654950142 33.3287544250 51.9653587341
2.0696117878 33.3737106323 51.7700080872
2.0735092163 33.4163131714 51.5743865967
2.0769279003 33.4537849426 51.3781013489
2.0796244144 33.4835090637 51.1807785034
2.0814516544 33.5039138794 50.9821891785
2.0822634697 33.5134315491 50.7820892334
2.0818197727 33.5094833374 50.5800971985
2.0799419880 33.4901618958 50.3759155273
2.0769212246 33.4585800171 50.1699600220
2.0737717152 33.4256172180 49.9637641907
2.0719909668 33.4073333740 49.7596282959
2.0730106831 33.4190788269 49.5597915649
2.0778257847 33.4715232849 49.3658599854
2.0868363380 33.5689544678 49.1785316467
2.0995831490 33.7064399719 48.9971733093
2.1144480705 33.8666458130 48.8193130493
2.1288964748 34.0223808289 48.6409950256
2.1405258179 34.1478843689 48.4583930969
2.1482369900 34.2313804626 48.2696990967
2.1525034904 34.2779350281 48.0755958557
2.1546456814 34.3017158508 47.8781280518
2.1559538841 34.3165512085 47.6793441772
2.1572916508 34.3317070007 47.4806213379
2.1590969563 34.3518714905 47.2826690674
2.1614768505 34.3782005310 47.0856781006
2.1642687321 34.4089431763 46.8893928528
2.1670880318 34.4399833679 46.6931838989
2.1693949699 34.4655265808 46.4961585999
2.1706531048 34.4798278809 46.2974243164
2.1707110405 34.4812545776 46.0966949463
2.1703124046 34.4777908325 45.8952026367
2.1712067127 34.4881896973 45.6958732605
2.1753797531 34.5337409973 45.5020828247
2.1837677956 34.6244888306 45.3154907227
2.1954984665 34.7510757446 45.1346931458
2.2083024979 34.8891677856 44.9558830261
2.2197926044 35.0131759644 44.7749862671
2.2286863327 35.1093406677 44.5897750854
2.2351579666 35.1795387268 44.4004898071
2.2403540611 35.2360572815 44.2090759277
2.2456972599 35.2941551208 44.0179824829
2.2522966862 35.3657188416 43.8291549683
2.2604095936 35.4535140991 43.6430702209
2.2692415714 35.5490150452 43.4583587646
2.2775361538 35.6387557983 43.2728080750
2.2845621109 35.7148933411 43.0851135254
2.2904636860 35.7789764404 42.8955078125
2.2957518101 35.8364791870 42.7048759460
2.3007185459 35.8905372620 42.5137367249
2.3053364754 35.9408531189 42.3220329285
2.3094546795 35.9858169556 42.1294822693
2.3129429817 36.0240211487 41.9358367920
2.3157436848 36.0548553467 41.7409820557
2.3179152012 36.0789413452 41.5450096130
2.3196709156 36.0985717773 41.3483009338
2.3213958740 36.1178703308 41.1515541077
2.3236470222 36.1428108215 40.9557991028
2.3270895481 36.1805267334 40.7622795105
2.3323004246 36.2372016907 40.5721015930
2.3395142555 36.3153457642 40.3857345581
2.3486754894 36.4143753052 40.2031135559
2.3599059582 36.5355873108 40.0245132446
2.3736603260 36.6838531494 39.8508300781
2.3898763657 36.8585166931 39.6819992065
2.4069592953 37.0424690247 39.5150299072
2.4222126007 37.2068099976 39.3447952271
2.4336004257 37.3297042847 39.1673507690
2.4409179688 37.4089622498 38.9822235107
2.4453506470 37.4572868347 38.7916183472
2.4483289719 37.4900207520 38.5982513428
2.4508645535 37.5180091858 38.4040603638
2.4535512924 37.5476112366 38.2101936340
2.4568235874 37.5834999084 38.0175094604
2.4611177444 37.6303367615 37.8268661499
2.4667494297 37.6915168762 37.6389198303
2.4735624790 37.7653617859 37.4533805847
2.4807519913 37.8432426453 37.2686729431
2.4872488976 37.9136962891 37.0826835632
2.4924230576 37.9699707031 36.8941307068
2.4964544773 38.0139923096 36.7033538818
2.5001883507 38.0548210144 36.5120277405
2.5048174858 38.1052513123 36.3225555420
2.5115549564 38.1782836914 36.1374130249
2.5211279392 38.2817115784 35.9581184387
2.5332674980 38.4126586914 35.7841835022
2.5468003750 38.5585403442 35.6132583618
2.5604414940 38.7055854797 35.4427337646
2.5735263824 38.8466644287 35.2712478638
2.5860891342 38.9821434021 35.0988502502
2.5985040665 39.1160392761 34.9263153076
2.6110024452 39.2508239746 34.7541160583
2.6232206821 39.3826103210 34.5814971924
2.6343016624 39.5022010803 34.4066619873
2.6437890530 39.6047096252 34.2286224365
2.6524384022 39.6982345581 34.0489425659
2.6619126797 39.8005981445 33.8711166382
2.6735956669 39.9266395569 33.6981010437
2.6875691414 40.0772399902 33.5301094055
2.7025263309 40.2383842468 33.3644027710
2.7167251110 40.3913955688 33.1972694397
2.7292170525 40.5261077881 33.0266571045
2.7401680946 40.6443023682 32.8528938293
2.7501177788 40.7517585754 32.6771087646
2.7592067719 40.8499908447 32.4995880127
2.7671644688 40.9360923767 32.3197288513
2.7738432884 41.0084838867 32.1371803284
2.7796635628 41.0716743469 31.9528408051
2.7855262756 41.1353187561 31.7686710358
2.7923274040 41.2090187073 31.5866394043
2.8006596565 41.2991333008 31.4080772400
2.8108973503 41.4096755981 31.2338447571
2.8230690956 41.5409507751 31.0640430450
2.8363232613 41.6838264465 30.8968143463
2.8488028049 41.8184013367 30.7280273438
2.8585271835 41.9234390259 30.5532302856
2.8646233082 41.9895782471 30.3703994751
2.8678865433 42.0253524780 30.1812591553
2.8703579903 42.0526351929 29.9903678894
2.8742754459 42.0954246521 29.8027858734
2.8809869289 42.1681594849 29.6216125488
2.8904905319 42.2708282471 29.4468975067
2.9018921852 42.3938446045 29.2766513824
2.9143264294 42.5279235840 29.1089267731
2.9274487495 42.6693801880 28.9429531097
2.9411602020 42.8171539307 28.7785110474
2.9550890923 42.9672584534 28.6147537231
2.9684264660 43.1110191345 28.4498081207
2.9801137447 43.2370910645 28.2811927795
2.9892113209 43.3354034424 28.1066818237
2.9954290390 43.4028396606 27.9255390167
2.9995682240 43.4479980469 27.7395935059
3.0033309460 43.4891242981 27.5528106689
3.0084462166 43.5447425842 27.3692722321
3.0158426762 43.6248168945 27.1912078857
3.0254969597 43.7290916443 27.0186042786
3.0368258953 43.8513183594 26.8501205444
3.0491731167 43.9844589233 26.6842212677
3.0620291233 44.1230545044 26.5197048187
3.0748801231 44.2615966797 26.3553447723
3.0869858265 44.3921432495 26.1893577576
3.0975394249 44.5060577393 26.0197792053
3.1062166691 44.5998573303 25.8457889557
3.1136336327 44.6801452637 25.6688480377
3.1212208271 44.7622604370 25.4924182892
3.1305317879 44.8628501892 25.3203010559
3.1424741745 44.9916496277 25.1547565460
3.1569321156 45.1474075317 24.9955558777
3.1728816032 45.3191566467 24.8402214050
3.1889185905 45.4918403625 24.6853160858
3.2039444447 45.6536865234 24.5281181335
3.2175216675 45.8000030518 24.3675193787
3.2296578884 45.9308700562 24.2035064697
3.2404172421 46.0469818115 24.0362148285
3.2497415543 46.1477127075 23.8654689789
3.2574501038 46.2311210632 23.6907825470
3.2633712292 46.2953720093 23.5116958618
3.2675869465 46.3413391113 23.3283767700
3.2705595493 46.3739814758 23.1419620514
3.2730040550 46.4009666443 22.9542407990
3.2756884098 46.4305191040 22.7671604156
3.2793197632 46.4702224731 22.5825290680
3.2843959332 46.5254135132 22.4016437531
3.2909128666 46.5960464478 22.2245197296
3.2982022762 46.6749610901 22.0494670868
3.3052613735 46.7514038086 21.8739166260
3.3114151955 46.8181457520 21.6961135864
3.3166983128 46.8755531311 21.5161323547
3.3216538429 46.9294509888 21.3353672028
