-34.0243148804 -6.4025444984 64.4109191895
-34.0201606750 -6.3997020721 64.2102432251
-34.0186271667 -6.3972253799 64.0098419189
-34.0200614929 -6.3951630592 63.8097686768
-34.0241622925 -6.3934736252 63.6099777222
-34.0301933289 -6.3920536041 63.4104042053
-34.0373268127 -6.3907880783 63.2109489441
-34.0448570251 -6.3895773888 63.0115318298
-34.0522193909 -6.3883438110 62.8120918274
-34.0589790344 -6.3870253563 62.6125793457
-34.0647583008 -6.3855695724 62.4129447937
-34.0691795349 -6.3839240074 62.2131423950
-34.0719032288 -6.3820414543 62.0131301880
-34.0728225708 -6.3799066544 61.8128929138
-34.0723266602 -6.3775734901 61.6124687195
-34.0714378357 -6.3751845360 61.4119873047
-34.0717658997 -6.3729658127 61.2116355896
-34.0753746033 -6.3712062836 61.0116729736
-34.0843734741 -6.3702006340 60.8123588562
-34.0997924805 -6.3700928688 60.6138305664
-34.1198921204 -6.3706393242 60.4158897400
-34.1395378113 -6.3711228371 60.2179031372
-34.1524696350 -6.3706674576 60.0190887451
-34.1555824280 -6.3688378334 59.8190422058
-34.1514625549 -6.3659968376 59.6180725098
-34.1469268799 -6.3630971909 59.4170303345
-34.1490097046 -6.3611230850 59.2168121338
-34.1614799500 -6.3606023788 59.0179138184
-34.1829833984 -6.3613462448 58.8201828003
-34.2073593140 -6.3624920845 58.6228370667
-34.2271194458 -6.3629918098 58.4249038696
-34.2386589050 -6.3623414040 58.2259101868
-34.2447509766 -6.3609285355 58.0261993408
-34.2519187927 -6.3596663475 57.8266258240
-34.2654266357 -6.3592915535 57.6278877258
-34.2858886719 -6.3598899841 57.4300804138
-34.3092880249 -6.3608999252 57.2326774597
-34.3299026489 -6.3615198135 57.0349159241
-34.3436508179 -6.3611788750 56.8362388611
-34.3493576050 -6.3597121239 56.6364707947
-34.3475418091 -6.3571915627 56.4356689453
-34.3387374878 -6.3536920547 56.2338943481
-34.3232460022 -6.3492565155 56.0311698914
-34.3026046753 -6.3440985680 55.8277015686
-34.2816581726 -6.3388977051 55.6241493225
-34.2688980103 -6.3348431587 55.4216995239
-34.2733306885 -6.3331966400 55.2216339111
-34.2993927002 -6.3345794678 55.0246047974
-34.3439483643 -6.3385529518 54.8302154541
-34.3975830078 -6.3437995911 54.6371612549
-34.4489898682 -6.3487343788 54.4438400269
-34.4895362854 -6.3521475792 54.2490158081
-34.5157394409 -6.3535523415 54.0521583557
-34.5287017822 -6.3531017303 53.8534011841
-34.5316772461 -6.3512511253 53.6531982422
-34.5280036926 -6.3484692574 53.4520111084
-34.5204429626 -6.3451423645 53.2502365112
-34.5113296509 -6.3415975571 53.0482101440
-34.5027198792 -6.3381228447 52.8462295532
-34.4962654114 -6.3349504471 52.6445465088
-34.4930686951 -6.3322339058 52.4433250427
-34.4935874939 -6.3300380707 52.2426452637
-34.4977416992 -6.3283519745 52.0424957275
-34.5051078796 -6.3271155357 51.8428230286
-34.5150337219 -6.3262386322 51.6435394287
-34.5267410278 -6.3256111145 51.4445190430
-34.5393142700 -6.3251051903 51.2456359863
-34.5518760681 -6.3245978355 51.0467529297
-34.5639495850 -6.3240213394 50.8477935791
-34.5760116577 -6.3234438896 50.6488342285
-34.5898017883 -6.3231086731 50.4501495361
-34.6076202393 -6.3233380318 50.2520904541
-34.6302833557 -6.3242473602 50.0548057556
-34.6553802490 -6.3254985809 49.8579177856
-34.6784400940 -6.3264636993 49.6607246399
-34.6965675354 -6.3267369270 49.4627609253
-34.7104721069 -6.3264179230 49.2641372681
-34.7226257324 -6.3258538246 49.0652351379
-34.7343482971 -6.3252286911 48.8662643433
-34.7451896667 -6.3244805336 48.6671524048
-34.7545051575 -6.3235182762 48.4677963257
-34.7630348206 -6.3224453926 48.2683067322
-34.7730255127 -6.3215770721 48.0690498352
-34.7867584229 -6.3212347031 47.8704109192
-34.8044624329 -6.3214488029 47.6724243164
-34.8234443665 -6.3218431473 47.4746589661
-34.8397941589 -6.3218684196 47.2764663696
-34.8512954712 -6.3212122917 47.0774726868
-34.8588142395 -6.3199977875 46.8778152466
-34.8652305603 -6.3186283112 46.6779670715
-34.8735275269 -6.3175220490 46.4784317017
-34.8857650757 -6.3169698715 46.2795600891
-34.9028816223 -6.3171024323 46.0815124512
-34.9241409302 -6.3178167343 45.8841819763
-34.9461822510 -6.3186411858 45.6869964600
-34.9634208679 -6.3187913895 45.4890022278
-34.9710578918 -6.3175930977 45.2893600464
-34.9684600830 -6.3149576187 45.0879440308
-34.9592819214 -6.3113975525 44.8853721619
-34.9482879639 -6.3075819016 44.6824569702
-34.9385948181 -6.3039488792 44.4797401428
-34.9314117432 -6.3006687164 44.2774391174
-34.9270858765 -6.2977890968 44.0756149292
-34.9258804321 -6.2953472137 43.8743209839
-34.9283866882 -6.2934269905 43.6736717224
-34.9357414246 -6.2921881676 43.4738769531
-34.9490356445 -6.2917833328 43.2751350403
-34.9678421021 -6.2921533585 43.0773849487
-34.9894027710 -6.2929105759 42.8801383972
-35.0098838806 -6.2935161591 42.6827125549
-35.0267868042 -6.2936191559 42.4846458435
-35.0401077271 -6.2932186127 42.2859382629
-35.0514183044 -6.2925357819 42.0868682861
-35.0622138977 -6.2917799950 41.8877029419
-35.0730400085 -6.2910289764 41.6885452271
-35.0836296082 -6.2902445793 41.4893379211
-35.0934371948 -6.2893500328 41.2899894714
-35.1020812988 -6.2882924080 41.0904235840
-35.1095504761 -6.2870693207 40.8906326294
-35.1162147522 -6.2857327461 40.6906890869
-35.1227340698 -6.2843761444 40.4907112122
-35.1298561096 -6.2831039429 40.2908439636
-35.1383094788 -6.2820191383 40.0912208557
-35.1489601135 -6.2812433243 39.8920097351
-35.1631813049 -6.2809691429 39.6934776306
-35.1827125549 -6.2814421654 39.4959640503
-35.2084617615 -6.2827901840 39.2996482849
-35.2388114929 -6.2847852707 39.1042366028
-35.2694282532 -6.2868175507 38.9088973999
-35.2956161499 -6.2882275581 38.7127304077
-35.3155250549 -6.2887549400 38.5153656006
-35.3308486938 -6.2886366844 38.3171157837
-35.3442687988 -6.2882509232 38.1185035706
-35.3570213318 -6.2877712250 37.9197616577
-35.3693351746 -6.2872300148 37.7209396362
-35.3821449280 -6.2867584229 37.5222129822
-35.3968505859 -6.2865538597 37.3238639832
-35.4139442444 -6.2866849899 37.1259918213
-35.4332351685 -6.2871260643 36.9285659790
-35.4554023743 -6.2879714966 36.7317276001
-35.4821510315 -6.2894620895 36.5358161926
-35.5144042969 -6.2917280197 36.3410377502
-35.5508575439 -6.2945857048 36.1471290588
-35.5888938904 -6.2976655960 35.9535713196
-35.6267356873 -6.3007192612 35.7600097656
-35.6640357971 -6.3036971092 35.5663757324
-35.7008476257 -6.3066058159 35.3726730347
-35.7371711731 -6.3094468117 35.1789016724
-35.7733192444 -6.3122634888 34.9851303101
-35.8092765808 -6.3150534630 34.7913475037
-35.8433990479 -6.3175849915 34.5972175598
-35.8727302551 -6.3194427490 34.4021263123
-35.8950881958 -6.3203182220 34.2056045532
-35.9102287292 -6.3201775551 34.0075950623
-35.9189338684 -6.3191304207 33.8082427979
-35.9214096069 -6.3172063828 33.6075782776
-35.9172286987 -6.3143439293 33.4055023193
-35.9071121216 -6.3106451035 33.2021484375
-35.8946685791 -6.3066182137 32.9982795715
-35.8858757019 -6.3031053543 32.7951545715
-35.8865318298 -6.3009233475 32.5940170288
-35.8996810913 -6.3005018234 32.3955383301
-35.9242706299 -6.3016920090 32.1995162964
-35.9553375244 -6.3037953377 32.0049018860
-35.9861373901 -6.3058614731 31.8102569580
-36.0115928650 -6.3071742058 31.6144809723
-36.0307006836 -6.3075933456 31.4173469543
-36.0462760925 -6.3075141907 31.2194538116
-36.0625000000 -6.3075261116 31.0217075348
-36.0820388794 -6.3080062866 30.8246936798
-36.1045074463 -6.3088989258 30.6283340454
-36.1273880005 -6.3098502159 30.4320793152
-36.1483116150 -6.3105249405 30.2354068756
-36.1662750244 -6.3107833862 30.0380935669
-36.1810760498 -6.3105955124 29.8400840759
-36.1923675537 -6.3099131584 29.6412982941
-36.1995964050 -6.3086576462 29.4416065216
-36.2025489807 -6.3067998886 29.2409515381
-36.2018432617 -6.3044252396 29.0394611359
-36.1990814209 -6.3017606735 28.8374938965
-36.1968688965 -6.2991733551 28.6356334686
-36.1987228394 -6.2971591949 28.4346771240
-36.2087745667 -6.2963018417 28.2355728149
-36.2309303284 -6.2971510887 28.0392246246
-36.2672882080 -6.3000044823 27.8461380005
-36.3167915344 -6.3047127724 27.6560955048
-36.3753585815 -6.3106999397 27.4681854248
-36.4374885559 -6.3171911240 27.2811603546
-36.4980354309 -6.3234591484 27.0938320160
-36.5527687073 -6.3289079666 26.9052219391
-36.5982551575 -6.3330521584 26.7145175934
-36.6323585510 -6.3355908394 26.5212039948
-36.6556053162 -6.3365974426 26.3253841400
-36.6717109680 -6.3365964890 26.1279048920
-36.6863708496 -6.3363914490 25.9300918579
-36.7048339844 -6.3367233276 25.7331829071
-36.7295951843 -6.3379445076 25.5377674103
-36.7594566345 -6.3398857117 25.3435802460
-36.7909660339 -6.3420596123 25.1498088837
-36.8210868835 -6.3440380096 24.9557323456
-36.8488578796 -6.3456850052 24.7611179352
-36.8750534058 -6.3471093178 24.5661487579
-36.9009590149 -6.3484935760 24.3711299896
-36.9272460938 -6.3499317169 24.1762218475
-36.9530677795 -6.3513040543 23.9812202454
-36.9760055542 -6.3522696495 23.7855415344
-36.9936599731 -6.3524894714 23.5885925293
-37.0059165955 -6.3519463539 23.3903388977
-37.0157394409 -6.3510599136 23.1914939880
-37.0278511047 -6.3504962921 22.9932079315
-37.0466651917 -6.3508801460 22.7965660095
-37.0745658875 -6.3525471687 22.6021690369
-37.1105804443 -6.3553614616 22.4097957611
-37.1501579285 -6.3586788177 22.2183341980
-37.1869506836 -6.3616032600 22.0262184143
-37.2158355713 -6.3634104729 21.8321723938
-37.2346878052 -6.3638010025 21.6356487274
-37.2440299988 -6.3628473282 21.4367580414
-37.2459220886 -6.3608407974 21.2360000610
-37.2433662415 -6.3582062721 21.0341148376
-37.2401084900 -6.3554711342 20.8320331573
-37.2401275635 -6.3531994820 20.6307621002
-37.2468490601 -6.3518753052 20.4311714172
-37.2623863220 -6.3517971039 20.2338123322
-37.2868576050 -6.3529815674 20.0387306213
-37.3178520203 -6.3550887108 19.8453273773
-37.3506851196 -6.3574552536 19.6524219513
-37.3802490234 -6.3593611717 19.4587059021
-37.4036102295 -6.3603897095 19.2634201050
-37.4211769104 -6.3605990410 19.0666580200
-37.4359436035 -6.3604125977 18.8691825867
-37.4519882202 -6.3604073524 18.6720409393
-37.4730033875 -6.3611044884 18.4761962891
-37.5008506775 -6.3627681732 18.2821426392
-37.5348968506 -6.3653087616 18.0897235870
-37.5731201172 -6.3684406281 17.8984298706
-37.6139640808 -6.3719439507 17.7078552246
-37.6567573547 -6.3757228851 17.5178318024
-37.7009849548 -6.3797054291 17.3282279968
-37.7464828491 -6.3838682175 17.1390018463
-37.7943801880 -6.3883705139 16.9504547119
-37.8464775085 -6.3934679031 16.7630691528
-37.9028739929 -6.3991742134 16.5768795013
-37.9603843689 -6.4050388336 16.3910465240
-38.0135841370 -6.4102940559 16.2041187286
-38.0576210022 -6.4142537117 16.0147933960
-38.0907592773 -6.4166707993 15.8225851059
-38.1152229309 -6.4178609848 15.6280689240
-38.1365089417 -6.4186010361 15.4327125549
-38.1618156433 -6.4199109077 15.2384576797
-38.1976776123 -6.4227147102 15.0470829010
-38.2466583252 -6.4273762703 14.8593044281
-38.3047637939 -6.4333300591 14.6740598679
-38.3623695374 -6.4392137527 14.4887399673
-38.4092216492 -6.4435753822 14.3005371094
-38.4397850037 -6.4456315041 14.1079120636
-38.4547882080 -6.4454841614 13.9110336304
-38.4588966370 -6.4437947273 13.7111577988
-38.4575080872 -6.4413266182 13.5097551346
-38.4548187256 -6.4386739731 13.3079748154
-38.4533462524 -6.4361939430 13.1065158844
-38.4542961121 -6.4340567589 12.9057149887
-38.4581451416 -6.4323296547 12.7057075500
-38.4650154114 -6.4310302734 12.5065364838
-38.4749259949 -6.4301619530 12.3082122803
-38.4880714417 -6.4297518730 12.1107931137
-38.5053520203 -6.4299278259 11.9145421982
-38.5289649963 -6.4310007095 11.7200841904
-38.5621528625 -6.4334297180 11.5283489227
-38.6077003479 -6.4376111031 11.3401451111
-38.6662864685 -6.4436402321 11.1556892395
-38.7361488342 -6.4512677193 10.9745044708
-38.8136024475 -6.4599719048 10.7955598831
-38.8930892944 -6.4689655304 10.6172847748
-38.9677696228 -6.4772787094 10.4377193451
-39.0316581726 -6.4840631485 10.2551364899
-39.0816497803 -6.4888787270 10.0686216354
-39.1177558899 -6.4917268753 9.8781509399
-39.1426506042 -6.4929862022 9.6844711304
-39.1613197327 -6.4933624268 9.4890041351
-39.1797866821 -6.4937109947 9.2934875488
-39.2031936646 -6.4947595596 9.0994205475
-39.2347564697 -6.4969644547 8.9077472687
-39.2753677368 -6.5004534721 8.7187480927
-39.3234519958 -6.5050015450 8.5319757462
-39.3757858276 -6.5101537704 8.3465003967
-39.4292793274 -6.5154700279 8.1614189148
-39.4817276001 -6.5206398964 7.9760851860
-39.5310096741 -6.5253605843 7.7898683548
-39.5743217468 -6.5292348862 7.6019325256
-39.6089630127 -6.5318799019 7.4114632607
-39.6340789795 -6.5331745148 7.2181911469
-39.6517257690 -6.5334091187 7.0227074623
-39.6660003662 -6.5331659317 6.8262257576
-39.6811370850 -6.5330452919 6.6300072670
-39.7002220154 -6.5334844589 6.4349780083
-39.7252006531 -6.5347604752 6.2417330742
-39.7572059631 -6.5370330811 6.0506243706
-39.7959594727 -6.5402636528 5.8615803719
-39.8385276794 -6.5440359116 5.6737279892
-39.8791503906 -6.5475330353 5.4853267670
-39.9114418030 -6.5498480797 5.2944302559
-39.9317245483 -6.5504584312 5.0999021530
-39.9407157898 -6.5494670868 4.9019379616
-39.9426879883 -6.5474791527 4.7018237114
-39.9436302185 -6.5453448296 4.5013813972
-39.9497718811 -6.5439481735 4.3025236130
-39.9662551880 -6.5440201759 4.1068449020
-39.9957466125 -6.5459384918 3.9151871204
-40.0379142761 -6.5496573448 3.7274737358
-40.0905761719 -6.5548658371 3.5430519581
-40.1512222290 -6.5612096786 3.3611650467
-40.2173767090 -6.5683360100 3.1810557842
-40.2860908508 -6.5758266449 3.0018165112
-40.3540725708 -6.5832138062 2.8224222660
-40.4183654785 -6.5900788307 2.6419487000
-40.4766387939 -6.5960888863 2.4596540928
-40.5270156860 -6.6009778976 2.2749371529
-40.5687294006 -6.6046371460 2.0875430107
-40.6032905579 -6.6072807312 1.8979297876
-40.6339530945 -6.6093711853 1.7071137428
-40.6629905701 -6.6112308502 1.5158078671
-40.6897087097 -6.6127610207 1.3237886429
-40.7122917175 -6.6137042046 1.1304740906
-40.7322731018 -6.6142778397 0.9363441467
-40.7564582825 -6.6154489517 0.7435687780
-40.7932090759 -6.6184058189 0.5548361540
-40.8464126587 -6.6237015724 0.3714172244
-40.9135437012 -6.6309766769 0.1925309300
-40.9896125793 -6.6395230293 0.0165976342
-34.2690925598 4.2312021255 80.3744812012
-34.2704734802 4.2337117195 80.1754455566
-34.2769775391 4.2371315956 79.9767150879
-34.2916221619 4.2419981956 79.7784881592
-34.3149871826 4.2484135628 79.5808258057
-34.3437805176 4.2557935715 79.3835220337
-34.3727111816 4.2631983757 79.1862564087
-34.3974761963 4.2698621750 78.9887390137
-34.4156112671 4.2753477097 78.7908020020
-34.4255905151 4.2793846130 78.5923385620
-34.4264907837 4.2818088531 78.3932571411
-34.4185295105 4.2826590538 78.1935653687
-34.4035911560 4.2822694778 77.9933700562
-34.3856544495 4.2813482285 77.7929382324
-34.3703269958 4.2808909416 77.5926513672
-34.3623123169 4.2817325592 77.3928451538
-34.3624076843 4.2840151787 77.1935958862
-34.3674583435 4.2871775627 76.9946823120
-34.3734016418 4.2904987335 76.7958374023
-34.3779335022 4.2935690880 76.5968704224
-34.3806228638 4.2963128090 76.3977737427
-34.3816833496 4.2987675667 76.1985397339
-34.3810005188 4.3009119034 75.9991607666
-34.3778114319 4.3026118279 75.7995834351
-34.3707809448 4.3036303520 75.5996932983
-34.3586692810 4.3037467003 75.3993911743
-34.3417510986 4.3030109406 75.1986923218
-34.3227577209 4.3019061089 74.9977951050
-34.3059043884 4.3011822701 74.7970275879
-34.2946624756 4.3014545441 74.5966720581
-34.2905693054 4.3029956818 74.3968582153
-34.2938880920 4.3058528900 74.1976242065
-34.3043632507 4.3099803925 73.9989624023
-34.3207168579 4.3151516914 73.8007812500
-34.3399734497 4.3208374977 73.6028442383
-34.3584213257 4.3263792992 73.4048614502
-34.3737792969 4.3313732147 73.2066192627
-34.3863754272 4.3358769417 73.0081558228
-34.3984947205 4.3402957916 72.8096542358
-34.4128913879 4.3451185226 72.6113510132
-34.4312095642 4.3506374359 72.4133834839
-34.4526901245 4.3567171097 72.2157135010
-34.4740180969 4.3627700806 72.0180358887
-34.4911651611 4.3680801392 71.8200073242
-34.5019683838 4.3722658157 71.6214218140
-34.5071029663 4.3754448891 71.4223251343
-34.5088195801 4.3780183792 71.2229232788
-34.5091705322 4.3803501129 71.0233764648
-34.5092201233 4.3826274872 70.8237991333
-34.5091896057 4.3848915100 70.6241989136
-34.5089759827 4.3871231079 70.4245681763
-34.5085067749 4.3893094063 70.2248992920
-34.5079307556 4.3914771080 70.0251998901
-34.5075988770 4.3936882019 69.8255157471
-34.5079345703 4.3960175514 69.6258850098
-34.5092773438 4.3985261917 69.4263381958
-34.5117874146 4.4012417793 69.2268829346
-34.5153923035 4.4041514397 69.0275344849
-34.5197372437 4.4071922302 68.8282470703
-34.5241699219 4.4102487564 68.6289596558
-34.5277786255 4.4131593704 68.4295806885
-34.5296592712 4.4157633781 68.2300186157
-34.5292816162 4.4179677963 68.0302276611
-34.5267486572 4.4197897911 67.8302001953
-34.5227050781 4.4213447571 67.6300048828
-34.5180549622 4.4227924347 67.4297332764
-34.5136489868 4.4242830276 67.2294616699
-34.5100364685 4.4259147644 67.0292510986
-34.5073966980 4.4277191162 66.8291320801
-34.5056457520 4.4296808243 66.6290817261
-34.5046539307 4.4317779541 66.4291000366
-34.5044441223 4.4340133667 66.2291870117
-34.5051841736 4.4364171028 66.0293579102
-34.5071067810 4.4390311241 65.8296508789
-34.5103530884 4.4418787956 65.6300659180
-34.5147247314 4.4449267387 65.4306030273
-34.5195503235 4.4480547905 65.2311782837
-34.5237770081 4.4510769844 65.0316848755
-34.5263862610 4.4538125992 64.8320007324
-34.5268630981 4.4561715126 64.6320648193
-34.5256462097 4.4582290649 64.4319381714
-34.5244522095 4.4602918625 64.2317886353
-34.5262718201 4.4628882408 64.0319747925
-34.5342636108 4.4665784836 63.8328437805
-34.5497322083 4.4715919495 63.6345672607
-34.5706253052 4.4775662422 63.4369201660
-34.5921630859 4.4836554527 63.2393646240
-34.6091194153 4.4889326096 63.0412864685
-34.6180191040 4.4927825928 62.8422775269
-34.6183967590 4.4951243401 62.6422653198
-34.6128273010 4.4964127541 62.4415359497
-34.6054420471 4.4973797798 62.2405738831
-34.5997543335 4.4986476898 62.0397911072
-34.5977058411 4.5005602837 61.8394203186
-34.6003532410 4.5033044815 61.6396064758
-34.6084136963 4.5070066452 61.4404373169
-34.6216468811 4.5116252899 61.2418937683
-34.6383285522 4.5168538094 61.0437774658
-34.6563453674 4.5223183632 60.8458366394
-34.6749916077 4.5278944969 60.6479797363
-34.6950187683 4.5337152481 60.4503097534
-34.7165107727 4.5397944450 60.2528305054
-34.7371253967 4.5457181931 60.0552597046
-34.7528724670 4.5507807732 59.8570823669
-34.7603950500 4.5543880463 59.6578712463
-34.7582283020 4.5562806129 59.4574165344
-34.7465209961 4.5564851761 59.2557220459
-34.7267570496 4.5552644730 59.0529594421
-34.7018775940 4.5531387329 58.8494949341
-34.6759490967 4.5508284569 58.6458511353
-34.6532249451 4.5490851402 58.4425811768
-34.6368751526 4.5484704971 58.2401046753
-34.6276969910 4.5491242409 58.0385398865
-34.6239814758 4.5507454872 57.8376808167
-34.6236648560 4.5529675484 57.6372528076
-34.6263999939 4.5557298660 57.4372253418
-34.6330032349 4.5591764450 57.2377052307
-34.6435241699 4.5633153915 57.0387115479
-34.6566162109 4.5679097176 56.8400688171
-34.6701240540 4.5725769997 56.6414833069
-34.6817779541 4.5769171715 56.4426498413
-34.6902923584 4.5807018280 56.2433853149
-34.6965484619 4.5840868950 56.0438041687
-34.7035140991 4.5875973701 55.8443183899
-34.7144432068 4.5918092728 55.6453819275
-34.7305450439 4.5969357491 55.4471702576
-34.7498893738 4.6026349068 55.2494277954
-34.7687454224 4.6082477570 55.0516242981
-34.7842483521 4.6132674217 54.8533554077
-34.7960281372 4.6176295280 54.6545600891
-34.8058929443 4.6216526031 54.4554939270
-34.8166885376 4.6258401871 54.2565574646
-34.8314628601 4.6307311058 54.0582008362
-34.8527717590 4.6367774010 53.8608016968
-34.8814811707 4.6441311836 53.6644973755
-34.9153862000 4.6524028778 53.4689788818
-34.9487457275 4.6605777740 53.2734107971
-34.9736900330 4.6672654152 53.0766258240
-34.9834480286 4.6712689400 52.8776016235
-34.9758071899 4.6721982956 52.6759719849
-34.9545478821 4.6707210541 52.4722785950
-34.9277572632 4.6682672501 52.2677116394
-34.9044380188 4.6664276123 52.0636215210
-34.8915214539 4.6664261818 51.8610687256
-34.8921318054 4.6688146591 51.6605529785
-34.9050292969 4.6733741760 51.4619064331
-34.9254837036 4.6792688370 51.2644271851
-34.9478187561 4.6854953766 51.0672492981
-34.9683418274 4.6914014816 50.8698081970
-34.9866905212 4.6969232559 50.6720390320
-35.0049819946 4.7024350166 50.4742736816
-35.0257377625 4.7083821297 50.2769050598
-35.0497436523 4.7149024010 50.0800628662
-35.0748443604 4.7216167450 49.8834114075
-35.0968246460 4.7277793884 49.6862792969
-35.1117362976 4.7326936722 49.4880371094
-35.1175804138 4.7360062599 49.2883453369
-35.1140747070 4.7376685143 49.0871429443
-35.1017456055 4.7377729416 48.8844985962
-35.0817604065 4.7365260124 48.6805801392
-35.0565872192 4.7343635559 48.4757766724
-35.0300178528 4.7319550514 48.2707023621
-35.0058975220 4.7299790382 48.0659828186
-34.9867858887 4.7288880348 47.8620452881
-34.9740791321 4.7289285660 47.6591262817
-34.9686164856 4.7302470207 47.4573822021
-34.9703025818 4.7328281403 47.2568092346
-34.9776496887 4.7364091873 47.0571746826
-34.9887504578 4.7406520844 46.8581657410
-35.0027618408 4.7454085350 46.6596488953
-35.0202598572 4.7507810593 46.4617271423
-35.0425720215 4.7570023537 46.2646331787
-35.0708694458 4.7642798424 46.0685768127
-35.1051177979 4.7726073265 45.8735618591
-35.1429176331 4.7815604210 45.6791839600
-35.1791419983 4.7902355194 45.4845733643
-35.2072029114 4.7974705696 45.2885818481
-35.2217178345 4.8023147583 45.0902595520
-35.2214927673 4.8045587540 44.8893699646
-35.2107048035 4.8049387932 44.6866149902
-35.1969642639 4.8047990799 44.4833183289
-35.1878433228 4.8054742813 44.2808036804
-35.1888008118 4.8079276085 44.0800476074
-35.2033195496 4.8127732277 43.8816909790
-35.2330551147 4.8203024864 43.6860504150
-35.2766075134 4.8302679062 43.4929046631
-35.3287696838 4.8417520523 43.3013534546
-35.3822631836 4.8534703255 43.1100921631
-35.4303321838 4.8642311096 42.9179039001
-35.4679031372 4.8731403351 42.7238616943
-35.4925346375 4.8797674179 42.5274963379
-35.5061531067 4.8844513893 42.3291358948
-35.5144805908 4.8882036209 42.1298103333
-35.5226821899 4.8919334412 41.9304580688
-35.5317344666 4.8958134651 41.7312622070
-35.5396194458 4.8994870186 41.5318450928
-35.5448112488 4.9026861191 41.3319244385
-35.5476799011 4.9054756165 41.1315650940
-35.5494956970 4.9080805779 40.9309997559
-35.5512809753 4.9106788635 40.7304153442
-35.5534782410 4.9133510590 40.5298957825
-35.5561828613 4.9161119461 40.3294639587
-35.5593414307 4.9189534187 40.1291122437
-35.5628890991 4.9218635559 39.9288215637
-35.5667304993 4.9248261452 39.7285766602
-35.5706291199 4.9277982712 39.5283393860
-35.5740165710 4.9306797981 39.3279914856
-35.5760803223 4.9333291054 39.1273803711
-35.5766143799 4.9357085228 38.9264602661
-35.5772552490 4.9381074905 38.7255516052
-35.5814323425 4.9411292076 38.5253181458
-35.5917434692 4.9452314377 38.3262748718
-35.6070442200 4.9502129555 38.1282157898
-35.6227416992 4.9552645683 37.9302368164
-35.6341400146 4.9595580101 37.7314186096
-35.6390762329 4.9627137184 37.5313186646
-35.6380081177 4.9648122787 37.3300170898
-35.6332168579 4.9662547112 37.1279602051
-35.6286048889 4.9677290916 36.9259185791
-35.6292724609 4.9701337814 36.7249183655
-35.6398391724 4.9742813110 36.5258979797
-35.6626014709 4.9805765152 36.3293457031
-35.6969909668 4.9889202118 36.1351623535
-35.7402839661 4.9988303185 35.9428253174
-35.7885856628 5.0096220970 35.7515487671
-35.8374710083 5.0205163956 35.5604400635
-35.8823471069 5.0307040215 35.3685607910
-35.9193267822 5.0395007133 35.1750984192
-35.9465065002 5.0465722084 34.9796447754
-35.9642486572 5.0519819260 34.7822608948
-35.9741249084 5.0560064316 34.5832481384
-35.9779853821 5.0589718819 34.3829803467
-35.9781150818 5.0612807274 34.1819229126
-35.9776573181 5.0634870529 33.9807319641
-35.9797248840 5.0661373138 33.7800559998
-35.9855918884 5.0694561005 33.5801734924
-35.9942245483 5.0732626915 33.3808670044
-36.0040817261 5.0772843361 33.1818237305
-36.0151748657 5.0815229416 32.9830398560
-36.0293388367 5.0863027573 32.7849121094
-36.0488548279 5.0920238495 32.5879402161
-36.0746803284 5.0988550186 32.3923339844
-36.1057662964 5.1066117287 32.1978797913
-36.1398391724 5.1148939133 32.0041007996
-36.1744651794 5.1232728958 31.8104743958
-36.2073249817 5.1313405037 31.6164913177
-36.2363052368 5.1387252808 31.4216918945
-36.2602005005 5.1452159882 31.2258052826
-36.2791099548 5.1508288383 31.0288410187
-36.2938537598 5.1557087898 30.8309707642
-36.3051261902 5.1599779129 30.6323394775
-36.3132400513 5.1636915207 30.4330101013
-36.3184623718 5.1668972969 30.2330360413
-36.3213806152 5.1696972847 30.0325412750
-36.3229026794 5.1722521782 29.8317260742
-36.3240394592 5.1747388840 29.6308116913
-36.3256149292 5.1773033142 29.4299850464
-36.3280677795 5.1800217628 29.2293453217
-36.3315734863 5.1829257011 29.0289325714
-36.3365707397 5.1860923767 28.8288497925
-36.3443908691 5.1897549629 28.6294002533
-36.3572349548 5.1943016052 28.4310932159
-36.3769378662 5.2000527382 28.2343559265
-36.4028091431 5.2068891525 28.0390453339
-36.4304313660 5.2140331268 27.8441562653
-36.4534759521 5.2203722000 27.6482353210
-36.4679908752 5.2252111435 27.4503593445
-36.4755744934 5.2288317680 27.2508811951
-36.4824066162 5.2323207855 27.0512275696
-36.4950637817 5.2368340492 26.8529243469
-36.5166091919 5.2429084778 26.6567020416
-36.5454711914 5.2502684593 26.4622077942
-36.5771865845 5.2581305504 26.2684097290
-36.6074600220 5.2657384872 26.0742988586
-36.6346626282 5.2728056908 25.8794860840
-36.6604919434 5.2796320915 25.6843719482
-36.6884384155 5.2868309021 25.4897804260
-36.7210388184 5.2948465347 25.2963199615
-36.7583427429 5.3036880493 25.1040115356
-36.7990036011 5.3131189346 24.9125423431
-36.8421821594 5.3229918480 24.7217159271
-36.8875846863 5.3332548141 24.5314674377
-36.9340438843 5.3437032700 24.3415203094
-36.9793205261 5.3539428711 24.1513328552
-37.0212936401 5.3636026382 23.9603900909
-37.0583763123 5.3724017143 23.7682971954
-37.0887908936 5.3800306320 23.5746116638
-37.1108970642 5.3861985207 23.3789196014
-37.1247100830 5.3909111023 23.1812076569
-37.1325912476 5.3945813179 22.9820423126
-37.1380195618 5.3978209496 22.7822685242
-37.1439590454 5.4011507034 22.5826148987
-37.1521644592 5.4048781395 22.3835163116
-37.1635818481 5.4091696739 22.1852130890
-37.1792602539 5.4142093658 21.9879760742
-37.2012939453 5.4203648567 21.7923316956
-37.2331161499 5.4282379150 21.5991535187
-37.2781372070 5.4384284019 21.4093189240
-37.3369598389 5.4510412216 21.2230033875
-37.4056510925 5.4653854370 21.0392417908
-37.4772567749 5.4802403450 20.8562927246
-37.5449943542 5.4944148064 20.6724414825
-37.6039428711 5.5070471764 20.4864311218
-37.6512145996 5.5176281929 20.2975044250
-37.6861381531 5.5260419846 20.1054687500
-37.7104072571 5.5325860977 19.9107341766
-37.7274627686 5.5378637314 19.7141628265
-37.7414817810 5.5426087379 19.5168209076
-37.7562294006 5.5474805832 19.3196697235
-37.7735481262 5.5528044701 19.1231899261
-37.7925453186 5.5584220886 18.9271545410
-37.8106460571 5.5638828278 18.7308998108
-37.8259086609 5.5688457489 18.5339126587
-37.8382492065 5.5732955933 18.3361682892
-37.8487701416 5.5774264336 18.1379508972
-37.8585243225 5.5814223289 17.9395294189
-37.8679542542 5.5853610039 17.7410221100
-37.8770904541 5.5892496109 17.5424385071
-37.8859672546 5.5930910110 17.3437824249
-37.8948745728 5.5969390869 17.1451339722
-37.9045906067 5.6009287834 16.9466991425
-37.9165382385 5.6053090096 16.7488574982
-37.9330024719 5.6104822159 16.5522270203
-37.9570770264 5.6169896126 16.3576412201
-37.9916954041 5.6253457069 16.1659069061
-38.0374984741 5.6356625557 15.9772157669
-38.0909156799 5.6473140717 15.7906255722
-38.1448211670 5.6590504646 15.6042232513
-38.1921997070 5.6696414948 15.4161071777
-38.2299766541 5.6785492897 15.2254285812
-38.2600975037 5.6861143112 15.0327005386
-38.2880249023 5.6932945251 14.8393983841
-38.3201065063 5.7012023926 14.6472558975
-38.3603591919 5.7105422020 14.4573850632
-38.4077110291 5.7211256027 14.2695045471
-38.4561920166 5.7319068909 14.0819845200
-38.4988021851 5.7416591644 13.8928909302
-38.5315628052 5.7496843338 13.7011117935
-38.5543708801 5.7559652328 13.5065975189
-38.5691909790 5.7608451843 13.3098754883
-38.5782318115 5.7647132874 13.1115474701
-38.5834312439 5.7679080963 12.9121437073
-38.5866813660 5.7707610130 12.7121858597
-38.5901527405 5.7736535072 12.5122823715
-38.5964736938 5.7770447731 12.3131723404
-38.6087646484 5.7814817429 12.1157407761
-38.6306571960 5.7876014709 11.9210290909
-38.6657600403 5.7960352898 11.7300777435
-38.7160186768 5.8071231842 11.5434646606
-38.7798385620 5.8205862045 11.3607673645
-38.8522720337 5.8355569839 11.1805973053
-38.9276390076 5.8510413170 11.0013484955
-39.0020027161 5.8663477898 10.8218946457
-39.0730895996 5.8810806274 10.6415843964
-39.1390380859 5.8949122429 10.4598722458
-39.1983070374 5.9075732231 10.2763032913
-39.2508697510 5.9190592766 10.0908565521
-39.2985458374 5.9296884537 9.9040489197
-39.3431816101 5.9397854805 9.7164058685
-39.3843994141 5.9492831230 9.5278110504
-39.4197120667 5.9577465057 9.3375329971
-39.4471282959 5.9648265839 9.1449756622
-39.4673576355 5.9706487656 8.9503345490
-39.4839782715 5.9758391380 8.7546453476
-39.5022239685 5.9813137054 8.5594425201
-39.5273551941 5.9879927635 8.3662824631
-39.5627059937 5.9964609146 8.1761655807
-39.6081275940 6.0066919327 7.9890685081
-39.6600456238 6.0180592537 7.8039469719
-39.7134056091 6.0296778679 7.6193084717
-39.7642364502 6.0408535004 7.4339709282
-39.8109016418 6.0513000488 7.2474417686
-39.8531188965 6.0609664917 7.0596246719
-39.8901214600 6.0697207451 6.8702836037
-39.9206733704 6.0773458481 6.6790351868
-39.9449348450 6.0838699341 6.4859151840
-39.9657669067 6.0897936821 6.2917752266
-39.9878234863 6.0959320068 6.0980224609
-40.0152626038 6.1030106544 5.9059171677
-40.0495567322 6.1112895012 5.7159214020
-40.0889511108 6.1204595566 5.5275120735
-40.1300201416 6.1299223900 5.3396530151
-40.1699600220 6.1391873360 5.1514878273
-40.2072410583 6.1479864120 4.9625449181
-40.2407264709 6.1561217308 4.7724704742
-40.2695198059 6.1634354591 4.5809788704
-40.2940902710 6.1700105667 4.3882074356
-40.3169860840 6.1762928963 4.1949367523
-40.3421897888 6.1829786301 4.0023989677
-40.3738288879 6.1907892227 3.8118796349
-40.4143829346 6.2001585960 3.6241657734
-40.4622497559 6.2108063698 3.4387736320
-40.5105552673 6.2215299606 3.2535674572
-40.5498046875 6.2306694984 3.0655725002
-40.5732269287 6.2370414734 2.8726437092
-40.5803298950 6.2405605316 2.6745967865
-40.5761528015 6.2421073914 2.4729874134
-40.5677070618 6.2429080009 2.2700102329
-40.5608520508 6.2439875603 2.0675132275
-40.5595092773 6.2460308075 1.8667427301
-40.5664253235 6.2495174408 1.6685831547
-40.5832557678 6.2547369003 1.4735788107
-40.6092300415 6.2615551949 1.2815027237
-40.6403923035 6.2692790031 1.0911056995
-40.6715049744 6.2769942284 0.9007211924
-40.6995849609 6.2841792107 0.7093898058
-40.7258987427 6.2910552025 0.5175123215
-40.7549629211 6.2984118462 0.3265436888
-40.7921485901 6.3071870804 0.1382237524
-31.6458168030 14.8066740036 80.3990249634
-31.6485748291 14.8106679916 80.2004013062
-31.6539630890 14.8160657883 80.0019454956
-31.6595458984 14.8215675354 79.8035049438
-31.6645507813 14.8267602921 79.6050109863
-31.6708183289 14.8326263428 79.4066085815
-31.6810054779 14.8405838013 79.2084808350
-31.6955566406 14.8508682251 79.0106811523
-31.7116413116 14.8619709015 78.8129959106
-31.7251148224 14.8716812134 78.6151275635
-31.7333564758 14.8786001205 78.4168777466
-31.7360591888 14.8825654984 78.2182083130
-31.7338142395 14.8838920593 78.0191497803
-31.7266769409 14.8826093674 77.8196945190
-31.7143077850 14.8785371780 77.6198196411
-31.6973705292 14.8720293045 77.4195480347
-31.6791419983 14.8648338318 77.2191390991
-31.6659088135 14.8603019714 77.0190963745
-31.6643676758 14.8620042801 76.8199615479
-31.6767234802 14.8711194992 76.6219482422
-31.6980304718 14.8850069046 76.4246673584
-31.7195034027 14.8989830017 76.2274246216
-31.7352390289 14.9098987579 76.0297164917
-31.7457485199 14.9180288315 75.8315811157
-31.7553844452 14.9256935120 75.6333770752
-31.7672595978 14.9345502853 75.4353637695
-31.7807922363 14.9442911148 75.2374954224
-31.7933101654 14.9534921646 75.0395507813
-31.8031101227 14.9612426758 74.8413696289
-31.8106994629 14.9678153992 74.6429977417
-31.8176593781 14.9740524292 74.4445648193
-31.8249664307 14.9804744720 74.2461624146
-31.8324012756 14.9869632721 74.0477752686
-31.8389568329 14.9929847717 73.8492965698
-31.8435707092 14.9979715347 73.6506423950
-31.8456745148 15.0016193390 73.4517517090
-31.8453979492 15.0039978027 73.2526245117
-31.8433475494 15.0054321289 73.0533218384
-31.8402175903 15.0062904358 72.8538970947
-31.8365077972 15.0068397522 72.6544036865
-31.8325023651 15.0072317123 72.4548645020
-31.8284015656 15.0075731277 72.2552947998
-31.8244419098 15.0079908371 72.0557250977
-31.8209609985 15.0086631775 71.8561782837
-31.8182697296 15.0097560883 71.6567001343
-31.8162708282 15.0112190247 71.4572753906
-31.8139171600 15.0124931335 71.2577972412
-31.8090209961 15.0124120712 71.0580444336
-31.7992172241 15.0097150803 70.8577728271
-31.7839698792 15.0041170120 70.6569137573
-31.7658100128 14.9969673157 70.4557266235
-31.7489967346 14.9905366898 70.2546386719
-31.7365837097 14.9864511490 70.0539779663
-31.7289485931 14.9849119186 69.8537902832
-31.7249374390 14.9853038788 69.6539611816
-31.7238769531 14.9872694016 69.4544296265
-31.7264652252 14.9911794662 69.2552795410
-31.7339687347 14.9977083206 69.0566558838
-31.7465324402 15.0069351196 68.8585815430
-31.7622337341 15.0178337097 68.6608505249
-31.7780609131 15.0287990570 68.4631500244
-31.7918987274 15.0387048721 68.2652359009
-31.8033180237 15.0473203659 68.0670623779
-31.8127250671 15.0548648834 67.8686599731
-31.8203296661 15.0614471436 67.6700592041
-31.8259696960 15.0669832230 67.4712371826
-31.8297042847 15.0715055466 67.2721862793
-31.8324584961 15.0755043030 67.0730133057
-31.8363151550 15.0800914764 66.8739624023
-31.8442039490 15.0868263245 66.6753768921
-31.8588523865 15.0971622467 66.4775924683
-31.8813629150 15.1116876602 66.2807388306
-31.9104690552 15.1297273636 66.0846862793
-31.9431915283 15.1496925354 65.8890991211
-31.9760894775 15.1697511673 65.6935729980
-32.0059700012 15.1882009506 65.4977111816
-32.0304031372 15.2037506104 65.3012161255
-32.0485572815 15.2159519196 65.1039733887
-32.0613136292 15.2252798080 64.9060745239
-32.0701332092 15.2325096130 64.7077026367
-32.0756568909 15.2379837036 64.5089187622
-32.0774345398 15.2414608002 64.3096542358
-32.0747261047 15.2425498962 64.1098175049
-32.0674819946 15.2412233353 63.9093933105
-32.0566558838 15.2379884720 63.7084884644
-32.0436363220 15.2335844040 63.5072746277
-32.0291328430 15.2283935547 63.3058357239
-32.0121612549 15.2218856812 63.1040458679
-31.9899311066 15.2125778198 62.9015350342
-31.9596328735 15.1989736557 62.6979217529
-31.9216175079 15.1812601089 62.4932403564
-31.8811740875 15.1622533798 62.2881660461
-31.8463554382 15.1462430954 62.0837707520
-31.8233871460 15.1365451813 61.8809051514
-31.8138523102 15.1340036392 61.6797981262
-31.8154106140 15.1373691559 61.4801712036
-31.8243484497 15.1446657181 61.2815361023
-31.8377151489 15.1543207169 61.0835075378
-31.8540077209 15.1655330658 60.8858871460
-31.8729152679 15.1781377792 60.6886405945
-31.8950405121 15.1924571991 60.4918556213
-31.9212989807 15.2089767456 60.2956657410
-31.9513721466 15.2275276184 60.1000366211
-31.9821434021 15.2464485168 59.9045372009
-32.0078277588 15.2626609802 59.7083473206
-32.0220680237 15.2727804184 59.5105552673
-32.0210800171 15.2747898102 59.3105850220
-32.0063667297 15.2694902420 59.1086311340
-31.9844894409 15.2603788376 58.9056053162
-31.9626827240 15.2513036728 58.7025489807
-31.9442424774 15.2440223694 58.4999389648
-31.9285221100 15.2381896973 58.2976913452
-31.9143733978 15.2331943512 58.0956382751
-31.9023628235 15.2293376923 57.8938713074
-31.8945522308 15.2277173996 57.6926994324
-31.8936061859 15.2297515869 57.4925308228
-31.9016590118 15.2365779877 57.2937011719
-31.9187412262 15.2482099533 57.0962371826
-31.9419155121 15.2630872726 56.8997077942
-31.9663543701 15.2786359787 56.7033920288
-31.9877033234 15.2925395966 56.5066223145
-32.0040054321 15.3037567139 56.3090972900
-32.0160789490 15.3127212524 56.1109313965
-32.0261917114 15.3206424713 55.9124641418
-32.0359497070 15.3283758163 55.7139434814
-32.0452995300 15.3358926773 55.5153617859
-32.0537452698 15.3429269791 55.3166389465
-32.0620918274 15.3499088287 55.1178970337
-32.0723953247 15.3579320908 54.9194679260
-32.0860099792 15.3677158356 54.7215690613
-32.1019515991 15.3787403107 54.5240516663
-32.1173477173 15.3894739151 54.3264579773
-32.1294059753 15.3984317780 54.1283302307
-32.1371612549 15.4050970078 53.9295120239
-32.1418724060 15.4101438522 53.7301940918
-32.1458091736 15.4147796631 53.5307464600
-32.1497535706 15.4194164276 53.3312911987
-32.1514472961 15.4228582382 53.1314582825
-32.1476783752 15.4233932495 52.9307060242
-32.1383399963 15.4209623337 52.7290115356
-32.1279678345 15.4179821014 52.5271148682
-32.1231842041 15.4179782867 52.3261337280
-32.1289329529 15.4235763550 52.1269111633
-32.1463050842 15.4353618622 51.9296569824
-32.1724357605 15.4518060684 51.7339019775
-32.2017860413 15.4699659348 51.5387268066
-32.2284622192 15.4867000580 51.3431205750
-32.2485504150 15.4999313354 51.1464042664
-32.2613983154 15.5093069077 50.9484519958
-32.2689781189 15.5158796310 50.7495880127
-32.2741279602 15.5211620331 50.5503005981
-32.2790832520 15.5263385773 50.3509750366
-32.2850914001 15.5320749283 50.1518249512
-32.2928733826 15.5387563705 49.9529876709
-32.3032608032 15.5468235016 49.7546119690
-32.3175697327 15.5569772720 49.5569381714
-32.3371276855 15.5699234009 49.3602104187
-32.3618621826 15.5856237411 49.1644248962
-32.3892707825 15.6027469635 48.9691505432
-32.4153594971 15.6191663742 48.7736587524
-32.4369583130 15.6331987381 48.5773773193
-32.4530754089 15.6443119049 48.3801155090
-32.4643135071 15.6528310776 48.1819725037
-32.4717330933 15.6593189240 47.9831275940
-32.4762649536 15.6642704010 47.7837524414
-32.4786758423 15.6680927277 47.5839767456
-32.4796409607 15.6711483002 47.3839225769
-32.4799728394 15.6738653183 47.1837387085
-32.4809303284 15.6769151688 46.9836616516
-32.4844474792 15.6813278198 46.7840538025
-32.4928398132 15.6883335114 46.5853614807
-32.5076446533 15.6987495422 46.3878822327
-32.5280036926 15.7121210098 46.1914710999
-32.5501174927 15.7264242172 45.9954109192
-32.5689430237 15.7389783859 45.7987403870
-32.5811309814 15.7480001450 45.6008071899
-32.5866775513 15.7534923553 45.4015960693
-32.5882797241 15.7568874359 45.2016143799
-32.5894470215 15.7600498199 45.0015411377
-32.5930137634 15.7644882202 44.8019218445
-32.6007041931 15.7711210251 44.6031074524
-32.6133956909 15.7804117203 44.4052734375
-32.6310997009 15.7923688889 44.2084388733
-32.6524200439 15.8062496185 44.0123291016
-32.6743354797 15.8204441071 43.8163566589
-32.6934089661 15.8331289291 43.6198387146
-32.7079353333 15.8433961868 43.4224243164
-32.7190971375 15.8518743515 43.2243423462
-32.7301559448 15.8602972031 43.0262413025
-32.7441978455 15.8703060150 42.8287467957
-32.7617073059 15.8821573257 42.6319694519
-32.7794456482 15.8941307068 42.4352455139
-32.7917366028 15.9032087326 42.2374229431
-32.7936477661 15.9067678452 42.0374755859
-32.7839698792 15.9041633606 41.8351325989
-32.7660446167 15.8971767426 41.6310577393
-32.7460594177 15.8890933990 41.4265136719
-32.7301216125 15.8831644058 41.2227745056
-32.7225112915 15.8816614151 41.0207405090
-32.7257423401 15.8859224319 40.8209533691
-32.7410888672 15.8966264725 40.6237068176
-32.7682189941 15.9135923386 40.4289588928
-32.8045730591 15.9354639053 40.2361907959
-32.8458251953 15.9599370956 40.0445022583
-32.8868484497 15.9842882156 39.8528099060
-32.9224929810 16.0057792664 39.6600151062
-32.9487228394 16.0222644806 39.4652366638
-32.9644050598 16.0331459045 39.2682151794
-32.9721298218 16.0397949219 39.0694847107
-32.9770812988 16.0449695587 38.8701515198
-32.9848747253 16.0516548157 38.6714286804
-32.9995117188 16.0619773865 38.4742012024
-33.0218696594 16.0764064789 38.2786712646
-33.0493354797 16.0935478210 38.0842819214
-33.0773048401 16.1109561920 37.8900337219
-33.1017417908 16.1264877319 37.6950302124
-33.1206855774 16.1390972137 37.4988288879
-33.1338195801 16.1486225128 37.3013534546
-33.1413269043 16.1551551819 37.1026268005
-33.1432113647 16.1586990356 36.9026412964
-33.1392745972 16.1591510773 36.7013359070
-33.1294555664 16.1564750671 36.4986915588
-33.1143646240 16.1509990692 36.2948226929
-33.0961837769 16.1438827515 36.0902214050
-33.0793533325 16.1374816895 35.8858909607
-33.0695838928 16.1348361969 35.6831359863
-33.0706825256 16.1379661560 35.4828414917
-33.0814628601 16.1462383270 35.2847595215
-33.0961151123 16.1565685272 35.0875701904
-33.1080360413 16.1654491425 34.8897628784
-33.1136283875 16.1709651947 34.6904907227
-33.1138648987 16.1736354828 34.4899711609
-33.1139526367 16.1762294769 34.2894020081
-33.1214027405 16.1827335358 34.0905456543
-33.1421775818 16.1963176727 33.8948135376
-33.1768760681 16.2172985077 33.7023773193
-33.2205085754 16.2430248260 33.5120887756
-33.2664642334 16.2699871063 33.3224029541
-33.3103599548 16.2958526611 33.1322784424
-33.3501548767 16.3195381165 32.9412269592
-33.3841934204 16.3401679993 32.7488479614
-33.4108772278 16.3568878174 32.5547409058
-33.4304008484 16.3698043823 32.3589363098
-33.4458656311 16.3805637360 32.1621704102
-33.4618072510 16.3915767670 31.9655284882
-33.4812927246 16.4044723511 31.7697582245
-33.5040664673 16.4191150665 31.5748023987
-33.5273895264 16.4340476990 31.3800029755
-33.5484924316 16.4478015900 31.1846790314
-33.5661048889 16.4597015381 30.9885196686
-33.5801773071 16.4697208405 30.7914981842
-33.5909576416 16.4779891968 30.5936737061
-33.5986633301 16.4846286774 30.3950901031
-33.6037445068 16.4898719788 30.1958541870
-33.6073455811 16.4943275452 29.9962444305
-33.6117134094 16.4991931915 29.7968196869
-33.6201896667 16.5062389374 29.5984172821
-33.6360778809 16.5172214508 29.4018764496
-33.6606407166 16.5328121185 29.2075328827
-33.6917152405 16.5518608093 29.0148563385
-33.7246932983 16.5719184875 28.8226947784
-33.7553062439 16.5907211304 28.6299686432
-33.7817993164 16.6073360443 28.4362239838
-33.8047294617 16.6220569611 28.2415943146
-33.8250045776 16.6353683472 28.0463047028
-33.8423004150 16.6470947266 27.8502655029
-33.8553504944 16.6565704346 27.6531467438
-33.8635101318 16.6634483337 27.4547691345
-33.8674468994 16.6680812836 27.2552967072
-33.8684349060 16.6711521149 27.0550537109
-33.8674888611 16.6731929779 26.8542919159
-33.8655815125 16.6747245789 26.6532669067
-33.8645515442 16.6767234802 26.4524593353
-33.8670578003 16.6805992126 26.2525634766
-33.8751716614 16.6874523163 26.0541381836
-33.8893318176 16.6975173950 25.8573093414
-33.9086265564 16.7103061676 25.6618480682
-33.9313430786 16.7249107361 25.4673118591
-33.9549713135 16.7399997711 25.2730388641
-33.9767417908 16.7541046143 25.0782909393
-33.9950599670 16.7663745880 24.8826370239
-34.0103340149 16.7770290375 24.6861820221
-34.0244750977 16.7870807648 24.4894294739
-34.0398101807 16.7977657318 24.2930068970
-34.0580329895 16.8099861145 24.0973777771
-34.0790863037 16.8237075806 23.9025306702
-34.1007003784 16.8377246857 23.7078533173
-34.1196746826 16.8503437042 23.5124740601
-34.1341209412 16.8605575562 23.3158721924
-34.1445541382 16.8686408997 23.1181774139
-34.1531257629 16.8757343292 22.9199733734
-34.1623306274 16.8831653595 22.7219448090
-34.1743850708 16.8921108246 22.5247039795
-34.1912765503 16.9036216736 22.3288097382
-34.2147789001 16.9186401367 22.1347637177
-34.2460098267 16.9377613068 21.9428920746
-34.2846069336 16.9607925415 21.7531108856
-34.3280639648 16.9864025116 21.5647354126
-34.3721313477 17.0123348236 21.3765792847
-34.4123344421 17.0362167358 21.1873874664
-34.4458694458 17.0565567017 20.9963588715
-34.4726219177 17.0732994080 20.8034496307
-34.4947814941 17.0876026154 20.6092624664
-34.5153045654 17.1010379791 20.4146289825
-34.5361099243 17.1146240234 20.2200946808
-34.5568885803 17.1281948090 20.0255699158
-34.5757751465 17.1407604218 19.8305206299
-34.5922508240 17.1520481110 19.6347942352
-34.6094779968 17.1637325287 19.4392948151
-34.6323432922 17.1784095764 19.2454357147
-34.6625518799 17.1969833374 19.0537223816
-34.6965370178 17.2175598145 18.8631362915
-34.7285270691 17.2370777130 18.6720066071
-34.7548294067 17.2535781860 18.4792537689
-34.7749061584 17.2667732239 18.2847042084
-34.7896804810 17.2771549225 18.0886192322
-34.8000640869 17.2852077484 17.8912544250
-34.8071479797 17.2915096283 17.6929187775
-34.8131752014 17.2972507477 17.4942703247
-34.8217315674 17.3043327332 17.2963657379
-34.8363494873 17.3146324158 17.1002616882
-34.8582496643 17.3287944794 16.9063282013
-34.8850288391 17.3455448151 16.7138690948
-34.9117279053 17.3622531891 16.5214138031
-34.9335060120 17.3763484955 16.3275108337
-34.9477157593 17.3864288330 16.1313533783
-34.9542884827 17.3924598694 15.9329061508
-34.9549789429 17.3953685760 15.7326822281
-34.9525108337 17.3966045380 15.5314912796
-34.9499740601 17.3978023529 15.3302650452
-34.9504623413 17.4006061554 15.1299409866
-34.9568977356 17.4065628052 14.9314165115
-34.9718666077 17.4170475006 14.7354936600
-34.9969596863 17.4329013824 14.5426788330
-35.0316505432 17.4538459778 14.3528308868
-35.0729904175 17.4783153534 14.1650648117
-35.1172218323 17.5043201447 13.9782381058
-35.1619987488 17.5306110382 13.7916316986
-35.2070350647 17.5570411682 13.6051568985
-35.2533264160 17.5841350555 13.4191246033
-35.3022918701 17.6126480103 13.2339792252
-35.3546791077 17.6429710388 13.0499582291
-35.4089508057 17.6742954254 12.8665904999
-35.4611549377 17.7045230865 12.6826410294
-35.5074729919 17.7316284180 12.4969062805
-35.5467567444 17.7550029755 12.3090133667
-35.5800743103 17.7752113342 12.1192827225
-35.6085243225 17.7928390503 11.9280490875
-35.6326026917 17.8081474304 11.7354602814
-35.6534652710 17.8217525482 11.5418720245
-35.6738700867 17.8351116180 11.3481559753
-35.6976623535 17.8502693176 11.1555376053
-35.7285194397 17.8691692352 10.9652004242
-35.7686004639 17.8929615021 10.7778511047
-35.8176879883 17.9215316772 10.5934400558
-35.8733406067 17.9535789490 10.4112014771
-35.9318199158 17.9871234894 10.2299423218
-35.9890213013 18.0199909210 10.0483427048
-36.0413589478 18.0502777100 9.8652372360
-36.0869560242 18.0769901276 9.6800050735
-36.1265258789 18.1005077362 9.4928655624
-36.1624679565 18.1221008301 9.3045873642
-36.1963348389 18.1425933838 9.1156711578
-36.2269821167 18.1613788605 8.9257354736
-36.2514038086 18.1768627167 8.7337875366
-36.2673187256 18.1878376007 8.5390634537
-36.2747879028 18.1943340302 8.3415632248
-36.2756195068 18.1973114014 8.1418676376
-36.2719230652 18.1978912354 7.9406614304
-36.2653465271 18.1969432831 7.7384810448
-36.2574768066 18.1953086853 7.5358481407
-36.2510757446 18.1944541931 7.3336815834
-36.2514114380 18.1971721649 7.1337451935
-36.2659606934 18.2074203491 6.9385561943
-36.3012008667 18.2286376953 6.7503213882
-36.3584175110 18.2615051270 6.5695185661
-36.4322853088 18.3031940460 6.3943982124
-36.5131797791 18.3486080170 6.2217464447
-36.5906143188 18.3921833038 6.0480275154
-36.6558418274 18.4292926788 5.8702688217
-36.7039871216 18.4573440552 5.6867833138
-36.7351417542 18.4763908386 5.4975662231
-36.7533187866 18.4885578156 5.3039498329
-36.7637863159 18.4966430664 5.1077117920
-36.7708969116 18.5029468536 4.9103245735
-36.7774200439 18.5089397430 4.7127327919
-36.7850990295 18.5155448914 4.5155367851
-36.7956123352 18.5236511230 4.3193173409
-36.8111495972 18.5344200134 4.1248388290
