6.6696801186 -38.7758407593 29.8175525665
6.6665697098 -38.7697830200 29.6165142059
6.6627120972 -38.7584266663 29.4142608643
6.6589341164 -38.7476463318 29.2121067047
6.6557493210 -38.7410659790 29.0108776093
6.6534724236 -38.7409248352 28.8110904694
6.6523814201 -38.7491912842 28.6132030487
6.6526899338 -38.7673797607 28.4175815582
6.6543416977 -38.7950897217 28.2241516113
6.6568584442 -38.8289299011 28.0321502686
6.6594634056 -38.8633918762 27.8403244019
6.6614384651 -38.8933868408 27.6474952698
6.6624369621 -38.9164619446 27.4530849457
6.6625666618 -38.9333724976 27.2572593689
6.6622695923 -38.9472618103 27.0607357025
6.6620831490 -38.9619369507 26.8644008636
6.6623539925 -38.9798507690 26.6688289642
6.6630945206 -39.0010910034 26.4740467072
6.6641573906 -39.0246124268 26.2798156738
6.6655707359 -39.0506172180 26.0861892700
6.6676106453 -39.0810585022 25.8936309814
6.6704945564 -39.1174736023 25.7025184631
6.6740751266 -39.1588287354 25.5126132965
6.6779375076 -39.2021713257 25.3232231140
6.6817674637 -39.2452812195 25.1338195801
6.6855287552 -39.2878990173 24.9443378448
6.6892485619 -39.3302192688 24.7548274994
6.6927390099 -39.3709182739 24.5649623871
6.6956272125 -39.4073486328 24.3741054535
6.6976332664 -39.4375267029 24.1817626953
6.6987619400 -39.4614906311 23.9879302979
6.6992793083 -39.4811286926 23.7930622101
6.6996111870 -39.4994506836 23.5978813171
6.7002229691 -39.5197525024 23.4031963348
6.7014546394 -39.5444412231 23.2096004486
6.7033939362 -39.5741386414 23.0172595978
6.7059206963 -39.6079940796 22.8259696960
6.7088608742 -39.6447677612 22.6354331970
6.7120556831 -39.6833457947 22.4453773499
6.7153487206 -39.7226142883 22.2555294037
6.7185444832 -39.7611923218 22.0655460358
6.7213735580 -39.7971725464 21.8749465942
6.7235317230 -39.8284034729 21.6831874847
6.7248301506 -39.8535461426 21.4899215698
6.7253141403 -39.8729286194 21.2952194214
6.7252211571 -39.8882255554 21.0994949341
6.7248339653 -39.9014396667 20.9032478333
6.7243824005 -39.9141998291 20.7068881989
6.7240552902 -39.9278450012 20.5107574463
6.7241010666 -39.9441223145 20.3152999878
6.7249083519 -39.9657859802 20.1212329865
6.7269282341 -39.9960250854 19.9293804169
6.7303538322 -40.0362052917 19.7401123047
6.7347855568 -40.0834960938 19.5527191162
6.7392778397 -40.1312141418 19.3654823303
6.7428746223 -40.1725921631 19.1766490936
6.7451820374 -40.2048492432 18.9854831696
6.7465004921 -40.2301139832 18.7925186157
6.7475304604 -40.2533378601 18.5990409851
6.7489461899 -40.2792892456 18.4062938690
6.7510266304 -40.3099365234 18.2147979736
6.7535080910 -40.3434143066 18.0240764618
6.7558002472 -40.3755531311 17.8330268860
6.7574071884 -40.4028511047 17.6407241821
6.7581787109 -40.4242362976 17.4468746185
6.7582411766 -40.4406127930 17.2517070770
6.7578220367 -40.4535865784 17.0556392670
6.7571387291 -40.4646873474 16.8590717316
6.7563486099 -40.4750366211 16.6623058319
6.7555317879 -40.4851989746 16.4654865265
6.7546982765 -40.4952430725 16.2686367035
6.7538404465 -40.5051116943 16.0717353821
6.7530179024 -40.5152320862 15.8749036789
6.7524800301 -40.5273628235 15.6786146164
6.7527675629 -40.5453262329 15.4839115143
6.7546548843 -40.5745887756 15.2922945023
6.7587924004 -40.6197471619 15.1050424576
6.7652359009 -40.6811828613 14.9222879410
6.7732973099 -40.7540435791 14.7427339554
6.7819113731 -40.8308029175 14.5643301010
6.7901692390 -40.9050407410 14.3853168488
6.7976150513 -40.9735336304 14.2047986984
6.8042006493 -41.0359458923 14.0226716995
6.8100380898 -41.0930747986 13.8391437531
6.8151230812 -41.1448822021 13.6541948318
6.8191494942 -41.1892127991 13.4672145844
6.8215203285 -41.2218513489 13.2770099640
6.8216452599 -41.2386322021 13.0823907852
6.8194417953 -41.2389793396 12.8831644058
6.8156180382 -41.2278862000 12.6807069778
6.8114538193 -41.2143936157 12.4775419235
6.8082847595 -41.2079277039 12.2763328552
6.8071274757 -41.2156639099 12.0791254044
6.8085613251 -41.2416839600 11.8871059418
6.8127193451 -41.2869262695 11.7005777359
6.8192701340 -41.3490524292 11.5189113617
6.8273997307 -41.4223098755 11.3404941559
6.8358550072 -41.4978637695 11.1628150940
6.8431892395 -41.5654983521 10.9829454422
6.8482327461 -41.6169700623 10.7984943390
6.8505449295 -41.6491661072 10.6085357666
6.8505029678 -41.6647529602 10.4138011932
6.8490200043 -41.6701698303 10.2161245346
6.8471717834 -41.6730155945 10.0176954269
6.8459386826 -41.6801986694 9.8205175400
6.8460054398 -41.6965522766 9.6260099411
6.8475661278 -41.7234382629 9.4345903397
6.8502674103 -41.7583694458 9.2455472946
6.8534860611 -41.7969436646 9.0576066971
6.8567585945 -41.8358993530 8.8698139191
6.8599519730 -41.8742904663 8.6818904877
6.8631029129 -41.9123840332 8.4939146042
6.8662781715 -41.9506416321 8.3060226440
6.8695549965 -41.9896125793 8.1183776855
6.8728928566 -42.0290107727 7.9308962822
6.8758664131 -42.0658416748 7.7426862717
6.8776702881 -42.0944213867 7.5520434380
6.8776254654 -42.1099700928 7.3575201035
6.8757719994 -42.1127700806 7.1591753960
6.8729052544 -42.1084289551 6.9586725235
6.8700628281 -42.1042633057 6.7582020760
6.8680396080 -42.1058692932 6.5594563484
6.8673090935 -42.1165809631 6.3634567261
6.8681278229 -42.1382179260 6.1707701683
6.8704447746 -42.1704101563 5.9813065529
6.8736691475 -42.2089881897 5.7938170433
6.8767957687 -42.2468795776 5.6061534882
6.8790750504 -42.2787933350 5.4166965485
6.8806223869 -42.3055534363 5.2256855965
6.8822932243 -42.3331794739 5.0349607468
6.8849992752 -42.3680953979 4.8465037346
6.8892402649 -42.4138221741 4.6614127159
6.8951487541 -42.4712905884 4.4799985886
6.9026856422 -42.5402183533 4.3021960258
6.9115986824 -42.6188354492 4.1274785995
6.9213104248 -42.7030677795 3.9545953274
6.9309926033 -42.7870864868 3.7817404270
6.9397478104 -42.8645706177 3.6069378853
6.9467134476 -42.9294471741 3.4282741547
6.9512491226 -42.9772071838 3.2443099022
6.9533405304 -43.0077590942 3.0549817085
6.9538354874 -43.0270652771 2.8621368408
6.9540243149 -43.0442199707 2.6686222553
6.9548835754 -43.0660934448 2.4766089916
6.9567947388 -43.0953674316 2.2869563103
6.9598422050 -43.1326370239 2.0998682976
6.9640421867 -43.1780166626 1.9153951406
6.9692025185 -43.2301521301 1.7331216335
6.9748101234 -43.2854270935 1.5519063473
6.9802250862 -43.3393478394 1.3703129292
6.9849653244 -43.3885116577 1.1872504950
6.9887819290 -43.4311752319 1.0021468401
6.9915556908 -43.4664955139 0.8147181273
6.9932870865 -43.4944839478 0.6249529123
6.9942660332 -43.5171737671 0.4334967434
6.9951844215 -43.5394363403 0.2419173270
6.9970016479 -43.5680198669 0.0524062552
-4.7343864441 -37.1005210876 80.5467987061
-4.7350707054 -37.0917472839 80.3489303589
-4.7347764969 -37.0774650574 80.1507034302
-4.7337665558 -37.0591506958 79.9521865845
-4.7319660187 -37.0363883972 79.7533493042
-4.7292194366 -37.0082969666 79.5541381836
-4.7255783081 -36.9751701355 79.3545455933
-4.7214689255 -36.9393997192 79.1547241211
-4.7177820206 -36.9060058594 78.9550094604
-4.7156734467 -36.8814964294 78.7558212280
-4.7159819603 -36.8705863953 78.5575103760
-4.7187066078 -36.8732757568 78.3600921631
-4.7230548859 -36.8851089478 78.1632919312
-4.7280135155 -36.9003753662 77.9667282104
-4.7328839302 -36.9151458740 77.7701339722
-4.7373952866 -36.9278984070 77.5734100342
-4.7416062355 -36.9389572144 77.3765640259
-4.7458944321 -36.9504508972 77.1797561646
-4.7508726120 -36.9658279419 76.9832229614
-4.7569913864 -36.9876327515 76.7871704102
-4.7640509605 -37.0147361755 76.5915222168
-4.7711009979 -37.0417823792 76.3958892822
-4.7769370079 -37.0620002747 76.1997680664
-4.7807774544 -37.0709724426 76.0028076172
-4.7825956345 -37.0685577393 75.8049774170
-4.7830419540 -37.0584106445 75.6065444946
-4.7831215858 -37.0461997986 75.4079208374
-4.7837600708 -37.0371360779 75.2095184326
-4.7855205536 -37.0343933105 75.0115890503
-4.7886471748 -37.0393409729 74.8142471313
-4.7931427956 -37.0520019531 74.6175155640
-4.7986555099 -37.0703926086 74.4212570190
-4.8044934273 -37.0906219482 74.2251510620
-4.8099989891 -37.1089744568 74.0289001465
-4.8148503304 -37.1236419678 73.8323669434
-4.8189077377 -37.1338348389 73.6354598999
-4.8218255043 -37.1376075745 73.4380111694
-4.8229966164 -37.1315383911 73.2397308350
-4.8220229149 -37.1133766174 73.0404052734
-4.8191967010 -37.0847702026 72.8401412964
-4.8154368401 -37.0509033203 72.6393814087
-4.8117828369 -37.0176277161 72.4386062622
-4.8090281487 -36.9894180298 72.2382278442
-4.8077073097 -36.9692878723 72.0385131836
-4.8081645966 -36.9591789246 71.8396453857
-4.8104701042 -36.9594841003 71.6416854858
-4.8142986298 -36.9683761597 71.4444885254
-4.8189864159 -36.9821128845 71.2477264404
-4.8238062859 -36.9965934753 71.0510330200
-4.8282470703 -37.0089416504 70.8541564941
-4.8321027756 -37.0179862976 70.6569747925
-4.8354115486 -37.0239486694 70.4595031738
-4.8383994102 -37.0281028748 70.2618484497
-4.8414840698 -37.0327949524 70.0642471313
-4.8453211784 -37.0417366028 69.8670425415
-4.8507404327 -37.0596008301 69.6706848145
-4.8583035469 -37.0895538330 69.4755096436
-4.8675951958 -37.1292610168 69.2813034058
-4.8770446777 -37.1698570251 69.0872192383
-4.8848447800 -37.2011566162 68.8922653198
-4.8901491165 -37.2183761597 68.6959381104
-4.8932418823 -37.2231216431 68.4983825684
-4.8947706223 -37.2190437317 68.2999267578
-4.8951535225 -37.2084999084 68.1008071899
-4.8945350647 -37.1923027039 67.9010848999
-4.8928670883 -37.1701889038 67.7007293701
-4.8901219368 -37.1419906616 67.4997024536
-4.8868126869 -37.1106071472 67.2982940674
-4.8842401505 -37.0833740234 67.0972671509
-4.8838415146 -37.0684089661 66.8974761963
-4.8862352371 -37.0691986084 66.6993179321
-4.8910188675 -37.0834732056 66.5025711060
-4.8974962234 -37.1073074341 66.3068542480
-4.9054827690 -37.1396598816 66.1120681763
-4.9152708054 -37.1821823120 65.9184036255
-4.9267754555 -37.2343940735 65.7258300781
-4.9388160706 -37.2896385193 65.5336456299
-4.9494366646 -37.3368682861 65.3406372070
-4.9570183754 -37.3669471741 65.1457824707
-4.9611744881 -37.3776893616 64.9488067627
-4.9628491402 -37.3744239807 64.7502593994
-4.9637427330 -37.3667488098 64.5512084961
-4.9653935432 -37.3633460999 64.3526077271
-4.9684195518 -37.3677062988 64.1548767090
-4.9724750519 -37.3778800964 63.9578056335
-4.9768605232 -37.3899154663 63.7609443665
-4.9811072350 -37.4011688232 63.5639953613
-4.9850964546 -37.4109649658 63.3668785095
-4.9889030457 -37.4197349548 63.1696434021
-4.9926977158 -37.4284324646 62.9723968506
-4.9967455864 -37.4385643005 62.7753143311
-5.0013852119 -37.4520378113 62.5786323547
-5.0068497658 -37.4701690674 62.3825073242
-5.0129928589 -37.4921340942 62.1868553162
-5.0191736221 -37.5143089294 61.9912452698
-5.0245323181 -37.5318450928 61.7950820923
-5.0284781456 -37.5414009094 61.5979614258
-5.0309419632 -37.5425834656 61.3998069763
-5.0322332382 -37.5371398926 61.2008285522
-5.0327634811 -37.5273971558 61.0012969971
-5.0329623222 -37.5157814026 60.8015060425
-5.0333447456 -37.5051994324 60.6018180847
-5.0344662666 -37.4987907410 60.4026260376
-5.0366835594 -37.4985733032 60.2041969299
-5.0400781631 -37.5050086975 60.0065994263
-5.0447244644 -37.5185165405 59.8098983765
-5.0509305000 -37.5408401489 59.6143341064
-5.0590009689 -37.5736999512 59.4201469421
-5.0687265396 -37.6159172058 59.2271995544
-5.0791645050 -37.6621665955 59.0348167419
-5.0889925957 -37.7049674988 58.8420295715
-5.0971684456 -37.7384338379 58.6480560303
-5.1034011841 -37.7609176636 58.4526596069
-5.1081061363 -37.7747650146 58.2561340332
-5.1119718552 -37.7838706970 58.0589790344
-5.1155653000 -37.7914352417 57.8616142273
-5.1192126274 -37.7993049622 57.6642913818
-5.1230487823 -37.8082389832 57.4671058655
-5.1270561218 -37.8181457520 57.2700538635
-5.1309971809 -37.8276710510 57.0729484558
-5.1342797279 -37.8334770203 56.8753280640
-5.1359992027 -37.8304481506 56.6764869690
-5.1353516579 -37.8140220642 56.4757728577
-5.1322073936 -37.7834815979 56.2730560303
-5.1274065971 -37.7435684204 56.0689811707
-5.1227836609 -37.7046546936 55.8649787903
-5.1210041046 -37.6818199158 55.6631851196
-5.1246190071 -37.6894950867 55.4656715393
-5.1342291832 -37.7310829163 55.2729873657
-5.1474623680 -37.7931671143 55.0832710266
-5.1603589058 -37.8533515930 54.8933525085
-5.1700344086 -37.8953170776 54.7008666992
-5.1760005951 -37.9163017273 54.5053787231
-5.1793918610 -37.9227180481 54.3077850342
-5.1815605164 -37.9222183228 54.1091728210
-5.1833572388 -37.9196128845 53.9102401733
-5.1851367950 -37.9169082642 53.7112731934
-5.1869897842 -37.9146156311 53.5123558044
-5.1889119148 -37.9127159119 53.3134765625
-5.1908783913 -37.9110679626 53.1146202087
-5.1928415298 -37.9093933105 52.9157447815
-5.1946697235 -37.9069633484 52.7167396545
-5.1960382462 -37.9019241333 52.5173263550
-5.1964025497 -37.8912010193 52.3170242310
-5.1953291893 -37.8723373413 52.1154556274
-5.1931853294 -37.8474159241 51.9129219055
-5.1915321350 -37.8252639771 51.7107696533
-5.1923890114 -37.8173217773 51.5107727051
-5.1966738701 -37.8287849426 51.3137626648
-5.2033076286 -37.8535499573 51.1188240051
-5.2099747658 -37.8784980774 50.9239387512
-5.2147707939 -37.8928565979 50.7274055481
-5.2172479630 -37.8940849304 50.5288047791
-5.2182512283 -37.8869667053 50.3288726807
-5.2190399170 -37.8786315918 50.1287231445
-5.2204799652 -37.8739852905 49.9291381836
-5.2227253914 -37.8738975525 49.7302665710
-5.2253584862 -37.8760070801 49.5317344666
-5.2277746201 -37.8768844604 49.3329925537
-5.2296571732 -37.8747406006 49.1337509155
-5.2312278748 -37.8708267212 48.9342002869
-5.2329640388 -37.8678512573 48.7347908020
-5.2351264954 -37.8672866821 48.5357551575
-5.2377605438 -37.8693923950 48.3371467590
-5.2410759926 -37.8753585815 48.1391677856
-5.2455258369 -37.8877563477 47.9422531128
-5.2514228821 -37.9083480835 47.7467041016
-5.2586178780 -37.9362907410 47.5524024963
-5.2666459084 -37.9689598083 47.3589134216
-5.2750706673 -38.0038795471 47.1658363342
-5.2835383415 -38.0390434265 46.9728317261
-5.2915754318 -38.0717697144 46.7794418335
-5.2985620499 -38.0985412598 46.5850677490
-5.3039865494 -38.1164665222 46.3891983032
-5.3076663017 -38.1245002747 46.1916427612
-5.3098163605 -38.1238670349 45.9925842285
-5.3111433983 -38.1185684204 45.7927055359
-5.3129138947 -38.1157798767 45.5932426453
-5.3166513443 -38.1241416931 45.3957099915
-5.3234186172 -38.1496772766 45.2011795044
-5.3332009315 -38.1923027039 45.0096740723
-5.3449048996 -38.2458267212 44.8201293945
-5.3568964005 -38.3009834290 44.6309318542
-5.3676338196 -38.3490371704 44.4405288696
-5.3761396408 -38.3844413757 44.2479171753
-5.3822283745 -38.4061393738 44.0528869629
-5.3863883018 -38.4169044495 43.8559112549
-5.3893842697 -38.4210700989 43.6577415466
-5.3918867111 -38.4224357605 43.4590606689
-5.3943395615 -38.4235153198 43.2603187561
-5.3969926834 -38.4257354736 43.0617675781
-5.3999524117 -38.4296913147 42.8635253906
-5.4031491280 -38.4349899292 42.6655235291
-5.4062280655 -38.4396247864 42.4673919678
-5.4083943367 -38.4390792847 42.2682952881
-5.4084305763 -38.4264488220 42.0669441223
-5.4052376747 -38.3955001831 41.8621559143
-5.3988695145 -38.3465385437 41.6539535522
-5.3911428452 -38.2898635864 41.4442329407
-5.3848567009 -38.2413558960 41.2359580994
-5.3821454048 -38.2131271362 41.0314331055
-5.3835020065 -38.2079696655 40.8312225342
-5.3880839348 -38.2211151123 40.6344680786
-5.3946275711 -38.2453918457 40.4398384094
-5.4022812843 -38.2759666443 40.2464332581
-5.4110379219 -38.3127975464 40.0542488098
-5.4214663506 -38.3591270447 39.8639297485
-5.4337968826 -38.4162445068 39.6757392883
-5.4472637177 -38.4798202515 39.4888572693
-5.4606146812 -38.5427436829 39.3019218445
-5.4733552933 -38.6022071838 39.1143760681
-5.4862875938 -38.6627616882 38.9271087646
-5.5005183220 -38.7306861877 38.7413520813
-5.5156931877 -38.8039817810 38.5567245483
-5.5292892456 -38.8683128357 38.3704109192
-5.5381684303 -38.9058761597 38.1788597107
-5.5411844254 -38.9101562500 37.9807243347
-5.5400791168 -38.8910369873 37.7779159546
-5.5378570557 -38.8655738831 37.5737953186
-5.5366806984 -38.8460426331 37.3708229065
-5.5372514725 -38.8364334106 37.1698112488
-5.5394892693 -38.8362884521 36.9706840515
-5.5433130264 -38.8451461792 36.7733726501
-5.5489530563 -38.8643188477 36.5781517029
-5.5568051338 -38.8960571289 36.3855094910
-5.5669188499 -38.9406394958 36.1955223083
-5.5784678459 -38.9933738708 36.0072517395
-5.5898251534 -39.0450248718 35.8188171387
-5.5994105339 -39.0866165161 35.6283531189
-5.6065521240 -39.1143264771 35.4350547791
-5.6115641594 -39.1299438477 35.2392654419
-5.6151623726 -39.1375274658 35.0418052673
-5.6178913116 -39.1401748657 34.8433113098
-5.6199331284 -39.1389160156 34.6439895630
-5.6212210655 -39.1333770752 34.4437484741
-5.6217317581 -39.1234169006 34.2425575256
-5.6218171120 -39.1110382080 34.0408248901
-5.6222786903 -39.1007995605 33.8395195007
-5.6240048409 -39.0977401733 33.6397171021
-5.6274914742 -39.1046867371 33.4420356750
-5.6327290535 -39.1215820313 33.2464828491
-5.6394071579 -39.1466636658 33.0526962280
-5.6470656395 -39.1773223877 32.8601303101
-5.6550855637 -39.2100296021 32.6680374146
-5.6626963615 -39.2404212952 32.4754676819
-5.6691851616 -39.2644309998 32.2815399170
-5.6741986275 -39.2800598145 32.0858001709
-5.6778583527 -39.2879905701 31.8883800507
-5.6805782318 -39.2905807495 31.6897869110
-5.6827788353 -39.2902183533 31.4905319214
-5.6846919060 -39.2882194519 31.2909030914
-5.6862931252 -39.2844467163 31.0908660889
-5.6873345375 -39.2774887085 30.8901042938
-5.6875576973 -39.2658805847 30.6882839203
-5.6870203018 -39.2499427795 30.4854679108
-5.6862735748 -39.2328147888 30.2823505402
-5.6861414909 -39.2191734314 30.0799846649
-5.6872911453 -39.2128257751 29.8792285919
-5.6900486946 -39.2156181335 29.6805152893
-5.6945891380 -39.2285499573 29.4840908051
-5.7012100220 -39.2533187866 29.2903594971
-5.7103052139 -39.2921562195 29.0998535156
-5.7219619751 -39.3455696106 28.9127140045
-5.7355570793 -39.4100112915 28.7281570435
-5.7498579025 -39.4784736633 28.5445938110
-5.7636184692 -39.5438652039 28.3603992462
-5.7760915756 -39.6019401550 28.1745834351
-5.7870469093 -39.6513786316 27.9868297577
-5.7965030670 -39.6922950745 27.7971458435
-5.8045406342 -39.7251434326 27.6056213379
-5.8112545013 -39.7504615784 27.4123649597
-5.8167376518 -39.7687759399 27.2174892426
-5.8210539818 -39.7804489136 27.0210628510
-5.8243150711 -39.7861213684 26.8232231140
-5.8268933296 -39.7879066467 26.6244621277
-5.8294506073 -39.7895736694 26.4256591797
-5.8325695992 -39.7944335938 26.2276039124
-5.8363981247 -39.8033294678 26.0305042267
-5.8407559395 -39.8152427673 25.8341236115
-5.8455100060 -39.8294105530 25.6382846832
-5.8507375717 -39.8462715149 25.4430980682
-5.8565192223 -39.8662910461 25.2486782074
-5.8625793457 -39.8878936768 25.0546550751
-5.8681426048 -39.9066696167 24.8599624634
-5.8723025322 -39.9174575806 24.6633415222
-5.8747043610 -39.9182319641 24.4642848969
-5.8759126663 -39.9122161865 24.2635593414
-5.8771047592 -39.9061050415 24.0627880096
-5.8794589043 -39.9066047668 23.8636188507
-5.8838329315 -39.9186096191 23.6672649384
-5.8908095360 -39.9454345703 23.4745693207
-5.9007835388 -39.9893341064 23.2861156464
-5.9139604568 -40.0514717102 23.1022281647
-5.9302425385 -40.1313018799 22.9228038788
-5.9489121437 -40.2247390747 22.7468605042
-5.9683313370 -40.3224487305 22.5720920563
-5.9863100052 -40.4119606018 22.3953838348
-6.0011401176 -40.4835472107 22.2142772675
-6.0122194290 -40.5337677002 22.0278701782
-6.0196466446 -40.5631866455 21.8362636566
-6.0235848427 -40.5727348328 21.6396541595
-6.0243668556 -40.5642967224 21.4384784698
-6.0230298042 -40.5437850952 21.2342090607
-6.0212821960 -40.5209312439 21.0293025970
-6.0206675529 -40.5045280457 20.8260021210
-6.0217833519 -40.4979858398 20.6251964569
-6.0243296623 -40.4995956421 20.4264602661
-6.0277752876 -40.5063247681 20.2290344238
-6.0318574905 -40.5166854858 20.0325412750
-6.0365905762 -40.5307540894 19.8370075226
-6.0420637131 -40.5490417480 19.6425743103
-6.0483455658 -40.5719375610 19.4493503571
-6.0554957390 -40.5997848511 19.2574348450
-6.0635042191 -40.6325302124 19.0668220520
-6.0721063614 -40.6686592102 18.8771247864
-6.0806756020 -40.7045974731 18.6874122620
-6.0884394646 -40.7359542847 18.4965267181
-6.0949211121 -40.7599945068 18.3037357330
-6.1002106667 -40.7772445679 18.1091651917
-6.1049017906 -40.7910842896 17.9136981964
-6.1098251343 -40.8062477112 17.7185878754
-6.1157259941 -40.8269844055 17.5249691010
-6.1229629517 -40.8553390503 17.3334026337
-6.1313872337 -40.8904724121 17.1436748505
-6.1405067444 -40.9295654297 16.9550437927
-6.1497287750 -40.9692497253 16.7666091919
-6.1584758759 -41.0062255859 16.5774803162
-6.1662693024 -41.0377655029 16.3869171143
-6.1729068756 -41.0627136230 16.1945934296
-6.1785707474 -41.0821075439 16.0007801056
-6.1837615967 -41.0988044739 15.8062419891
-6.1891598701 -41.1166877747 15.6120367050
-6.1954569817 -41.1396980286 15.4192457199
-6.2030906677 -41.1703376770 15.2285633087
-6.2120366096 -41.2084617615 15.0399684906
-6.2219038010 -41.2518424988 14.8528585434
-6.2322144508 -41.2977600098 14.6664924622
-6.2425127029 -41.3436126709 14.4801549911
-6.2523388863 -41.3867683411 14.2931146622
-6.2613997459 -41.4255599976 14.1049032211
-6.2698216438 -41.4607124329 13.9157123566
-6.2780303955 -41.4946479797 13.7262144089
-6.2863402367 -41.5291595459 13.5369091034
-6.2947859764 -41.5644531250 13.3478536606
-6.3032903671 -41.6000823975 13.1589269638
-6.3117389679 -41.6353950500 12.9699430466
-6.3198695183 -41.6688957214 12.7804775238
-6.3273220062 -41.6985244751 12.5899477005
-6.3339257240 -41.7233123779 12.3980646133
-6.3398661613 -41.7443161011 12.2051239014
-6.3455848694 -41.7640495300 12.0118350983
-6.3515844345 -41.7853927612 11.8190183640
-6.3582653999 -41.8106231689 11.6273307800
-6.3657279015 -41.8403205872 11.4369468689
-6.3737010956 -41.8729362488 11.2474288940
-6.3818278313 -41.9064254761 11.0581932068
-6.3901276588 -41.9409103394 10.8692741394
-6.3990907669 -41.9791831970 10.6814861298
-6.4092378616 -42.0242195129 10.4957008362
-6.4206557274 -42.0765151978 10.3120756149
-6.4329543114 -42.1338500977 10.1299753189
-6.4455533028 -42.1929016113 9.9484395981
-6.4579596519 -42.2508544922 9.7666444778
-6.4699277878 -42.3063087463 9.5841779709
-6.4814682007 -42.3593254089 9.4010524750
-6.4926233292 -42.4101448059 9.2173328400
-6.5031557083 -42.4574089050 9.0326137543
-6.5125346184 -42.4980850220 8.8459911346
-6.5203781128 -42.5299949646 8.6568012238
-6.5269598961 -42.5546951294 8.4654932022
-6.5331754684 -42.5773048401 8.2735815048
-6.5399289131 -42.6029891968 8.0826034546
-6.5476098061 -42.6339721680 7.8932352066
-6.5561523438 -42.6698837280 7.7053742409
-6.5653948784 -42.7097969055 7.5187520981
-6.5752906799 -42.7534484863 7.3332953453
-6.5859212875 -42.8012962341 7.1491522789
-6.5974130630 -42.8540763855 6.9665508270
-6.6097946167 -42.9119415283 6.7855505943
-6.6228971481 -42.9739303589 6.6058678627
-6.6363749504 -43.0380744934 6.4269084930
-6.6498112679 -43.1019821167 6.2479481697
-6.6628365517 -43.1635475159 6.0683388710
-6.6751356125 -43.2209625244 5.8875236511
-6.6862878799 -43.2718238831 5.7047543526
-6.6957182884 -43.3128471375 5.5190057755
-6.7030086517 -43.3416366577 5.3295173645
-6.7082643509 -43.3587913513 5.1364531517
-6.7120842934 -43.3677368164 4.9408516884
-6.7151741982 -43.3725090027 4.7439508438
-6.7180247307 -43.3759117126 4.5466170311
-6.7208671570 -43.3792686462 4.3492598534
-6.7237877846 -43.3830680847 4.1520323753
-6.7268338203 -43.3875846863 3.9550218582
-6.7300410271 -43.3930282593 3.7582938671
-6.7334146500 -43.3994178772 3.5618586540
-6.7369389534 -43.4066696167 3.3656902313
-6.7406392097 -43.4149322510 3.1698365211
-6.7446522713 -43.4249801636 2.9745466709
-6.7492294312 -43.4382553101 2.7802803516
-6.7546563148 -43.4563903809 2.5875644684
-6.7611155510 -43.4804382324 2.3967413902
-6.7685384750 -43.5099983215 2.2076973915
-6.7765741348 -43.5430641174 2.0198004246
-6.7848186493 -43.5773315430 1.8323177099
-6.7931709290 -43.6122093201 1.6450639963
-6.8018598557 -43.6490249634 1.4584648609
-6.8110251427 -43.6885643005 1.2727793455
-6.8203377724 -43.7289505005 1.0874060392
-6.8291707039 -43.7665939331 0.9011835456
-6.8371939659 -43.7996063232 0.7134941816
-6.8448781967 -43.8306770325 0.5252040625
-6.8534722328 -43.8669586182 0.3386379778
-6.8644347191 -43.9168014526 0.1565334499
-16.0687294006 -34.0117187500 80.5597000122
-16.0621852875 -33.9947586060 80.3613967896
-16.0499973297 -33.9672164917 80.1623153687
-16.0367450714 -33.9376831055 79.9630508423
-16.0276222229 -33.9158859253 79.7642745972
-16.0263023376 -33.9087181091 79.5665054321
-16.0335407257 -33.9175987244 79.3698730469
-16.0471553802 -33.9384269714 79.1741104126
-16.0631427765 -33.9637107849 78.9786911011
-16.0774536133 -33.9858474731 78.7830657959
-16.0875797272 -34.0001411438 78.5868682861
-16.0930461884 -34.0056953430 78.3900146484
-16.0947170258 -34.0041351318 78.1926193237
-16.0938644409 -33.9978408813 77.9948425293
-16.0916671753 -33.9890251160 77.7968444824
-16.0891227722 -33.9795570374 77.5987701416
-16.0870094299 -33.9709014893 77.4007415771
-16.0858383179 -33.9640083313 77.2028274536
-16.0858116150 -33.9592590332 77.0050659180
-16.0868644714 -33.9565391541 76.8074493408
-16.0888004303 -33.9554710388 76.6099472046
-16.0914745331 -33.9557876587 76.4125518799
-16.0949897766 -33.9576797485 76.2152786255
-16.0997829437 -33.9619712830 76.0181884766
-16.1065235138 -33.9699134827 75.8214111328
-16.1156883240 -33.9824028015 75.6250228882
-16.1268253326 -33.9985923767 75.4289550781
-16.1381225586 -34.0150756836 75.2329254150
-16.1469135284 -34.0268669128 75.0364913940
-16.1510066986 -34.0298423767 74.8392868042
-16.1497840881 -34.0228500366 74.6411895752
-16.1444702148 -34.0081825256 74.4423751831
-16.1375427246 -33.9904861450 74.2432556152
-16.1315898895 -33.9746170044 74.0442657471
-16.1281814575 -33.9635200500 73.8456802368
-16.1275062561 -33.9575538635 73.6475372314
-16.1288909912 -33.9554481506 73.4497375488
-16.1315231323 -33.9556808472 73.2521438599
-16.1348304749 -33.9571838379 73.0546646118
-16.1384658813 -33.9592933655 72.8572235107
-16.1420783997 -33.9613685608 72.6597747803
-16.1451148987 -33.9623565674 72.4622116089
-16.1468143463 -33.9608383179 72.2643966675
-16.1467113495 -33.9559402466 72.0662307739
-16.1454334259 -33.9488372803 71.8678283691
-16.1449184418 -33.9431610107 71.6695404053
-16.1473464966 -33.9430122375 71.4717941284
-16.1537170410 -33.9502563477 71.2747802734
-16.1636409760 -33.9641647339 71.0784530640
-16.1762943268 -33.9832000732 70.8826522827
-16.1909275055 -34.0059471130 70.6872482300
-16.2065029144 -34.0304565430 70.4920501709
-16.2216091156 -34.0540962219 70.2967834473
-16.2350883484 -34.0746765137 70.1012191772
-16.2464962006 -34.0913772583 69.9052581787
-16.2558860779 -34.1042861938 69.7089004517
-16.2633800507 -34.1136398315 69.5121688843
-16.2690639496 -34.1195945740 69.3150711060
-16.2731380463 -34.1225318909 69.1176376343
-16.2760658264 -34.1233177185 68.9199600220
-16.2784557343 -34.1230888367 68.7221679688
-16.2806854248 -34.1225624084 68.5243225098
-16.2825565338 -34.1213684082 68.3263854980
-16.2835636139 -34.1185455322 68.1282577515
-16.2837276459 -34.1141395569 67.9299392700
-16.2840652466 -34.1100616455 67.7316284180
-16.2860584259 -34.1090927124 67.5336685181
-16.2908287048 -34.1133308411 67.3362884521
-16.2988834381 -34.1237373352 67.1396179199
-16.3101978302 -34.1402587891 66.9436645508
-16.3240051270 -34.1614608765 66.7482757568
-16.3386096954 -34.1841583252 66.5530853271
-16.3519229889 -34.2044334412 66.3576202393
-16.3624916077 -34.2195549011 66.1615600586
-16.3700561523 -34.2290420532 65.9648284912
-16.3752727509 -34.2341232300 65.7675628662
-16.3791427612 -34.2366714478 65.5699844360
-16.3826866150 -34.2386093140 65.3723297119
-16.3869152069 -34.2418327332 65.1748123169
-16.3928127289 -34.2481918335 64.9776840210
-16.4010734558 -34.2589797974 64.7811050415
-16.4115200043 -34.2738761902 64.5850448608
-16.4228382111 -34.2904090881 64.3891983032
-16.4331874847 -34.3051185608 64.1931304932
-16.4413337708 -34.3157005310 63.9965438843
-16.4472007751 -34.3219947815 63.7994117737
-16.4514389038 -34.3252372742 63.6018867493
-16.4547405243 -34.3267173767 63.4041213989
-16.4574890137 -34.3271636963 63.2062110901
-16.4597969055 -34.3267784119 63.0081825256
-16.4616451263 -34.3255310059 62.8100280762
-16.4629936218 -34.3233451843 62.6117362976
-16.4638767242 -34.3202857971 62.4133110046
-16.4644584656 -34.3166618347 62.2147941589
-16.4650268555 -34.3130111694 62.0162582397
-16.4659347534 -34.3099937439 61.8177871704
-16.4674797058 -34.3081741333 61.6194648743
-16.4698143005 -34.3078422546 61.4213294983
-16.4729309082 -34.3089714050 61.2233848572
-16.4767093658 -34.3113479614 61.0256004333
-16.4810943604 -34.3148574829 60.8279647827
-16.4862747192 -34.3198661804 60.6305351257
-16.4928817749 -34.3275489807 60.4334716797
-16.5020408630 -34.3400306702 60.2370834351
-16.5150279999 -34.3596954346 60.0417213440
-16.5322036743 -34.3872261047 59.8474960327
-16.5517711639 -34.4192543030 59.6539382935
-16.5697059631 -34.4482154846 59.4599761963
-16.5813674927 -34.4653930664 59.2643394470
-16.5837287903 -34.4651069641 59.0661735535
-16.5767707825 -34.4473152161 58.8654441833
-16.5635566711 -34.4177742004 58.6629486084
-16.5489063263 -34.3855323792 58.4600028992
-16.5370025635 -34.3584518433 58.2577629089
-16.5293674469 -34.3393859863 58.0566673279
-16.5246105194 -34.3257255554 57.8563385010
-16.5197620392 -34.3118934631 57.6559562683
-16.5119972229 -34.2925796509 57.4547119141
-16.5001850128 -34.2656631470 57.2522735596
-16.4857559204 -34.2338294983 57.0490341187
-16.4720954895 -34.2034416199 56.8459625244
-16.4625453949 -34.1807708740 56.6440200806
-16.4588050842 -34.1690101624 56.4437217712
-16.4610977173 -34.1685867310 56.2451515198
-16.4692783356 -34.1792221069 56.0482978821
-16.4833717346 -34.2009658813 55.8531837463
-16.5034866333 -34.2340202332 55.6598701477
-16.5296154022 -34.2783775330 55.4683837891
-16.5608482361 -34.3323211670 55.2784652710
-16.5940113068 -34.3898963928 55.0891952515
-16.6238651276 -34.4412536621 54.8989944458
-16.6458930969 -34.4779090881 54.7064933777
-16.6592330933 -34.4982414246 54.5113906860
-16.6665935516 -34.5073394775 54.3144760132
-16.6715965271 -34.5120086670 54.1168441772
-16.6766090393 -34.5166969299 53.9192085266
-16.6826648712 -34.5233459473 53.7218933105
-16.6900444031 -34.5324821472 53.5249824524
-16.6981449127 -34.5429725647 53.3283004761
-16.7053375244 -34.5517539978 53.1313323975
-16.7097473145 -34.5553092957 52.9334907532
-16.7102756500 -34.5515708923 52.7344169617
-16.7070178986 -34.5407142639 52.5341262817
-16.7013626099 -34.5253562927 52.3330421448
-16.6960868835 -34.5107078552 52.1320457458
-16.6947689056 -34.5034942627 51.9322853088
-16.6999912262 -34.5085716248 51.7346153259
-16.7114887238 -34.5254478455 51.5389747620
-16.7260971069 -34.5481643677 51.3443565369
-16.7395572662 -34.5687255859 51.1493835449
-16.7483272552 -34.5804748535 50.9528884888
-16.7502536774 -34.5793571472 50.7541427612
-16.7447204590 -34.5642242432 50.5529174805
-16.7329139709 -34.5372962952 50.3495750427
-16.7177696228 -34.5040969849 50.1450691223
-16.7029895782 -34.4715766907 49.9406280518
-16.6915855408 -34.4454040527 49.7372589111
-16.6850433350 -34.4283676147 49.5354804993
-16.6835536957 -34.4208259583 49.3353805542
-16.6867122650 -34.4220237732 49.1368370056
-16.6940727234 -34.4311180115 48.9397201538
-16.7053775787 -34.4476242065 48.7439537048
-16.7207393646 -34.4717597961 48.5495948792
-16.7407779694 -34.5046882629 48.3568763733
-16.7663784027 -34.5480690002 48.1661224365
-16.7979106903 -34.6026077271 47.9774856567
-16.8343372345 -34.6663436890 47.7906265259
-16.8726844788 -34.7336959839 47.6045188904
-16.9084033966 -34.7961082458 47.4175720215
-16.9368667603 -34.8448791504 47.2281341553
-16.9551029205 -34.8744277954 47.0351219177
-16.9620399475 -34.8827323914 46.8381156921
-16.9575119019 -34.8694801331 46.6370086670
-16.9423675537 -34.8362693787 46.4320564270
-16.9202709198 -34.7899856567 46.2245368958
-16.8984394073 -34.7441940308 46.0170364380
-16.8850650787 -34.7143058777 45.8125267029
-16.8852329254 -34.7098808289 45.6128997803
-16.8991336823 -34.7312736511 45.4182777405
-16.9233341217 -34.7720375061 45.2274589539
-16.9527454376 -34.8225975037 45.0386047363
-16.9818744659 -34.8726272583 44.8497047424
-17.0063152313 -34.9138450623 44.6591262817
-17.0245532990 -34.9434013367 44.4662857056
-17.0383758545 -34.9646530151 44.2718200684
-17.0510768890 -34.9837951660 44.0769538879
-17.0649585724 -35.0051612854 43.8825492859
-17.0800437927 -35.0287895203 43.6886177063
-17.0946369171 -35.0514907837 43.4945182800
-17.1068038940 -35.0696296692 43.2995185852
-17.1152572632 -35.0807876587 43.1031112671
-17.1192035675 -35.0834693909 42.9049835205
-17.1180210114 -35.0765037537 42.7048683167
-17.1116180420 -35.0597152710 42.5027198792
-17.1011676788 -35.0353202820 42.2989654541
-17.0895023346 -35.0086326599 42.0946884155
-17.0807914734 -34.9875030518 41.8915176392
-17.0793647766 -34.9800758362 41.6911544800
-17.0880584717 -34.9916801453 41.4947433472
-17.1075515747 -35.0236015320 41.3025970459
-17.1368541718 -35.0739707947 41.1143646240
-17.1731185913 -35.1374435425 40.9289550781
-17.2108955383 -35.2037582397 40.7442283630
-17.2436122894 -35.2605590820 40.5575637817
-17.2672061920 -35.3002014160 40.3673057556
-17.2820453644 -35.3233718872 40.1735725403
-17.2913093567 -35.3360557556 39.9776115417
-17.2982978821 -35.3444595337 39.7807312012
-17.3051681519 -35.3526420593 39.5838050842
-17.3130607605 -35.3627433777 39.3872947693
-17.3226032257 -35.3759536743 39.1914596558
-17.3342132568 -35.3930549622 38.9964828491
-17.3480033875 -35.4142532349 38.8024177551
-17.3633594513 -35.4384002686 38.6090126038
-17.3787803650 -35.4626731873 38.4156608582
-17.3925914764 -35.4839134216 38.2216644287
-17.4040927887 -35.5008087158 38.0267181396
-17.4140262604 -35.5147552490 37.8311309814
-17.4238910675 -35.5285720825 37.6355209351
-17.4346427917 -35.5440559387 37.4402923584
-17.4456062317 -35.5599441528 37.2451629639
-17.4543991089 -35.5717430115 37.0491218567
-17.4583644867 -35.5744628906 36.8510360718
-17.4567298889 -35.5666389465 36.6505508423
-17.4514999390 -35.5520515442 36.4485015869
-17.4461994171 -35.5373306274 36.2463874817
-17.4437961578 -35.5280609131 36.0454902649
-17.4457550049 -35.5270004272 35.8464508057
-17.4524765015 -35.5349006653 35.6494636536
-17.4638805389 -35.5516128540 35.4545135498
-17.4791946411 -35.5756912231 35.2612800598
-17.4965343475 -35.6035728455 35.0689582825
-17.5132656097 -35.6303138733 34.8763923645
-17.5271701813 -35.6517372131 34.6826133728
-17.5373706818 -35.6661872864 34.4872131348
-17.5443649292 -35.6746025085 34.2904014587
-17.5494785309 -35.6794815063 34.0927543640
-17.5541458130 -35.6835174561 33.8949050903
-17.5592784882 -35.6884269714 33.6972541809
-17.5649070740 -35.6942710876 33.4998207092
-17.5701999664 -35.6994857788 33.3022346497
-17.5737800598 -35.7014732361 33.1038703918
-17.5742626190 -35.6976318359 32.9040908813
-17.5709915161 -35.6867256165 32.7025947571
-17.5647087097 -35.6701469421 32.4996986389
-17.5575771332 -35.6519699097 32.2963752747
-17.5522918701 -35.6372718811 32.0938606262
-17.5509891510 -35.6300621033 31.8931427002
-17.5548954010 -35.6326637268 31.6948013306
-17.5646514893 -35.6462783813 31.4991569519
-17.5804672241 -35.6712989807 31.3063278198
-17.6020355225 -35.7071495056 31.1161956787
-17.6286048889 -35.7524185181 30.9284343719
-17.6590099335 -35.8049087524 30.7425212860
-17.6913394928 -35.8610267639 30.5575733185
-17.7230148315 -35.9159126282 30.3723869324
-17.7517127991 -35.9651908875 30.1858634949
-17.7760639191 -36.0062904358 29.9973411560
-17.7953491211 -36.0378532410 29.8064651489
-17.8092002869 -36.0591812134 29.6130371094
-17.8181571960 -36.0712966919 29.4172916412
-17.8241939545 -36.0779113770 29.2201538086
-17.8300342560 -36.0841598511 29.0229206085
-17.8376750946 -36.0937957764 28.8265476227
-17.8477401733 -36.1079978943 28.6313495636
-17.8602352142 -36.1267776489 28.4373340607
-17.8753414154 -36.1504707336 28.2446002960
-17.8930301666 -36.1790313721 28.0531463623
-17.9121971130 -36.2103767395 27.8624420166
-17.9307079315 -36.2404823303 27.6714496613
-17.9464664459 -36.2654075623 27.4791393280
-17.9583530426 -36.2830429077 27.2849464417
-17.9663906097 -36.2934303284 27.0888671875
-17.9715614319 -36.2984161377 26.8913726807
-17.9757423401 -36.3015403748 26.6933822632
-17.9815330505 -36.3076934814 26.4961833954
-17.9915790558 -36.3218650818 26.3011054993
-18.0075740814 -36.3472366333 26.1090126038
-18.0296974182 -36.3841552734 25.9200172424
-18.0569362640 -36.4307098389 25.7336368561
-18.0877227783 -36.4839477539 25.5491008759
-18.1200637817 -36.5401115417 25.3654155731
-18.1513576508 -36.5943107605 25.1812686920
-18.1787033081 -36.6410713196 24.9951801300
-18.1998748779 -36.6762008667 24.8059997559
-18.2142276764 -36.6984901428 24.6133728027
-18.2226676941 -36.7096405029 24.4177341461
-18.2267837524 -36.7126426697 24.2198772430
-18.2279891968 -36.7101669312 24.0205135345
-18.2271842957 -36.7038993835 23.8200950623
-18.2247524261 -36.6945648193 23.6188125610
-18.2205600739 -36.6819190979 23.4165897369
-18.2139282227 -36.6646728516 23.2130641937
-18.2040424347 -36.6412925720 23.0078029633
-18.1911392212 -36.6122322083 22.8009166718
-18.1777610779 -36.5822715759 22.5937271118
-18.1686115265 -36.5602760315 22.3887062073
-18.1684188843 -36.5551567078 22.1883659363
-18.1793708801 -36.5710372925 21.9939041138
-18.2004852295 -36.6060638428 21.8048400879
-18.2294025421 -36.6557960510 21.6199626923
-18.2644309998 -36.7170410156 21.4384040833
-18.3044185638 -36.7876358032 21.2595729828
-18.3472194672 -36.8635330200 21.0823383331
-18.3893718719 -36.9382133484 20.9048538208
-18.4276180267 -37.0055313110 20.7253627777
-18.4604244232 -37.0626029968 20.5430183411
-18.4880847931 -37.1099777222 20.3579597473
-18.5115566254 -37.1494598389 20.1706848145
-18.5311584473 -37.1816482544 19.9813499451
-18.5462703705 -37.2053794861 19.7896003723
-18.5560569763 -37.2190742493 19.5949611664
-18.5601615906 -37.2220573425 19.3972148895
-18.5589199066 -37.2149658203 19.1965236664
-18.5536270142 -37.2002410889 18.9935798645
-18.5467548370 -37.1825370789 18.7897262573
-18.5413455963 -37.1675910950 18.5866470337
-18.5397300720 -37.1597900391 18.3856391907
-18.5428161621 -37.1608543396 18.1872234344
-18.5504665375 -37.1705207825 17.9913425446
-18.5620269775 -37.1875572205 17.7976493835
-18.5762138367 -37.2095451355 17.6054382324
-18.5909423828 -37.2325553894 17.4135551453
-18.6040668488 -37.2525405884 17.2207870483
-18.6145992279 -37.2676391602 17.0265731812
-18.6230888367 -37.2788887024 16.8312110901
-18.6308422089 -37.2887496948 16.6354389191
-18.6389503479 -37.2992820740 16.4398670197
-18.6479148865 -37.3114242554 16.2447891235
-18.6578502655 -37.3254013062 16.0502700806
-18.6689052582 -37.3414878845 15.8564004898
-18.6817207336 -37.3608932495 15.6635522842
-18.6976833344 -37.3862304688 15.4725313187
-18.7184486389 -37.4206237793 15.2843055725
-18.7446079254 -37.4651908875 15.0992383957
-18.7744579315 -37.5167160034 14.9163618088
-18.8043727875 -37.5683631897 14.7335853577
-18.8309478760 -37.6137161255 14.5489273071
-18.8531398773 -37.6508064270 14.3617630005
-18.8726806641 -37.6828956604 14.1730899811
-18.8926372528 -37.7157707214 13.9846954346
-18.9151992798 -37.7535629272 13.7978687286
-18.9401264191 -37.7958106995 13.6124763489
-18.9649734497 -37.8379135132 13.4270877838
-18.9869709015 -37.8746414185 13.2400608063
-19.0048542023 -37.9036178589 13.0506343842
-19.0192584991 -37.9260253906 12.8591670990
-19.0319595337 -37.9452285767 12.6667060852
-19.0450248718 -37.9651145935 12.4744787216
-19.0600490570 -37.9886970520 12.2834396362
-19.0773372650 -38.0165481567 12.0937824249
-19.0955390930 -38.0461235046 11.9047031403
-19.1123657227 -38.0731086731 11.7148256302
-19.1259326935 -38.0939445496 11.5230045319
-19.1355743408 -38.1073799133 11.3288249969
-19.1417980194 -38.1143646240 11.1325759888
-19.1459465027 -38.1174392700 10.9350633621
-19.1500434875 -38.1204147339 10.7375116348
-19.1566066742 -38.1280403137 10.5414581299
-19.1680469513 -38.1448707581 10.3483924866
-19.1856689453 -38.1733551025 10.1591339111
-19.2089004517 -38.2124252319 9.9733562469
-19.2354431152 -38.2577400208 9.7896661758
-19.2620964050 -38.3032646179 9.6060972214
-19.2857437134 -38.3431167603 9.4207201004
-19.3043918610 -38.3735427856 9.2322854996
-19.3181400299 -38.3947296143 9.0408344269
-19.3293762207 -38.4111785889 8.8478355408
-19.3419227600 -38.4300918579 8.6556663513
-19.3595695496 -38.4586334229 8.4667081833
-19.3845386505 -38.5009918213 8.2823753357
-19.4164791107 -38.5564956665 8.1024770737
-19.4528980255 -38.6204528809 7.9254717827
-19.4908294678 -38.6872673035 7.7495031357
-19.5279579163 -38.7525672913 7.5731115341
-19.5621223450 -38.8122787476 7.3949217796
-19.5905818939 -38.8612251282 7.2131781578
-19.6107120514 -38.8944625854 7.0261855125
-19.6216678619 -38.9103889465 6.8333683014
-19.6253147125 -38.9125251770 6.6358838081
-19.6256198883 -38.9083518982 6.4362463951
-19.6267318726 -38.9057044983 6.2371096611
-19.6308116913 -38.9086570740 6.0398678780
-19.6371574402 -38.9158859253 5.8440814018
-19.6433067322 -38.9227371216 5.6481657028
-19.6470012665 -38.9249610901 5.4506559372
-19.6475048065 -38.9211616516 5.2510643005
-19.6459732056 -38.9135246277 5.0501294136
-19.6452865601 -38.9074821472 4.8497233391
-19.6493263245 -38.9103546143 4.6523861885
-19.6615257263 -38.9286270142 4.4603872299
-19.6831569672 -38.9646987915 4.2745966911
-19.7122421265 -39.0148391724 4.0937519073
-19.7440433502 -39.0701065063 3.9147582054
-19.7733058929 -39.1205863953 3.7341563702
-19.7969264984 -39.1604194641 3.5498795509
-19.8150539398 -39.1898841858 3.3620040417
-19.8299961090 -39.2133407593 3.1720418930
-19.8441696167 -39.2353439331 2.9815883636
-19.8586502075 -39.2579269409 2.7913594246
-19.8728141785 -39.2799148560 2.6009402275
-19.8848266602 -39.2978401184 2.4090979099
-19.8928833008 -39.3083000183 2.2146112919
-19.8968181610 -39.3109817505 2.0173547268
-19.8988571167 -39.3100814819 1.8188090324
-19.9026756287 -39.3125419617 1.6214530468
-19.9115905762 -39.3246192932 1.4275406599
-19.9272212982 -39.3493766785 1.2381911278
-19.9492530823 -39.3862190247 1.0532208681
-19.9760704041 -39.4320945740 0.8715516925
-20.0054874420 -39.4828834534 0.6917149425
-20.0352706909 -39.5343589783 0.5121887326
-20.0636196136 -39.5831336975 0.3317430317
-20.0897045135 -39.6276321411 0.1498011798
-25.9160480499 -27.5036354065 80.7671966553
-25.9193267822 -27.5037307739 80.5702514648
-25.9243888855 -27.5055427551 80.3734436035
-25.9295654297 -27.5074653625 80.1766433716
-25.9326896667 -27.5074119568 79.9796524048
-25.9331169128 -27.5047588348 79.7824249268
-25.9326992035 -27.5012931824 79.5850982666
-25.9346103668 -27.5000705719 79.3879699707
-25.9412212372 -27.5033740997 79.1912384033
-25.9531784058 -27.5118255615 78.9949951172
-25.9702186584 -27.5251750946 78.7992095947
-25.9919624329 -27.5430545807 78.6038742065
-26.0170135498 -27.5641212463 78.4088668823
-26.0416145325 -27.5847530365 78.2138442993
-26.0606384277 -27.6000137329 78.0183181763
-26.0707378387 -27.6066780090 77.8219680786
-26.0723514557 -27.6051692963 77.6247940063
-26.0685672760 -27.5984573364 77.4270858765
-26.0627269745 -27.5897674561 77.2291488647
-26.0571537018 -27.5813331604 77.0312194824
-26.0530548096 -27.5743179321 76.8334045410
-26.0507354736 -27.5690193176 76.6357498169
-26.0498714447 -27.5651206970 76.4382171631
-26.0498714447 -27.5620555878 76.2407608032
-26.0501232147 -27.5592288971 76.0433120728
-26.0500297546 -27.5560741425 75.8458099365
-26.0490417480 -27.5520534515 75.6482009888
-26.0466537476 -27.5466861725 75.4504241943
-26.0423374176 -27.5394592285 75.2524261475
-26.0355377197 -27.5298404694 75.0541305542
-26.0261402130 -27.5177192688 74.8555297852
-26.0154094696 -27.5043087006 74.6567459106
-26.0064010620 -27.4925594330 74.4581222534
-26.0029907227 -27.4862060547 74.2600860596
-26.0081157684 -27.4880752563 74.0629806519
-26.0225811005 -27.4989414215 73.8669204712
-26.0448246002 -27.5173053741 73.6717605591
-26.0712871552 -27.5397338867 73.4770965576
-26.0970821381 -27.5615196228 73.2823944092
-26.1166553497 -27.5773105621 73.0869903564
-26.1246070862 -27.5819034576 72.8902435303
-26.1176261902 -27.5721054077 72.6917343140
-26.0969638824 -27.5491237640 72.4915771484
-26.0687675476 -27.5188827515 72.2904586792
-26.0410938263 -27.4891433716 72.0893402100
-26.0202198029 -27.4659538269 71.8889846802
-26.0092411041 -27.4523029327 71.6897888184
-26.0088157654 -27.4488182068 71.4918518066
-26.0179481506 -27.4545478821 71.2950820923
-26.0339546204 -27.4668998718 71.0991744995
-26.0525112152 -27.4817085266 70.9036026001
-26.0690021515 -27.4945297241 70.7077789307
-26.0806331635 -27.5026664734 70.5113525391
-26.0876369476 -27.5063438416 70.3143386841
-26.0927200317 -27.5081691742 70.1170654297
-26.0992736816 -27.5114116669 69.9199829102
-26.1096019745 -27.5182933807 69.7233810425
-26.1243400574 -27.5294227600 69.5273666382
-26.1430034637 -27.5443382263 69.3318862915
-26.1642494202 -27.5617427826 69.1367645264
-26.1856498718 -27.5792961121 68.9416885376
-26.2045574188 -27.5944480896 68.7462921143
-26.2200775146 -27.6063327789 68.5504531860
-26.2336292267 -27.6163215637 68.3543548584
-26.2471446991 -27.6262741089 68.1582565308
-26.2614154816 -27.6369590759 67.9622726440
-26.2766380310 -27.6485576630 67.7664260864
-26.2934970856 -27.6617355347 67.5708236694
-26.3126144409 -27.6770896912 67.3755569458
-26.3330955505 -27.6937599182 67.1804962158
-26.3524913788 -27.7093830109 66.9852981567
-26.3683052063 -27.7215538025 66.7896041870
-26.3792228699 -27.7290039063 66.5932159424
-26.3851337433 -27.7316284180 66.3960952759
-26.3867588043 -27.7301197052 66.1983413696
-26.3854961395 -27.7258281708 66.0001449585
-26.3833675385 -27.7206993103 65.8018035889
-26.3827495575 -27.7170295715 65.6036682129
-26.3859443665 -27.7170333862 65.4060897827
-26.3944740295 -27.7221813202 65.2093048096
-26.4080982208 -27.7322406769 65.0132980347
-26.4243659973 -27.7448501587 64.8176956177
-26.4396858215 -27.7565460205 64.6219635010
-26.4511108398 -27.7644863129 64.4256362915
-26.4569129944 -27.7670021057 64.2284393311
-26.4553680420 -27.7624378204 64.0300903320
-26.4436435699 -27.7480545044 63.8301239014
-26.4193077087 -27.7215118408 63.6281242371
-26.3845291138 -27.6848983765 63.4244041443
-26.3489761353 -27.6475372314 63.2204856873
-26.3268299103 -27.6231021881 63.0186424255
-26.3286342621 -27.6217613220 62.8206138611
-26.3541870117 -27.6433238983 62.6264305115
-26.3922176361 -27.6769180298 62.4343147278
-26.4270992279 -27.7074756622 62.2417297363
-26.4474124908 -27.7239856720 62.0467872620
-26.4503211975 -27.7237129211 61.8489723206
-26.4402542114 -27.7109241486 61.6489830017
-26.4245300293 -27.6926803589 61.4480133057
-26.4090404510 -27.6746597290 61.2470359802
-26.3961181641 -27.6591167450 61.0464515686
-26.3853092194 -27.6456108093 60.8461875916
-26.3755931854 -27.6331577301 60.6460762024
-26.3669662476 -27.6217556000 60.4461212158
-26.3606338501 -27.6125659943 60.2465286255
-26.3582935333 -27.6072254181 60.0476036072
-26.3615131378 -27.6072483063 59.8496284485
-26.3717994690 -27.6140861511 59.6528854370
-26.3904457092 -27.6289882660 59.4576187134
-26.4170989990 -27.6516132355 59.2637863159
-26.4478702545 -27.6782093048 59.0707206726
-26.4756221771 -27.7018947601 58.8771476746
-26.4934768677 -27.7160358429 58.6818313599
-26.4989299774 -27.7182121277 58.4842834473
-26.4948978424 -27.7112388611 58.2850074768
-26.4870758057 -27.7006111145 58.0850143433
-26.4804191589 -27.6911048889 57.8852081299
-26.4774456024 -27.6851520538 57.6860504150
-26.4785728455 -27.6831550598 57.4876289368
-26.4830608368 -27.6844005585 57.2898216248
-26.4897136688 -27.6877326965 57.0924110413
-26.4973888397 -27.6920528412 56.8951835632
-26.5055980682 -27.6968860626 56.6980590820
-26.5150756836 -27.7029438019 56.5011711121
-26.5279655457 -27.7122955322 56.3049316406
-26.5470180511 -27.7275905609 56.1098785400
