-28.9176692963 -38.5575637817 72.9016799927
-28.9657440186 -38.6257095337 72.7142105103
-29.0293693542 -38.7150650024 72.5287399292
-29.1052379608 -38.8211288452 72.3448944092
-29.1890544891 -38.9380302429 72.1621780396
-29.2758750916 -39.0590286255 71.9800109863
-29.3605155945 -39.1770515442 71.7977371216
-29.4379386902 -39.2852210999 71.6147003174
-29.5040569305 -39.3779716492 71.4303741455
-29.5568199158 -39.4524993896 71.2444381714
-29.5967464447 -39.5095138550 71.0569305420
-29.6264801025 -39.5526237488 70.8681564331
-29.6493282318 -39.5863380432 70.6785278320
-29.6668148041 -39.6127395630 70.4882202148
-29.6766738892 -39.6287307739 70.2969131470
-29.6733264923 -39.6267089844 70.1038360596
-29.6510734558 -39.5988998413 69.9081573486
-29.6075096130 -39.5420188904 69.7095031738
-29.5451030731 -39.4594383240 69.5081405640
-29.4710025787 -39.3609046936 69.3050079346
-29.3958072662 -39.2608833313 69.1015701294
-29.3314113617 -39.1755905151 68.8994979858
-29.2880687714 -39.1190223694 68.7002944946
-29.2718334198 -39.0994262695 68.5048828125
-29.2837085724 -39.1181755066 68.3134994507
-29.3208637238 -39.1714096069 68.1258163452
-29.3792133331 -39.2535476685 67.9413146973
-29.4554309845 -39.3600578308 67.7595596313
-29.5465583801 -39.4869003296 67.5801696777
-29.6478691101 -39.6276321411 67.4024810791
-29.7518463135 -39.7719993591 67.2253952026
-29.8495044708 -39.9077453613 67.0475540161
-29.9329719543 -40.0241317749 66.8677368164
-29.9978961945 -40.1152229309 66.6852264404
-30.0442771912 -40.1810264587 66.4999771118
-30.0748939514 -40.2253227234 66.3123550415
-30.0927944183 -40.2522811890 66.1227951050
-30.1000156403 -40.2646675110 65.9315795898
-30.0974636078 -40.2637290955 65.7388229370
-30.0851707458 -40.2495079041 65.5444946289
-30.0630664825 -40.2219047546 65.3485565186
-30.0322856903 -40.1824684143 65.1511611938
-29.9959754944 -40.1354904175 64.9527969360
-29.9587345123 -40.0872459412 64.7541961670
-29.9251689911 -40.0440139771 64.5561218262
-29.8986606598 -40.0104103088 64.3591461182
-29.8812274933 -39.9891815186 64.1636199951
-29.8744335175 -39.9824638367 63.9698410034
-29.8804340363 -39.9931907654 63.7782020569
-29.9020061493 -40.0251541138 63.5892181396
-29.9411697388 -40.0811042786 63.4032821655
-29.9972839355 -40.1601715088 63.2203292847
-30.0661945343 -40.2566833496 63.0397033691
-30.1412792206 -40.3616180420 62.8602828979
-30.2157821655 -40.4657516479 62.6809082031
-30.2849044800 -40.5625495911 62.5007286072
-30.3462886810 -40.6487922668 62.3193092346
-30.3987369537 -40.7228507996 62.1364212036
-30.4408016205 -40.7827491760 61.9517707825
-30.4709262848 -40.8263626099 61.7650489807
-30.4885940552 -40.8529930115 61.5761222839
-30.4946727753 -40.8638191223 61.3851127625
-30.4905185699 -40.8606948853 61.1922378540
-30.4768733978 -40.8446273804 60.9975929260
-30.4535751343 -40.8153991699 60.8011322021
-30.4204978943 -40.7728385925 60.6027908325
-30.3790435791 -40.7188568115 60.4028091431
-30.3328628540 -40.6584358215 60.2018432617
-30.2871685028 -40.5986747742 60.0008735657
-30.2473983765 -40.5469932556 59.8009262085
-30.2181720734 -40.5096893311 59.6029129028
-30.2026634216 -40.4910850525 59.4074707031
-30.2023677826 -40.4932250977 59.2149314880
-30.2175254822 -40.5164375305 59.0253906250
-30.2482147217 -40.5608177185 58.8389091492
-30.2952442169 -40.6274795532 58.6556930542
-30.3593463898 -40.7174148560 58.4759330750
-30.4387035370 -40.8281440735 58.2993278503
-30.5272941589 -40.9514617920 58.1247177124
-30.6160163879 -41.0749511719 57.9503097534
-30.6957817078 -41.1862335205 57.7742652893
-30.7606124878 -41.2771530151 57.5953559875
-30.8094673157 -41.3462905884 57.4133186340
-30.8458023071 -41.3983612061 57.2288131714
-30.8747501373 -41.4403572083 57.0428543091
-30.8997173309 -41.4769287109 56.8561286926
-30.9207649231 -41.5081558228 56.6686286926
-30.9353351593 -41.5305519104 56.4798164368
-30.9400558472 -41.5395240784 56.2889595032
-30.9324169159 -41.5316467285 56.0955047607
-30.9117832184 -41.5060539246 55.8992767334
-30.8796482086 -41.4647827148 55.7005500793
-30.8394203186 -41.4124870300 55.5000267029
-30.7964038849 -41.3563880920 55.2988128662
-30.7576522827 -41.3061027527 55.0984230042
-30.7305736542 -41.2717285156 54.9004821777
-30.7204093933 -41.2604141235 54.7061576843
-30.7283668518 -41.2737998962 54.5157775879
-30.7514057159 -41.3077430725 54.3287162781
-30.7837848663 -41.3544120789 54.1437606812
-30.8202533722 -41.4066581726 53.9597702026
-30.8591785431 -41.4622497559 53.7763977051
-30.9027366638 -41.5241584778 53.5941314697
-30.9539508820 -41.5964965820 53.4136695862
-31.0135841370 -41.6803092957 53.2352066040
-31.0791759491 -41.7722396851 53.0582122803
-31.1457328796 -41.8654861450 52.8815650940
-31.2069835663 -41.9514999390 52.7038307190
-31.2570095062 -42.0222129822 52.5236320496
-31.2921295166 -42.0726089478 52.3400840759
-31.3120098114 -42.1022377014 52.1530647278
-31.3188095093 -42.1140327454 51.9630317688
-31.3148517609 -42.1111755371 51.7704887390
-31.3010292053 -42.0948677063 51.5756111145
-31.2774791718 -42.0653038025 51.3784027100
-31.2455081940 -42.0242691040 51.1791419983
-31.2082252502 -41.9759941101 50.9785423279
-31.1689014435 -41.9249382019 50.7773742676
-31.1290321350 -41.8731384277 50.5759887695
-31.0886421204 -41.8206329346 50.3743858337
-31.0487785339 -41.7688484192 50.1728248596
-31.0132999420 -41.7230377197 49.9722404480
-30.9876651764 -41.6906433105 49.7739830017
-30.9760990143 -41.6774139404 49.5791168213
-30.9802417755 -41.6856002808 49.3880920410
-30.9997634888 -41.7147407532 49.2008666992
-31.0328598022 -41.7623748779 49.0170478821
-31.0761871338 -41.8239517212 48.8358421326
-31.1254482269 -41.8936119080 48.6562004089
-31.1764831543 -41.9656906128 48.4771003723
-31.2256679535 -42.0352439880 48.2976303101
-31.2699031830 -42.0980529785 48.1170005798
-31.3068962097 -42.1509933472 47.9346084595
-31.3351936340 -42.1920814514 47.7500648499
-31.3537368774 -42.2198829651 47.5630722046
-31.3617019653 -42.2332687378 47.3733825684
-31.3589057922 -42.2319946289 47.1809234619
-31.3463745117 -42.2174530029 46.9859237671
-31.3263702393 -42.1927337646 46.7889480591
-31.3015689850 -42.1614761353 46.5906677246
-31.2739219666 -42.1263427734 46.3915824890
-31.2444667816 -42.0887451172 46.1919555664
-31.2143955231 -42.0503120422 45.9921035767
-31.1860828400 -42.0142745972 45.7926483154
-31.1627159119 -41.9849739075 45.5944442749
-31.1470756531 -41.9662055969 45.3982582092
-31.1408176422 -41.9602165222 45.2045516968
-31.1445198059 -41.9677963257 45.0135154724
-31.1577777863 -41.9883956909 44.8250656128
-31.1795597076 -42.0206069946 44.6389503479
-31.2093486786 -42.0637283325 44.4550590515
-31.2481079102 -42.1190643311 44.2736778259
-31.2972087860 -42.1884956360 44.0952110291
-31.3558063507 -42.2708549500 43.9194564819
-31.4194679260 -42.3601150513 43.7452163696
-31.4816570282 -42.4473686218 43.5706901550
-31.5365238190 -42.5246429443 43.3942413330
-31.5805664063 -42.5871734619 43.2148666382
-31.6124153137 -42.6330909729 43.0321540833
-31.6317901611 -42.6620178223 42.8459777832
-31.6387977600 -42.6740951538 42.6563377380
-31.6338157654 -42.6698379517 42.4632987976
-31.6176910400 -42.6504058838 42.2670669556
-31.5917472839 -42.6175994873 42.0679855347
-31.5573215485 -42.5732421875 41.8664131165
-31.5156631470 -42.5190315247 41.6626777649
-31.4690551758 -42.4580764771 41.4574203491
-31.4220409393 -42.3965759277 41.2519416809
-31.3805408478 -42.3425865173 41.0479660034
-31.3492050171 -42.3024406433 40.8468704224
-31.3298530579 -42.2786178589 40.6492156982
-31.3223381042 -42.2709197998 40.4549980164
-31.3263626099 -42.2789382935 40.2641639709
-31.3422203064 -42.3030738831 40.0768394470
-31.3698024750 -42.3431777954 39.8930206299
-31.4067916870 -42.3960952759 39.7120628357
-31.4483242035 -42.4551963806 39.5325279236
-31.4893951416 -42.5136680603 39.3529357910
-31.5276794434 -42.5683479309 39.1725807190
-31.5632495880 -42.6193275452 38.9914779663
-31.5958976746 -42.6663246155 38.8095512390
-31.6239986420 -42.7071304321 38.6263008118
-31.6458625793 -42.7394409180 38.4411964417
-31.6606216431 -42.7620773315 38.2539520264
-31.6672878265 -42.7736892700 38.0642433167
-31.6639690399 -42.7717018127 37.8714637756
-31.6486816406 -42.7534179688 37.6749610901
-31.6204586029 -42.7175140381 37.4744071960
-31.5794315338 -42.6641807556 37.2698020935
-31.5266475677 -42.5948333740 37.0614280701
-31.4649314880 -42.5133285522 36.8501396179
-31.4003582001 -42.4279289246 36.6378173828
-31.3422584534 -42.3513488770 36.4274024963
-31.3004932404 -42.2970161438 36.2220344543
-31.2818222046 -42.2741279602 36.0239105225
-31.2881088257 -42.2852287292 35.8336944580
-31.3169040680 -42.3269805908 35.6506805420
-31.3631954193 -42.3925552368 35.4733276367
-31.4214820862 -42.4744606018 35.2999267578
-31.4870357513 -42.5662612915 35.1289787292
-31.5555095673 -42.6620368958 34.9591064453
-31.6218700409 -42.7549324036 34.7886810303
-31.6807804108 -42.8376808167 34.6159553528
-31.7285804749 -42.9053039551 34.4397125244
-31.7651386261 -42.9576148987 34.2598762512
-31.7937278748 -42.9990768433 34.0774841309
-31.8185844421 -43.0354537964 33.8939132690
-31.8414611816 -43.0691337585 33.7097282410
-31.8596000671 -43.0963668823 33.5240135193
-31.8670578003 -43.1090545654 33.3347740173
-31.8586349487 -43.1001205444 33.1402359009
-31.8333435059 -43.0682182312 32.9400253296
-31.7946147919 -43.0180244446 32.7352371216
-31.7473182678 -42.9561653137 32.5274772644
-31.6946163177 -42.8869514465 32.3177833557
-31.6376686096 -42.8119544983 32.1065406799
-31.5775451660 -42.7326354980 31.8940906525
-31.5165691376 -42.6521606445 31.6812210083
-31.4582786560 -42.5753402710 31.4691390991
-31.4070911407 -42.5081939697 31.2593688965
-31.3675155640 -42.4568595886 31.0534839630
-31.3425884247 -42.4254646301 30.8525695801
-31.3330726624 -42.4150505066 30.6569328308
-31.3383293152 -42.4247474670 30.4664001465
-31.3570919037 -42.4528312683 30.2805747986
-31.3866443634 -42.4956054688 30.0985507965
-31.4219760895 -42.5462417603 29.9186058044
-31.4572486877 -42.5968017578 29.7387065887
-31.4885635376 -42.6419677734 29.5574760437
-31.5144023895 -42.6796836853 29.3743667603
-31.5330944061 -42.7076683044 29.1887722015
-31.5410976410 -42.7210998535 28.9994087219
-31.5352363586 -42.7156639099 28.8051128387
-31.5163516998 -42.6924972534 28.6061401367
-31.4892444611 -42.6581382751 28.4041767120
-31.4585437775 -42.6188888550 28.2008571625
-31.4251327515 -42.5759544373 27.9964923859
-31.3866348267 -42.5260925293 27.7902126312
-31.3407249451 -42.4661445618 27.5811576843
-31.2877941132 -42.3966445923 27.3694515228
-31.2311897278 -42.3221435547 27.1562900543
-31.1762065887 -42.2498512268 26.9435977936
-31.1293907166 -42.1886749268 26.7337818146
-31.0976161957 -42.1479759216 26.5293941498
-31.0861968994 -42.1349792480 26.3324413300
-31.0970382690 -42.1522789001 26.1436882019
-31.1277580261 -42.1966400146 25.9623241425
-31.1715183258 -42.2587432861 25.7858638763
-31.2180747986 -42.3246536255 25.6105270386
-31.2572288513 -42.3804893494 25.4325122833
-31.2840270996 -42.4195060730 25.2499389648
-31.3017845154 -42.4462165833 25.0640144348
-31.3191547394 -42.4724006653 24.8779735565
-31.3431186676 -42.5075607300 24.6944541931
-31.3744277954 -42.5527153015 24.5137615204
-31.4085922241 -42.6017532349 24.3342094421
-31.4389686584 -42.6456336975 24.1532764435
-31.4583683014 -42.6745796204 23.9682064056
-31.4602718353 -42.6797142029 23.7764663696
-31.4412441254 -42.6563606262 23.5766849518
-31.4024219513 -42.6060752869 23.3692340851
-31.3480796814 -42.5346679688 23.1557025909
-31.2830410004 -42.4487075806 22.9379119873
-31.2114353180 -42.3538131714 22.7174339294
-31.1366024017 -42.2545280457 22.4955444336
-31.0613994598 -42.1547431946 22.2733516693
-30.9892463684 -42.0591087341 22.0521907806
-30.9252357483 -41.9745597839 21.8340702057
-30.8756046295 -41.9095726013 21.6214675903
-30.8455009460 -41.8711624146 21.4164562225
-30.8368186951 -41.8619041443 21.2198448181
-30.8475723267 -41.8790855408 21.0309143066
-30.8726139069 -41.9157142639 20.8476753235
-30.9053096771 -41.9627532959 20.6675300598
-30.9400024414 -42.0125122070 20.4882450104
-30.9738502502 -42.0611190796 20.3086833954
-31.0060424805 -42.1074676514 20.1285209656
-31.0353679657 -42.1499214172 19.9472637177
-31.0593547821 -42.1851081848 19.7639045715
-31.0756969452 -42.2098960876 19.5774955750
-31.0834369659 -42.2229766846 19.3876247406
-31.0823745728 -42.2240791321 19.1941814423
-31.0718135834 -42.2122612000 18.9968585968
-31.0502719879 -42.1855049133 18.7950191498
-31.0165596008 -42.1421890259 18.5881443024
-30.9715423584 -42.0834960938 18.3765487671
-30.9189720154 -42.0145263672 18.1617431641
-30.8644371033 -41.9428863525 17.9460144043
-30.8137187958 -41.8764419556 17.7317466736
-30.7721824646 -41.8224868774 17.5211753845
-30.7446231842 -41.7875480652 17.3163242340
-30.7344951630 -41.7763252258 17.1186752319
-30.7429237366 -41.7903480530 16.9287548065
-30.7683582306 -41.8275070190 16.7459697723
-30.8070526123 -41.8827018738 16.5687961578
-30.8541946411 -41.9493865967 16.3952522278
-30.9048881531 -42.0209045410 16.2232971191
-30.9544544220 -42.0908851624 16.0509605408
-30.9991455078 -42.1542320251 15.8766527176
-31.0376281738 -42.2091369629 15.6997900009
-31.0710945129 -42.2572097778 15.5208616257
-31.1007671356 -42.3001251221 15.3403759003
-31.1253509521 -42.3361206055 15.1577653885
-31.1413421631 -42.3604240417 14.9715089798
-31.1453647614 -42.3684463501 14.7801313400
-31.1356887817 -42.3578376770 14.5828475952
-31.1123790741 -42.3286819458 14.3796453476
-31.0776710510 -42.2840232849 14.1714487076
-31.0362491608 -42.2302360535 13.9602584839
-30.9937362671 -42.1749649048 13.7485017776
-30.9539718628 -42.1234321594 13.5378513336
-30.9180755615 -42.0771636963 13.3288030624
-30.8862972260 -42.0364952087 13.1214799881
-30.8605461121 -42.0040283203 12.9167337418
-30.8450927734 -41.9855651855 12.7164621353
-30.8446102142 -41.9874649048 12.5227613449
-30.8609962463 -42.0123100281 12.3365173340
-30.8920173645 -42.0570564270 12.1567907333
-30.9334754944 -42.1159973145 11.9817600250
-30.9824447632 -42.1851539612 11.8101539612
-31.0375785828 -42.2626953125 11.6413955688
-31.0965099335 -42.3453941345 11.4744415283
-31.1540489197 -42.4262008667 11.3069782257
-31.2035560608 -42.4960861206 11.1360139847
-31.2399272919 -42.5480995178 10.9592237473
-31.2614173889 -42.5798797607 10.7757806778
-31.2689762115 -42.5927124023 10.5860662460
-31.2641277313 -42.5886688232 10.3907299042
-31.2476596832 -42.5688247681 10.1900939941
-31.2203445435 -42.5342330933 9.9844722748
-31.1845035553 -42.4880447388 9.7748928070
-31.1442031860 -42.4357948303 9.5631914139
-31.1036968231 -42.3832664490 9.3513059616
-31.0664958954 -42.3352355957 9.1408500671
-31.0367145538 -42.2972908020 8.9337310791
-31.0204505920 -42.2777290344 8.7327890396
-31.0241127014 -42.2852668762 8.5410327911
-31.0511436462 -42.3245811462 8.3601207733
-31.1010379791 -42.3949813843 8.1898899078
-31.1705207825 -42.4920158386 8.0288839340
-31.2539062500 -42.6079559326 7.8745079041
-31.3428802490 -42.7314949036 7.7229127884
-31.4282283783 -42.8500938416 7.5697913170
-31.5032329559 -42.9546318054 7.4119753838
-31.5660305023 -43.0425682068 7.2485542297
-31.6190090179 -43.1171531677 7.0806188583
-31.6655998230 -43.1830482483 6.9097614288
-31.7069892883 -43.2418746948 6.7365269661
-31.7416782379 -43.2915878296 6.5601849556
-31.7677001953 -43.3295135498 6.3797788620
-31.7845458984 -43.3549652100 6.1950392723
-31.7930393219 -43.3690605164 6.0063319206
-31.7942409515 -43.3732414246 5.8141388893
-31.7888412476 -43.3684463501 5.6187696457
-31.7770786285 -43.3550033569 5.4203195572
-31.7586822510 -43.3325386047 5.2186374664
-31.7328777313 -43.3000030518 5.0133285522
-31.6992263794 -43.2568016052 4.8041577339
-31.6593742371 -43.2051734924 4.5918998718
-31.6180973053 -43.1516075134 4.3788604736
-31.5818080902 -43.1048202515 4.1681609154
-31.5554447174 -43.0715332031 3.9622306824
-31.5407752991 -43.0541419983 3.7619662285
-31.5373210907 -43.0519981384 3.5671672821
-31.5442848206 -43.0640182495 3.3774781227
-31.5615787506 -43.0900764465 3.1928858757
-31.5891590118 -43.1301231384 3.0134024620
-31.6253223419 -43.1818313599 2.8382155895
-31.6657104492 -43.2392883301 2.6651914120
-31.7045364380 -43.2946166992 2.4914669991
-31.7369346619 -43.3412094116 2.3146150112
-31.7600860596 -43.3752288818 2.1332094669
-31.7727088928 -43.3949356079 1.9465798140
-31.7742195129 -43.3995399475 1.7544033527
-31.7643814087 -43.3887138367 1.5565245152
-31.7433261871 -43.3626441956 1.3529773951
-31.7117271423 -43.3222427368 1.1440644264
-31.6708126068 -43.2691802979 0.9303747416
-31.6224651337 -43.2060165405 0.7128323317
-31.5696582794 -43.1367912292 0.4929221869
-31.5168228149 -43.0675277710 0.2728810608
-31.4694252014 -43.0056610107 0.0554947779
-50.6022567749 17.3752651215 94.1114654541
-50.6420593262 17.3902206421 93.9246292114
-50.7101669312 17.4160556793 93.7383956909
-50.7955093384 17.4485149384 93.5525970459
-50.8872680664 17.4834403992 93.3670349121
-50.9777946472 17.5178928375 93.1815719604
-51.0626258850 17.5501556396 92.9960861206
-51.1389808655 17.5791606903 92.8105087280
-51.2052192688 17.6042785645 92.6247863770
-51.2613296509 17.6255035400 92.4388961792
-51.3084793091 17.6432838440 92.2528457642
-51.3472785950 17.6578559875 92.0666351318
-51.3771095276 17.6689815521 91.8802337646
-51.3974685669 17.6764640808 91.6936111450
-51.4093170166 17.6806793213 91.5067672729
-51.4146041870 17.6823692322 91.3197479248
-51.4145545959 17.6820087433 91.1325683594
-51.4080772400 17.6791782379 90.9451904297
-51.3909378052 17.6722507477 90.7574691772
-51.3569946289 17.6588630676 90.5691986084
-51.3025741577 17.6376037598 90.3802261353
-51.2317581177 17.6100444794 90.1906433105
-51.1569366455 17.5809459686 90.0008163452
-51.0923767090 17.5557880402 89.8112335205
-51.0465278625 17.5378246307 89.6222076416
-51.0201454163 17.5273418427 89.4337844849
-51.0101737976 17.5231666565 89.2459106445
-51.0142402649 17.5243892670 89.0585250854
-51.0324974060 17.5310649872 88.8716659546
-51.0670166016 17.5439910889 88.6854400635
-51.1194496155 17.5638046265 88.4999389648
-51.1876792908 17.5896892548 88.3151092529
-51.2642517090 17.6187801361 88.1307067871
-51.3395233154 17.6473712921 87.9463348389
-51.4073371887 17.6730957031 87.7617568970
-51.4675865173 17.6959133148 87.5769424438
-51.5236320496 17.7171173096 87.3920211792
-51.5781631470 17.7377357483 87.2070999146
-51.6313438416 17.7578372955 87.0221862793
-51.6813201904 17.7767066956 86.8371963501
-51.7250099182 17.7931594849 86.6519775391
-51.7583961487 17.8056507111 86.4663467407
-51.7772903442 17.8125724792 86.2800674438
-51.7785034180 17.8126983643 86.0929794312
-51.7601699829 17.8053112030 85.9049530029
-51.7215881348 17.7901382446 85.7159118652
-51.6638717651 17.7676105499 85.5258712769
-51.5905151367 17.7390727997 85.3349685669
-51.5062103271 17.7063255310 85.1434097290
-51.4158592224 17.6712532043 84.9514160156
-51.3268737793 17.6367053986 84.7593688965
-51.2523841858 17.6077308655 84.5679550171
-51.2096900940 17.5909786224 84.3781204224
-51.2127265930 17.5918025970 84.1906814575
-51.2647132874 17.6114444733 84.0059051514
-51.3576393127 17.6468257904 83.8234405518
-51.4781341553 17.6928024292 83.6426315308
-51.6133193970 17.7444286346 83.4628067017
-51.7527809143 17.7976970673 83.2833938599
-51.8881149292 17.8493785858 83.1039199829
-52.0130615234 17.8970680237 82.9240188599
-52.1243362427 17.9395027161 82.7434616089
-52.2210083008 17.9763240814 82.5621795654
-52.3022499084 18.0072154999 82.3800811768
-52.3661346436 18.0314331055 82.1970214844
-52.4106788635 18.0482139587 82.0128479004
-52.4350624084 18.0572490692 81.8274688721
-52.4399642944 18.0587940216 81.6408843994
-52.4281921387 18.0539264679 81.4532318115
-52.4053497314 18.0448055267 81.2648468018
-52.3782958984 18.0340633392 81.0761413574
-52.3510971069 18.0232696533 80.8873901367
-52.3213195801 18.0114803314 80.6984252930
-52.2793922424 17.9950218201 80.5085906982
-52.2132377625 17.9692497253 80.3170547485
-52.1180076599 17.9322986603 80.1234283447
-52.0048255920 17.8884487152 79.9284286499
-51.8994140625 17.8475837708 79.7338180542
-51.8298034668 17.8204822540 79.5415725708
-51.8136215210 17.8139190674 79.3530273438
-51.8540763855 17.8291301727 79.1685256958
-51.9432754517 17.8630809784 78.9875946045
-52.0665016174 17.9101104736 78.8092575073
-52.2052230835 17.9631004333 78.6322250366
-52.3414421082 18.0151271820 78.4551849365
-52.4641990662 18.0619792938 78.2773132324
-52.5729217529 18.1034374237 78.0985260010
-52.6723670959 18.1413269043 77.9191665649
-52.7636375427 18.1760768890 77.7393035889
-52.8413467407 18.2056102753 77.5585021973
-52.8991966248 18.2275104523 77.3762359619
-52.9362182617 18.2414035797 77.1923980713
-52.9569511414 18.2490348816 77.0072937012
-52.9673042297 18.2526741028 76.8213729858
-52.9708328247 18.2536907196 76.6349105835
-52.9671134949 18.2519207001 76.4478530884
-52.9512214661 18.2454719543 76.2597732544
-52.9147338867 18.2311019897 76.0699539185
-52.8503494263 18.2060089111 75.8777465820
-52.7592735291 18.1706542969 75.6831817627
-52.6549720764 18.1302146912 75.4873657227
-52.5577774048 18.0925064087 75.2920074463
-52.4838638306 18.0637474060 75.0985336304
-52.4378204346 18.0457038879 74.9073715210
-52.4137268066 18.0361003876 74.7180786133
-52.4027900696 18.0315551758 74.5298995972
-52.4021263123 18.0309600830 74.3426208496
-52.4180526733 18.0367412567 74.1568222046
-52.4607238770 18.0528068542 73.9734573364
-52.5348930359 18.0809803009 73.7930068970
-52.6346931458 18.1190109253 73.6150054932
-52.7456855774 18.1613426208 73.4381637573
-52.8515090942 18.2016887665 73.2609863281
-52.9407157898 18.2356472015 73.0823745728
-53.0103149414 18.2620658875 72.9020309448
-53.0644950867 18.2825565338 72.7202987671
-53.1098594666 18.2996578217 72.5377883911
-53.1505317688 18.3149547577 72.3548812866
-53.1861534119 18.3283100128 72.1715240479
-53.2130355835 18.3383064270 71.9873504639
-53.2268791199 18.3432884216 71.8019256592
-53.2252540588 18.3423233032 71.6149749756
-53.2088356018 18.3356704712 71.4265441895
-53.1800689697 18.3242702484 71.2368316650
-53.1395492554 18.3083515167 71.0458908081
-53.0834960938 18.2864589691 70.8533020020
-53.0065803528 18.2565441132 70.6584930420
-52.9093360901 18.2188129425 70.4614715576
-52.8035011292 18.1777801514 70.2634277344
-52.7086906433 18.1409854889 70.0663833618
-52.6415557861 18.1148319244 69.8721160889
-52.6071014404 18.1012420654 69.6812057495
-52.6005134583 18.0983676910 69.4932174683
-52.6159553528 18.1039657593 69.3075714111
-52.6511573792 18.1171588898 69.1240692139
-52.7044792175 18.1373195648 68.9425735474
-52.7721138000 18.1629848480 68.7627029419
-52.8498382568 18.1925296783 68.5840225220
-52.9344978333 18.2247409821 68.4062118530
-53.0222930908 18.2581577301 68.2288513184
-53.1072235107 18.2904720306 68.0512771606
-53.1817054749 18.3187713623 67.8726348877
-53.2382698059 18.3401794434 67.6920623779
-53.2721557617 18.3528709412 67.5089645386
-53.2843666077 18.3572254181 67.3234252930
-53.2816505432 18.3558406830 67.1361770630
-53.2725143433 18.3519859314 66.9481658936
-53.2629814148 18.3479804993 66.7600936890
-53.2550621033 18.3445949554 66.5721893311
-53.2470855713 18.3411865234 66.3842620850
-53.2340164185 18.3358211517 66.1957092285
-53.2083053589 18.3255939484 66.0056228638
-53.1632881165 18.3079433441 65.8131790161
-53.0992774963 18.2829895020 65.6183776855
-53.0273590088 18.2549934387 65.4225234985
-52.9654006958 18.2308273315 65.2277832031
-52.9290466309 18.2165088654 65.0360870361
-52.9261932373 18.2150688171 64.8484649658
-52.9575920105 18.2268028259 64.6650772095
-53.0191001892 18.2501144409 64.4854736328
-53.1030311584 18.2820453644 64.3087539673
-53.2002677917 18.3190956116 64.1338195801
-53.3030548096 18.3582801819 63.9597091675
-53.4061241150 18.3975734711 63.7857627869
-53.5061302185 18.4356899261 63.6115531921
-53.6007347107 18.4717273712 63.4367790222
-53.6876564026 18.5048122406 63.2611274719
-53.7643013000 18.5339450836 63.0842514038
-53.8283348083 18.5582294464 62.9058189392
-53.8782653809 18.5770893097 62.7256126404
-53.9137153625 18.5903816223 62.5435562134
-53.9357795715 18.5985260010 62.3597640991
-53.9470100403 18.6025047302 62.1745491028
-53.9505348206 18.6035194397 61.9883079529
-53.9487342834 18.6024875641 61.8013458252
-53.9420852661 18.5995903015 61.6137161255
-53.9279975891 18.5938339233 61.4250602722
-53.9004631042 18.5829048157 61.2345390320
-53.8528518677 18.5642547607 61.0412178040
-53.7838401794 18.5373764038 60.8448677063
-53.7008399963 18.5051174164 60.6464767456
-53.6151771545 18.4718341827 60.4475975037
-53.5341835022 18.4403457642 60.2492485046
-53.4619750977 18.4122371674 60.0520210266
-53.4078903198 18.3910980225 59.8572502136
-53.3862838745 18.3824481964 59.6670112610
-53.4020729065 18.3881778717 59.4820747375
-53.4410629272 18.4028320313 59.3004760742
-53.4812469482 18.4179458618 59.1190948486
-53.5129203796 18.4297828674 58.9365272522
-53.5453681946 18.4419231415 58.7541084290
-53.5959587097 18.4610366821 58.5743713379
-53.6739006042 18.4906692505 58.3987121582
-53.7719993591 18.5280551910 58.2261199951
-53.8710441589 18.5658054352 58.0537910461
-53.9521408081 18.5966529846 57.8789176941
-54.0068893433 18.6173667908 57.7002105713
-54.0381355286 18.6290435791 57.5180397034
-54.0536613464 18.6346740723 57.3335304260
-54.0598602295 18.6367187500 57.1476249695
-54.0591621399 18.6361103058 56.9606666565
-54.0500984192 18.6322841644 56.7724266052
-54.0286140442 18.6236801147 56.5822563171
-53.9905891418 18.6087150574 56.3895034790
-53.9352188110 18.5870800018 56.1940040588
-53.8674125671 18.5606632233 55.9964904785
-53.7970542908 18.5332622528 55.7984771729
-53.7348175049 18.5089874268 55.6016387939
-53.6873474121 18.4903907776 55.4070320129
-53.6555328369 18.4778137207 55.2148323059
-53.6365318298 18.4701652527 55.0246124268
-53.6268806458 18.4661102295 54.8358535767
-53.6241607666 18.4647254944 54.6481857300
-53.6271896362 18.4655475616 54.4614257813
-53.6355438232 18.4684200287 54.2755279541
-53.6491661072 18.4733181000 54.0904846191
-53.6679992676 18.4802207947 53.9062995911
-53.6916046143 18.4889583588 53.7229156494
-53.7188034058 18.4990768433 53.5401420593
-53.7474822998 18.5097675323 53.3576431274
-53.7747230530 18.5199031830 53.1749382019
-53.7971458435 18.5281867981 52.9914588928
-53.8115005493 18.5333671570 52.8066558838
-53.8155708313 18.5345897675 52.6201400757
-53.8090019226 18.5317230225 52.4318351746
-53.7934570313 18.5254039764 52.2419929504
-53.7717895508 18.5167293549 52.0510864258
-53.7463645935 18.5066089630 51.8595046997
-53.7168769836 18.4949264526 51.6671829224
-53.6786994934 18.4799003601 51.4733238220
-53.6242408752 18.4586143494 51.2766036987
-53.5490913391 18.4293689728 51.0762214661
-53.4591255188 18.3944263458 50.8731613159
-53.3707923889 18.3601093292 50.6702537537
-53.3024559021 18.3334846497 50.4707183838
-53.2652664185 18.3188381195 50.2765541077
-53.2623367310 18.3173694611 50.0883712769
-53.2940711975 18.3292331696 49.9063110352
-53.3600959778 18.3542861938 49.7303771973
-53.4543037415 18.3901805878 49.5595512390
-53.5606956482 18.4307594299 49.3910217285
-53.6588249207 18.4681625366 49.2211418152
-53.7352638245 18.4972209930 49.0474777222
-53.7890281677 18.5175590515 48.8698043823
-53.8270034790 18.5318260193 48.6893272400
-53.8564758301 18.5428199768 48.5073432922
-53.8815155029 18.5521106720 48.3245773315
-53.9031791687 18.5601024628 48.1412162781
-53.9208450317 18.5665550232 47.9571418762
-53.9330978394 18.5709285736 47.7720832825
-53.9381637573 18.5725345612 47.5856933594
-53.9339485168 18.5705718994 47.3975791931
-53.9177551270 18.5640029907 47.2072067261
-53.8858146667 18.5513744354 47.0138473511
-53.8339843750 18.5310974121 46.8166923523
-53.7605895996 18.5025253296 46.6153831482
-53.6698341370 18.4672737122 46.4106712341
-53.5725975037 18.4295310974 46.2045974731
-53.4830627441 18.3947486877 45.9998550415
-53.4130630493 18.3674812317 45.7987327576
-53.3681831360 18.3498744965 45.6023406982
-53.3483505249 18.3419055939 45.4107170105
-53.3517532349 18.3428726196 45.2235603333
-53.3777503967 18.3525295258 45.0407943726
-53.4257659912 18.3706588745 44.8623504639
-53.4914321899 18.3955745697 44.6874198914
-53.5646400452 18.4233932495 44.5140533447
-53.6329040527 18.4493103027 44.3398017883
-53.6874504089 18.4699497223 44.1629219055
-53.7264785767 18.4846210480 43.9830245972
-53.7535476685 18.4946918488 43.8007926941
-53.7744064331 18.5023746490 43.6173477173
-53.7949256897 18.5099258423 43.4338531494
-53.8193588257 18.5189838409 43.2511672974
-53.8478012085 18.5295810699 43.0693168640
-53.8745155334 18.5395164490 42.8871459961
-53.8897514343 18.5450363159 42.7026710510
-53.8836212158 18.5423355103 42.5138511658
-53.8489341736 18.5286521912 42.3191757202
-53.7836875916 18.5032119751 42.1181716919
-53.6947937012 18.4686737061 41.9122047424
-53.5989532471 18.4314632416 41.7046737671
-53.5157508850 18.3991165161 41.4996261597
-53.4573707581 18.3763141632 41.2996215820
-53.4247665405 18.3634300232 41.1049041748
-53.4122772217 18.3582839966 40.9143447876
-53.4140777588 18.3586330414 40.7267608643
-53.4273834229 18.3634090424 40.5415954590
-53.4529724121 18.3729114532 40.3590354919
-53.4942932129 18.3884658813 40.1798324585
-53.5543403625 18.4112224579 40.0046653748
-53.6302146912 18.4400672913 39.8329429626
-53.7102432251 18.4705123901 39.6622047424
-53.7786979675 18.4965038300 39.4890823364
-53.8250961304 18.5140132904 39.3112945557
-53.8493461609 18.5229988098 39.1287765503
-53.8589057922 18.5263347626 38.9431037903
-53.8616790771 18.5270595551 38.7559585571
-53.8594245911 18.5258502960 38.5677108765
-53.8453483582 18.5200939178 38.3768692017
-53.8085861206 18.5056095123 38.1810264587
-53.7445831299 18.4806442261 37.9791297913
-53.6635437012 18.4491271973 37.7733764648
-53.5872192383 18.4194202423 37.5685539246
-53.5341262817 18.3986530304 37.3687744141
-53.5070762634 18.3879051208 37.1747207642
-53.4952774048 18.3830223083 36.9840278625
-53.4864883423 18.3792991638 36.7939872742
-53.4755172729 18.3747348785 36.6034355164
-53.4634666443 18.3697566986 36.4126167297
-53.4529571533 18.3653697968 36.2221221924
-53.4450416565 18.3619842529 36.0321960449
-53.4391288757 18.3593654633 35.8427047729
-53.4349632263 18.3574199677 35.6535987854
-53.4351005554 18.3571319580 35.4654617310
-53.4451560974 18.3606567383 35.2795944214
-53.4704856873 18.3700599670 35.0972480774
-53.5117225647 18.3855800629 34.9185981750
-53.5629844666 18.4049606323 34.7423171997
-53.6144523621 18.4244194031 34.5661468506
-53.6573638916 18.4405860901 34.3880424500
-53.6875762939 18.4518661499 34.2070236206
-53.7053527832 18.4583625793 34.0231285095
-53.7128944397 18.4609222412 33.8368415833
-53.7122535706 18.4603328705 33.6486320496
-53.7045745850 18.4570369720 33.4587478638
-53.6897850037 18.4510040283 33.2671661377
-53.6656951904 18.4413928986 33.0733413696
-53.6262321472 18.4258670807 32.8758163452
-53.5609588623 18.4004116058 32.6720619202
-53.4606475830 18.3614749908 32.4598197937
-53.3291473389 18.3105373383 32.2399368286
-53.1905288696 18.2568626404 32.0181541443
-53.0785484314 18.2134361267 31.8026142120
-53.0140075684 18.1882591248 31.5984077454
-52.9920806885 18.1794795990 31.4044628143
-52.9912071228 18.1787986755 31.2156066895
-52.9923019409 18.1788787842 31.0272254944
-52.9915199280 18.1782321930 30.8383769989
-53.0002365112 18.1812419891 30.6518516541
-53.0352020264 18.1943531036 30.4717998505
-53.1051826477 18.2209339142 30.3004341125
-53.2023162842 18.2579631805 30.1358814240
-53.3046417236 18.2969913483 29.9727420807
-53.3885993958 18.3289508820 29.8051586151
-53.4420318604 18.3491668701 29.6300563812
-53.4671287537 18.3584785461 29.4479236603
-53.4721527100 18.3600692749 29.2607784271
-53.4611587524 18.3554954529 29.0695972443
-53.4308929443 18.3435077667 28.8735294342
-53.3754158020 18.3218193054 28.6710319519
-53.2933082581 18.2898845673 28.4616947174
-53.1924133301 18.2507190704 28.2474555969
-53.0877494812 18.2101039886 28.0321121216
-52.9922599792 18.1730175018 27.8189640045
-52.9076652527 18.1401252747 27.6084766388
-52.8248214722 18.1079063416 27.3983154297
-52.7341957092 18.0726890564 27.1860275269
-52.6369819641 18.0349407196 26.9719066620
-52.5464935303 17.9997787476 26.7593898773
-52.4792938232 17.9735755920 26.5527935028
-52.4461784363 17.9604911804 26.3549804688
-52.4513015747 17.9621162415 26.1671009064
-52.4959869385 17.9789657593 25.9895820618
-52.5791282654 18.0106143951 25.8222141266
-52.6934394836 18.0542526245 25.6631526947
-52.8242263794 18.1042346954 25.5085887909
-52.9540557861 18.1538467407 25.3539390564
-53.0692749023 18.1978378296 25.1955814362
-53.1640625000 18.2339668274 25.0319366455
-53.2408142090 18.2631568909 24.8636054993
-53.3067131042 18.2881698608 24.6924686432
-53.3677825928 18.3113250732 24.5201187134
-53.4246101379 18.3328495026 24.3467044830
-53.4727897644 18.3510437012 24.1710281372
-53.5062751770 18.3635864258 23.9914436340
-53.5198707581 18.3684749603 23.8065128326
-53.5098037720 18.3642578125 23.6151695251
-53.4738655090 18.3500843048 23.4167690277
-53.4125099182 18.3261318207 23.2113800049
-53.3306999207 18.2943077087 23.0003070831
-53.2376441956 18.2581558228 22.7860355377
-53.1421775818 18.2210750580 22.5709667206
-53.0468139648 18.1840343475 22.3557891846
-52.9469032288 18.1452445984 22.1392192841
-52.8369674683 18.1025962830 21.9197311401
-52.7181968689 18.0565452576 21.6976356506
-52.5983314514 18.0100765228 21.4750671387
-52.4838066101 17.9656600952 21.2538185120
-52.3752212524 17.9235305786 21.0340652466
-52.2742271423 17.8843212128 20.8162841797
-52.1932258606 17.8528060913 20.6039733887
-52.1524848938 17.8367824554 20.4028778076
-52.1644859314 17.8410549164 20.2166004181
-52.2220687866 17.8628673553 20.0432262421
-52.3024520874 17.8934574127 19.8763847351
-52.3814468384 17.9235095978 19.7092514038
-52.4444084167 17.9473934174 19.5376472473
-52.4878501892 17.9637660980 19.3605461121
-52.5152091980 17.9739494324 19.1788940430
-52.5319976807 17.9800643921 18.9942378998
-52.5425605774 17.9837856293 18.8078060150
-52.5485725403 17.9857540131 18.6200675964
-52.5484886169 17.9853763580 18.4305686951
-52.5375785828 17.9808330536 18.2379264832
-52.5093002319 17.9696063995 18.0402202606
-52.4589347839 17.9498767853 17.8360385895
-52.3877906799 17.9221534729 17.6257228851
-52.3031692505 17.8892421722 17.4113636017
-52.2125473022 17.8540210724 17.1951217651
-52.1178932190 17.8172492981 16.9775657654
-52.0167427063 17.7779769897 16.7579612732
-51.9082450867 17.7358779907 16.5360450745
-51.7966842651 17.6925964355 16.3130664825
-51.6891021729 17.6508483887 16.0911083221
-51.5909805298 17.6127414703 15.8718070984
-51.5051918030 17.5793781281 15.6560373306
-51.4342803955 17.5517406464 15.4445819855
-51.3816032410 17.5311222076 15.2384777069
-51.3494338989 17.5183963776 15.0384416580
-51.3371810913 17.5133323669 14.8443374634
-51.3422241211 17.5149269104 14.6554164886
-51.3613891602 17.5219573975 14.4707574844
-51.3907661438 17.5329151154 14.2892045975
-51.4250144958 17.5457496643 14.1091604233
-51.4584655762 17.5582752228 13.9289121628
-51.4873619080 17.5690517426 13.7473154068
-51.5107345581 17.5776996613 13.5640621185
-51.5292358398 17.5844726563 13.3793439865
-51.5436706543 17.5896816254 13.1933956146
-51.5544815063 17.5934963226 13.0063457489
-51.5620994568 17.5960807800 12.8183183670
-51.5672645569 17.5977210999 12.6295375824
-51.5707817078 17.5987281799 12.4402456284
-51.5721588135 17.5989112854 12.2502870560
-51.5680046082 17.5969657898 12.0586051941
-51.5525894165 17.5906867981 11.8634033203
-51.5216560364 17.5784339905 11.6633319855
-51.4757270813 17.5604095459 11.4585208893
-51.4182395935 17.5379390717 11.2500190735
-51.3506774902 17.5115871429 11.0382671356
-51.2708129883 17.4805030823 10.8225450516
-51.1745910645 17.4431209564 10.6015472412
-51.0575485229 17.3977260590 10.3738307953
-50.9172325134 17.3433742523 10.1385774612
-50.7602691650 17.2826137543 9.8978404999
-50.6089744568 17.2240352631 9.6586866379
-50.4978828430 17.1809291840 9.4321346283
-50.4606552124 17.1662540436 9.2290172577
-50.5186805725 17.1882362366 9.0563325882
-50.6778717041 17.2491607666 8.9161720276
-50.9285240173 17.3452854156 8.8056201935
-51.2430992126 17.4660148621 8.7159929276
-51.5783462524 17.5947017670 8.6334571838
-51.8889884949 17.7139205933 8.5434103012
-52.1461105347 17.8125381470 8.4364252090
-52.3450813293 17.8887748718 8.3108911514
-52.4983024597 17.9474029541 8.1707248688
-52.6222496033 17.9947643280 8.0212097168
-52.7300376892 18.0359077454 7.8665723801
-52.8309593201 18.0744056702 7.7098231316
-52.9309272766 18.1125373840 7.5528903008
-53.0307579041 18.1506195068 7.3960409164
-53.1253051758 18.1866645813 7.2375760078
-53.2063102722 18.2174987793 7.0747594833
-53.2674446106 18.2406845093 6.9054679871
-53.3075828552 18.2557888031 6.7292890549
-53.3301925659 18.2641468048 6.5473308563
-53.3399772644 18.2675666809 6.3611249924
-53.3398323059 18.2671661377 6.1716113091
-53.3301849365 18.2631092072 5.9789118767
-53.3104858398 18.2551803589 5.7828235626
-53.2812843323 18.2435951233 5.5835103989
-53.2452659607 18.2293853760 5.3818564415
-53.2067794800 18.2142257690 5.1793131828
-53.1704139709 18.1998844147 4.9774274826
-53.1397514343 18.1877365112 4.7774138451
-53.1169700623 18.1786212921 4.5800218582
-53.1032409668 18.1729907990 4.3856673241
-53.0992393494 18.1711044312 4.1945991516
-53.1055412292 18.1731853485 4.0070323944
-53.1231727600 18.1796264648 3.8233385086
-53.1538696289 18.1910972595 3.6441349983
-53.1988143921 18.2080516815 3.4698555470
-53.2558937073 18.2296791077 3.2998011112
-53.3183593750 18.2533779144 3.1316730976
-53.3777580261 18.2758960724 2.9625613689
-53.4289703369 18.2952651978 2.7906918526
-53.4720802307 18.3115158081 2.6160762310
-53.5093460083 18.3255157471 2.4394817352
-53.5412940979 18.3374671936 2.2610785961
-53.5660018921 18.3466320038 2.0801866055
-53.5810241699 18.3520717621 1.8959381580
-53.5849761963 18.3532466888 1.7078273296
-53.5778160095 18.3501453400 1.5158166885
-53.5610656738 18.3433532715 1.3204199076
-53.5379180908 18.3340969086 1.1227397919
-53.5119972229 18.3237724304 0.9240421653
-53.4856681824 18.3132934570 0.7251578569
-53.4601631165 18.3031291962 0.5265208483
-53.4371795654 18.2939376831 0.3287362158
-53.4192314148 18.2866821289 0.1327011734
-41.4658775330 -33.1258163452 93.2025909424
-41.4869804382 -33.1450576782 93.0132751465
-41.5271873474 -33.1799812317 92.8242187500
-41.5769577026 -33.2227592468 92.6353454590
-41.6275863647 -33.2662429810 92.4465560913
-41.6736221313 -33.3059539795 92.2577667236
-41.7122993469 -33.3396224976 92.0689239502
-41.7423706055 -33.3662261963 91.8799972534
-41.7640380859 -33.3859291077 91.6909637451
-41.7790031433 -33.4001235962 91.5018463135
-41.7894554138 -33.4106178284 91.3126525879
-41.7968521118 -33.4186058044 91.1234130859
-41.8015403748 -33.4243659973 90.9341278076
-41.8031768799 -33.4276237488 90.7447738647
-41.8012924194 -33.4279899597 90.5553359985
-41.7955245972 -33.4251670837 90.3658065796
-41.7855300903 -33.4188766479 90.1761550903
-41.7706298828 -33.4085540771 89.9863739014
-41.7493667603 -33.3930130005 89.7963943481
-41.7194671631 -33.3703804016 89.6061630249
-41.6791343689 -33.3391876221 89.4156036377
-41.6297149658 -33.3005294800 89.2247314453
-41.5771903992 -33.2593269348 89.0336837769
-41.5298118591 -33.2223510742 88.8426971436
-41.4935951233 -33.1945381165 88.6519546509
-41.4705123901 -33.1775054932 88.4615402222
-41.4609146118 -33.1715469360 88.2714996338
-41.4667320251 -33.1782379150 88.0819244385
-41.4916954041 -33.2006454468 87.8929748535
-41.5387039185 -33.2411460876 87.7047805786
-41.6075973511 -33.2996139526 87.5173950195
-41.6954421997 -33.3736343384 87.3307647705
-41.7971382141 -33.4590225220 87.1447525024
-41.9043045044 -33.5489044189 86.9590911865
-42.0055923462 -33.6339530945 86.7733688354
-42.0912399292 -33.7061653137 86.5872039795
-42.1578292847 -33.7627334595 86.4004287720
-42.2076835632 -33.8055648804 86.2130966187
-42.2444305420 -33.8376388550 86.0253067017
-42.2703590393 -33.8608322144 85.8371200562
-42.2869720459 -33.8763771057 85.6485748291
-42.2960205078 -33.8857154846 85.4597320557
-42.2988548279 -33.8899497986 85.2706298828
-42.2947807312 -33.8885192871 85.0812149048
-42.2805137634 -33.8787231445 84.8913345337
-42.2520790100 -33.8572959900 84.7007827759
-42.2076110840 -33.8227119446 84.5094299316
-42.1478347778 -33.7755661011 84.3172836304
-42.0749359131 -33.7176513672 84.1244125366
-41.9940605164 -33.6531906128 83.9310302734
-41.9165725708 -33.5915145874 83.7376785278
-41.8580207825 -33.5453758240 83.5451583862
-41.8298873901 -33.5242042542 83.3540802002
-41.8337974548 -33.5293273926 83.1646118164
-41.8640480042 -33.5560684204 82.9765167236
-41.9140167236 -33.5989875793 82.7895202637
-41.9798583984 -33.6549377441 82.6034469604
-42.0603485107 -33.7229042053 82.4182662964
-42.1541099548 -33.8017616272 82.2339477539
-42.2559127808 -33.8872146606 82.0502166748
-42.3560638428 -33.9713134766 81.8665390015
-42.4453086853 -34.0464591980 81.6823730469
-42.5198593140 -34.1095466614 81.4974822998
-42.5800933838 -34.1608848572 81.3118515015
-42.6250381470 -34.1996726990 81.1253814697
-42.6503601074 -34.2223625183 80.9377746582
-42.6521377563 -34.2257308960 80.7487487793
-42.6315078735 -34.2107124329 80.5583114624
-42.5950622559 -34.1827201843 80.3668441772
-42.5504531860 -34.1480293274 80.1747817993
-42.5013847351 -34.1096763611 79.9823532104
-42.4471969604 -34.0671272278 79.7895050049
-42.3875732422 -34.0201148987 79.5962066650
-42.3269157410 -33.9722633362 79.4027404785
-42.2733764648 -33.9302482605 79.2096557617
-42.2341461182 -33.8999710083 79.0174636841
-42.2127990723 -33.8843727112 78.8264465332
-42.2106704712 -33.8845405579 78.6367340088
-42.2286796570 -33.9012298584 78.4484481812
-42.2667961121 -33.9344177246 78.2616195679
-42.3227233887 -33.9822158813 78.0761413574
-42.3922348022 -34.0411605835 77.8917312622
-42.4703712463 -34.1071815491 77.7080688477
-42.5519790649 -34.1760444641 77.5247802734
-42.6323013306 -34.2438545227 77.3415069580
-42.7079010010 -34.3077926636 77.1579895020
-42.7764396667 -34.3659286499 76.9740371704
-42.8358993530 -34.4166221619 76.7894821167
-42.8853797913 -34.4591255188 76.6042175293
-42.9266090393 -34.4948577881 76.4183654785
-42.9631195068 -34.5267219543 76.2321929932
-42.9968376160 -34.5562896729 76.0458450317
-43.0252227783 -34.5814895630 75.8591003418
-43.0422477722 -34.5973625183 75.6714553833
-43.0428695679 -34.5997848511 75.4824600220
-43.0277175903 -34.5892601013 75.2921295166
-43.0040969849 -34.5717964172 75.1010513306
-42.9817390442 -34.5553665161 74.9100341797
-42.9652976990 -34.5437889099 74.7194900513
-42.9498214722 -34.5330009460 74.5289916992
-42.9242134094 -34.5139083862 74.3375701904
-42.8805122375 -34.4799690247 74.1444931030
-42.8209991455 -34.4330635071 73.9499282837
-42.7582015991 -34.3834648132 73.7549591064
-42.7091560364 -34.3451499939 73.5611495972
-42.6879997253 -34.3297080994 73.3698120117
-42.7004508972 -34.3418350220 73.1815567017
-42.7432708740 -34.3788719177 72.9961471558
-42.8086624146 -34.4344177246 72.8129272461
-42.8889083862 -34.5021476746 72.6312103271
-42.9769287109 -34.5762557983 72.4503631592
-43.0645217896 -34.6500129700 72.2695999146
-43.1427536011 -34.7160873413 72.0880508423
-43.2053260803 -34.7693214417 71.9050827026
-43.2515068054 -34.8091087341 71.7205734253
-43.2856101990 -34.8389854431 71.5349349976
-43.3132705688 -34.8635826111 71.3486862183
-43.3375015259 -34.8853607178 71.1621246338
-43.3571166992 -34.9033622742 70.9751281738
-43.3682327271 -34.9143829346 70.7872772217
-43.3673934937 -34.9156036377 70.5981979370
-43.3544349670 -34.9068870544 70.4078445435
-43.3333206177 -34.8914794922 70.2166061401
-43.3100891113 -34.8743362427 70.0251007080
-43.2881088257 -34.8582229614 69.8336868286
-43.2635154724 -34.8399620056 69.6419525146
-43.2264938354 -34.8115119934 69.4488220215
-43.1704978943 -34.7674980164 69.2535629272
-43.1012268066 -34.7126045227 69.0567474365
-43.0345191956 -34.6598129272 68.8600997925
-42.9849853516 -34.6211051941 68.6652526855
-42.9583854675 -34.6012039185 68.4729003906
-42.9540023804 -34.5995216370 68.2830047607
-42.9706840515 -34.6151161194 68.0954818726
-43.0090866089 -34.6485176086 67.9104690552
-43.0695686340 -34.7000274658 67.7280578613
-43.1498832703 -34.7677955627 67.5480270386
-43.2452316284 -34.8478965759 67.3698730469
-43.3491630554 -34.9350280762 67.1928634644
-43.4533843994 -35.0223999023 67.0160522461
-43.5483512878 -35.1021804810 66.8382797241
-43.6266059875 -35.1682548523 66.6586532593
-43.6861000061 -35.2189483643 66.4768753052
-43.7293090820 -35.2562828064 66.2931976318
-43.7593307495 -35.2828102112 66.1079711914
-43.7774314880 -35.2995567322 65.9213180542
-43.7834167480 -35.3063735962 65.7331848145
-43.7768745422 -35.3029174805 65.5434951782
-43.7578239441 -35.2892036438 65.3522186279
-43.7271232605 -35.2659416199 65.1594314575
-43.6866149902 -35.2346343994 64.9653472900
-43.6380844116 -35.1967544556 64.7701721191
-43.5816268921 -35.1523780823 64.5738906860
-43.5156860352 -35.1002235413 64.3762893677
-43.4399147034 -35.0400085449 64.1772994995
-43.3587379456 -34.9753684998 63.9774818420
-43.2823371887 -34.9146423340 63.7781524658
-43.2243690491 -34.8690299988 63.5811386108
-43.1983184814 -34.8495864868 63.3882789612
-43.2139167786 -34.8642845154 63.2009429932
-43.2734146118 -34.9149780273 63.0195350647
-43.3679962158 -34.9944267273 62.8429679871
-43.4774894714 -35.0861053467 62.6685676575
-43.5766067505 -35.1692733765 62.4929122925
-43.6450653076 -35.2273025513 62.3131752014
-43.6748428345 -35.2536277771 62.1281814575
-43.6707496643 -35.2521781921 61.9385032654
-43.6455993652 -35.2334747314 61.7458610535
-43.6128654480 -35.2085456848 61.5521049500
-43.5798797607 -35.1834220886 61.3582534790
-43.5449333191 -35.1566848755 61.1640663147
-43.4994926453 -35.1213455200 60.9683113098
-43.4348068237 -35.0702323914 60.7697105408
-43.3500137329 -35.0026397705 60.5680885315
-43.2557983398 -34.9273262024 60.3649520874
-43.1684608459 -34.8576469421 60.1626739502
-43.0992431641 -34.8028221130 59.9629135132
-43.0504074097 -34.7647094727 59.7660522461
-43.0207252502 -34.7422943115 59.5719566345
-43.0112266541 -34.7364273071 59.3808212280
-43.0250816345 -34.7496986389 59.1931724548
-43.0651397705 -34.7844505310 59.0094947815
-43.1329727173 -34.8419647217 58.8300895691
-43.2270812988 -34.9210128784 58.6547851563
-43.3399696350 -35.0154533386 58.4825019836
-43.4593811035 -35.1152420044 58.3113937378
-43.5748367310 -35.2117843628 58.1398468018
-43.6829528809 -35.3023071289 57.9673347473
-43.7862701416 -35.3889007568 57.7942276001
-43.8878059387 -35.4740295410 57.6209945679
-43.9868164063 -35.5570869446 57.4475135803
-44.0779800415 -35.6337127686 57.2729339600
-44.1525077820 -35.6967010498 57.0958328247
-44.2006492615 -35.7380638123 56.9146118164
-44.2165451050 -35.7529983521 56.7282600403
-44.2027626038 -35.7436103821 56.5371246338
-44.1689109802 -35.7177772522 56.3426895142
-44.1244125366 -35.6832199097 56.1464576721
-44.0733680725 -35.6432952881 55.9490737915
-44.0162506104 -35.5983963013 55.7505989075
-43.9539451599 -35.5492477417 55.5511703491
-43.8880729675 -35.4971771240 55.3510437012
-43.8187065125 -35.4422416687 55.1502189636
-43.7447128296 -35.3835144043 54.9485015869
-43.6674575806 -35.3221206665 54.7461090088
-43.5934600830 -35.2633934021 54.5441436768
-43.5331420898 -35.2158813477 54.3443832397
-43.4969329834 -35.1881256104 54.1486549377
-43.4914436340 -35.1855392456 53.9581413269
-43.5172119141 -35.2085685730 53.7730178833
-43.5683937073 -35.2524223328 53.5923347473
-43.6346168518 -35.3086051941 53.4143447876
-43.7045822144 -35.3678474426 53.2371063232
-43.7699394226 -35.4233131409 53.0591621399
-43.8272438049 -35.4721794128 52.8798866272
-43.8769416809 -35.5148162842 52.6993408203
-43.9207534790 -35.5526275635 52.5178184509
-43.9596099854 -35.5863761902 52.3354682922
-43.9927215576 -35.6154212952 52.1521415710
-44.0172729492 -35.6374473572 51.9673080444
