-11.4992074966 46.6135406494 37.5068130493
-11.5082302094 46.6431770325 37.3171615601
-11.5292406082 46.7205085754 37.1364860535
-11.5532531738 46.8097801208 36.9581451416
-11.5732736588 46.8831787109 36.7769088745
-11.5874052048 46.9331474304 36.5913162231
-11.5980148315 46.9691085815 36.4031105042
-11.6089897156 47.0065231323 36.2152214050
-11.6236619949 47.0586509705 36.0301856995
-11.6430091858 47.1293792725 35.8487739563
-11.6633529663 47.2040748596 35.6682090759
-11.6764326096 47.2498703003 35.4821434021
-11.6746339798 47.2364730835 35.2846488953
-11.6572427750 47.1610298157 35.0750617981
-11.6303806305 47.0479011536 34.8580169678
-11.6009798050 46.9246635437 34.6388435364
-11.5724592209 46.8049240112 34.4201965332
-11.5457706451 46.6924705505 34.2028236389
-11.5219354630 46.5913658142 33.9875450134
-11.5023097992 46.5070114136 33.7754516602
-11.4875707626 46.4420967102 33.5671081543
-11.4777593613 46.3967857361 33.3625869751
-11.4733333588 46.3729095459 33.1622924805
-11.4756937027 46.3760375977 32.9673767090
-11.4864463806 46.4125671387 32.7791824341
-11.5058126450 46.4833717346 32.5979461670
-11.5312805176 46.5784683228 32.4217147827
-11.5579948425 46.6785278320 32.2466011047
-11.5811738968 46.7645225525 32.0687332153
-11.5984983444 46.8272171021 31.8862018585
-11.6103563309 46.8681564331 31.6992759705
-11.6183176041 46.8935852051 31.5092029572
-11.6236810684 46.9086761475 31.3170185089
-11.6270313263 46.9157524109 31.1231842041
-11.6284189224 46.9150161743 30.9277286530
-11.6276607513 46.9057388306 30.7304859161
-11.6245126724 46.8869476318 30.5312328339
-11.6186609268 46.8573913574 30.3296947479
-11.6094989777 46.8146553040 30.1253395081
-11.5959129333 46.7543067932 29.9172115326
-11.5767374039 46.6717033386 29.7042942047
-11.5522966385 46.5681381226 29.4868221283
-11.5260848999 46.4575119019 29.2677116394
-11.5044898987 46.3652610779 29.0523700714
-11.4938602448 46.3166656494 28.8462409973
-11.4970312119 46.3230171204 28.6518268585
-11.5120878220 46.3766899109 28.4675922394
-11.5339088440 46.4572982788 28.2892246246
-11.5569620132 46.5428123474 28.1120128632
-11.5776853561 46.6190528870 27.9328842163
-11.5954713821 46.6836051941 27.7512989044
-11.6117382050 46.7421073914 27.5684661865
-11.6277017593 46.7994041443 27.3854331970
-11.6427640915 46.8531150818 27.2016754150
-11.6549062729 46.8951950073 27.0154170990
-11.6623115540 46.9184188843 26.8250389099
-11.6643619537 46.9203147888 26.6299591064
-11.6614561081 46.9024734497 26.4304924011
-11.6544332504 46.8682365417 26.2273445129
-11.6440725327 46.8207054138 26.0211753845
-11.6307029724 46.7611846924 25.8122558594
-11.6142396927 46.6893463135 25.6004867554
-11.5948381424 46.6057968140 25.3859825134
-11.5736074448 46.5149612427 25.1697216034
-11.5526018143 46.4250183105 24.9535369873
-11.5337762833 46.3437500000 24.7392024994
-11.5176792145 46.2733497620 24.5272293091
-11.5034151077 46.2102470398 24.3168258667
-11.4902677536 46.1515922546 24.1073513031
-11.4792833328 46.1015434265 23.8997707367
-11.4730815887 46.0705528259 23.6965045929
-11.4742803574 46.0690345764 23.4999904633
-11.4841547012 46.1020774841 23.3114604950
-11.5021476746 46.1674652100 23.1304664612
-11.5258245468 46.2555007935 22.9548149109
-11.5512771606 46.3506050110 22.7809143066
-11.5742120743 46.4356918335 22.6047801971
-11.5913486481 46.4976768494 22.4233245850
-11.6011199951 46.5303230286 22.2350406647
-11.6031045914 46.5319442749 22.0394744873
-11.5968751907 46.5008354187 21.8361644745
-11.5819292068 46.4350013733 21.6245765686
-11.5592536926 46.3383636475 21.4055767059
-11.5325212479 46.2255592346 21.1825962067
-11.5066385269 46.1161346436 20.9602718353
-11.4845466614 46.0218048096 20.7414169312
-11.4656877518 45.9403610229 20.5255298615
-11.4476680756 45.8622550964 20.3103351593
-11.4292383194 45.7825126648 20.0946388245
-11.4118804932 45.7070350647 19.8798656464
-11.3989648819 45.6492614746 19.6692829132
-11.3936700821 45.6218528748 19.4660072327
-11.3974199295 45.6304893494 19.2714767456
-11.4095191956 45.6723976135 19.0850868225
-11.4276733398 45.7384376526 18.9046554565
-11.4489126205 45.8167762756 18.7273197174
-11.4702882767 45.8956642151 18.5502071381
-11.4889421463 45.9637069702 18.3705062866
-11.5022926331 46.0106124878 18.1856479645
-11.5089015961 46.0306472778 17.9941673279
-11.5091466904 46.0253181458 17.7963905334
-11.5046644211 46.0011482239 17.5938949585
-11.4971218109 45.9647789001 17.3883094788
-11.4875307083 45.9202423096 17.1806201935
-11.4762268066 45.8688774109 16.9711494446
-11.4628877640 45.8093910217 16.7595596313
-11.4468011856 45.7389526367 16.5451183319
-11.4278011322 45.6568984985 16.3276386261
-11.4069681168 45.5675354004 16.1081886292
-11.3859949112 45.4776039124 15.8884754181
-11.3659982681 45.3915634155 15.6696319580
-11.3474988937 45.3114929199 15.4521989822
-11.3313541412 45.2408027649 15.2370615005
-11.3188714981 45.1847114563 15.0255784988
-11.3108263016 45.1463088989 14.8185749054
-11.3068428040 45.1240959167 14.6156949997
-11.3058938980 45.1139869690 14.4159135818
-11.3071031570 45.1124763489 14.2183418274
-11.3099746704 45.1175956726 14.0224838257
-11.3141593933 45.1279487610 13.8279886246
-11.3191776276 45.1416282654 13.6343669891
-11.3243637085 45.1559753418 13.4409275055
-11.3289880753 45.1680870056 13.2469100952
-11.3324251175 45.1754608154 13.0516519547
-11.3342285156 45.1763191223 12.8546733856
-11.3341369629 45.1696243286 12.6556882858
-11.3321046829 45.1551856995 12.4546327591
-11.3283815384 45.1340065002 12.2517576218
-11.3236436844 45.1087760925 12.0477666855
-11.3191089630 45.0843544006 11.8439521790
-11.3164701462 45.0674934387 11.6421222687
-11.3172569275 45.0642967224 11.4439287186
-11.3216276169 45.0753936768 11.2495651245
-11.3275423050 45.0926437378 11.0568666458
-11.3315277100 45.1022033691 10.8621025085
-11.3308458328 45.0931434631 10.6622982025
-11.3253622055 45.0649375916 10.4572744370
-11.3176221848 45.0277214050 10.2497549057
-11.3110818863 44.9952926636 10.0434856415
-11.3080091476 44.9766960144 9.8409481049
-11.3086910248 44.9730758667 9.6424808502
-11.3121519089 44.9805374146 9.4470434189
-11.3172225952 44.9944190979 9.2533740997
-11.3230361938 45.0112724304 9.0605316162
-11.3290061951 45.0287437439 8.8678722382
-11.3346948624 45.0450935364 8.6749162674
-11.3397741318 45.0590133667 8.4812955856
-11.3440237045 45.0696220398 8.2867622375
-11.3473310471 45.0764770508 8.0911855698
-11.3496580124 45.0794143677 7.8945121765
-11.3509731293 45.0783157349 7.6967029572
-11.3511943817 45.0728569031 7.4976577759
-11.3501558304 45.0623664856 7.2971806526
-11.3475742340 45.0457191467 7.0949444771
-11.3429746628 45.0210189819 6.8904004097
-11.3355188370 44.9849205017 6.6825857162
-11.3238935471 44.9321861267 6.4699907303
-11.3066368103 44.8569717407 6.2509222031
-11.2831153870 44.7567558289 6.0246171951
-11.2546243668 44.6367073059 5.7925062180
-11.2245626450 44.5103836060 5.5584368706
-11.1972494125 44.3950233459 5.3273487091
-11.1760721207 44.3041458130 5.1031517982
-11.1622200012 44.2424964905 4.8872632980
-11.1548213959 44.2066040039 4.6787323952
-11.1520977020 44.1893653870 4.4755516052
-11.1524515152 44.1844062805 4.2759060860
-11.1548414230 44.1875762939 4.0786085129
-11.1586275101 44.1963157654 3.8829312325
-11.1633243561 44.2086906433 3.6883177757
-11.1684732437 44.2228736877 3.4942393303
-11.1736392975 44.2371253967 3.3001906872
-11.1784744263 44.2500534058 3.1057612896
-11.1827955246 44.2609329224 2.9107346535
-11.1867132187 44.2701988220 2.7152364254
-11.1907691956 44.2800178528 2.5199050903
-11.1959238052 44.2942237854 2.3258771896
-11.2030878067 44.3164520264 2.1342430115
-11.2122650146 44.3467140198 1.9450209141
-11.2220678329 44.3794784546 1.7565742731
-11.2303895950 44.4063301086 1.5663906336
-11.2357177734 44.4212303162 1.3726505041
-11.2377481461 44.4229660034 1.1749638319
-11.2368850708 44.4131469727 0.9737935662
-11.2335796356 44.3935775757 0.7696600556
-11.2282247543 44.3658256531 0.5630195737
-11.2212982178 44.3317947388 0.3544330597
-11.2131757736 44.2929916382 0.1443455517
15.0888853073 6.0491905212 87.9855651855
15.1141204834 6.0563116074 87.7754440308
15.1588859558 6.0686564445 87.5660476685
15.2198143005 6.0853247643 87.3572845459
15.2915019989 6.1048703194 87.1489944458
15.3685216904 6.1258420944 86.9409942627
15.4462137222 6.1469936371 86.7331085205
15.5205192566 6.1672387123 86.5251770020
15.5882339478 6.1857213974 86.3170776367
15.6479339600 6.2020602226 86.1087265015
15.7004861832 6.2164864540 85.9001541138
15.7478828430 6.2295346260 85.6914291382
15.7914781570 6.2415652275 85.4825973511
15.8325624466 6.2529244423 85.2736968994
15.8748760223 6.2646121979 85.0649032593
15.9255313873 6.2785315514 84.8565139771
15.9935750961 6.2971005440 84.6489715576
16.0883483887 6.3228192329 84.4427185059
16.2179927826 6.3578639030 84.2381896973
16.3860244751 6.4031753540 84.0356216431
16.5862522125 6.4570970535 83.8347778320
16.8011341095 6.5149378777 83.6348953247
17.0077667236 6.5705718994 83.4348754883
17.1879844666 6.6191406250 83.2338104248
17.3357582092 6.6590313911 83.0313491821
17.4581718445 6.6921405792 82.8277816772
17.5697689056 6.7223553658 82.6238098145
17.6831665039 6.7530522346 82.4200668335
17.8017978668 6.7851486206 82.2167434692
17.9195594788 6.8170118332 82.0135116577
18.0268802643 6.8460822105 81.8098602295
18.1181144714 6.8708505630 81.6054611206
18.1946563721 6.8916893005 81.4003601074
18.2618007660 6.9100146294 81.1948242188
18.3231143951 6.9267807007 80.9890441895
18.3776168823 6.9417243004 80.7829437256
18.4204597473 6.9535503387 80.5762252808
18.4447231293 6.9604077339 80.3684768677
18.4444866180 6.9607124329 80.1593017578
18.4196891785 6.9544491768 79.9486465454
18.3789348602 6.9439182281 79.7369995117
18.3359336853 6.9327864647 79.5251464844
18.3024196625 6.9241919518 79.3138122559
18.2841205597 6.9196667671 79.1033782959
18.2811603546 6.9192433357 78.8938751221
18.2893600464 6.9218049049 78.6850738525
18.3018798828 6.9255213737 78.4765472412
18.3133029938 6.9289445877 78.2679595947
18.3242321014 6.9322352409 78.0593414307
18.3413982391 6.9371943474 77.8511428833
18.3735408783 6.9461584091 77.6439590454
18.4281864166 6.9611401558 77.4383239746
18.5104160309 6.9834976196 77.2346343994
18.6199150085 7.0131478310 77.0329132080
18.7471008301 7.0475273132 76.8325424194
18.8749427795 7.0820822716 76.6323852539
18.9879341125 7.1126656532 76.4313278198
19.0796909332 7.1375699043 76.2288970947
19.1525173187 7.1574120522 76.0252151489
19.2126312256 7.1738553047 75.8206939697
19.2669105530 7.1887369156 75.6158142090
19.3211879730 7.2036190033 75.4110031128
19.3789901733 7.2194433212 75.2065124512
19.4423980713 7.2367658615 75.0025024414
19.5158843994 7.2567839622 74.7993392944
19.6100101471 7.2823204994 74.5978317261
19.7406234741 7.3176140785 74.3992538452
19.9218616486 7.3664445877 74.2047729492
20.1562690735 7.4294919968 74.0146865845
20.4293880463 7.5028896332 73.8279495239
20.7137565613 7.5792956352 73.6424560547
20.9796867371 7.6507701874 73.4558410645
21.2058391571 7.7116079330 73.2663421631
21.3842029572 7.7596664429 73.0732192993
21.5179424286 7.7957930565 72.8766555786
21.6151409149 7.8221478462 72.6772232056
21.6844921112 7.8410568237 72.4755783081
21.7356357574 7.8550972939 72.2724838257
21.7798824310 7.8672933578 72.0688629150
21.8276062012 7.8804187775 71.8655929565
21.8852710724 7.8962025642 71.6632232666
21.9558887482 7.9154491425 71.4620513916
22.0420227051 7.9388446808 71.2623138428
22.1488380432 7.9677700996 71.0644989014
22.2855415344 8.0046863556 70.8694686890
22.4640026093 8.0527687073 70.6783370972
22.6944541931 8.1147499084 70.4921112061
22.9789772034 8.1911888123 70.3110733032
23.3050308228 8.2787322998 70.1341857910
23.6441440582 8.3697662354 69.9589080811
23.9606742859 8.4547605515 69.7819747925
24.2275295258 8.5264739990 69.6008071899
24.4371509552 8.5828828812 69.4146118164
24.5991153717 8.6265497208 69.2241668701
24.7285022736 8.6615056992 69.0308151245
24.8357334137 8.6905374527 68.8355102539
24.9239292145 8.7144804001 68.6384963989
24.9923496246 8.7331352234 68.4396667480
25.0409164429 8.7464818954 68.2389755249
25.0722179413 8.7552118301 68.0366363525
25.0909309387 8.7605772018 67.8330917358
25.1025848389 8.7640542984 67.6288528442
25.1129932404 8.7671985626 67.4244918823
25.1283206940 8.7716569901 67.2206420898
25.1555557251 8.7793006897 67.0180053711
25.2029304504 8.7923278809 66.8174591064
25.2792339325 8.8130893707 66.6199493408
25.3915843964 8.8434886932 66.4262542725
25.5425243378 8.8842039108 66.2367248535
25.7279701233 8.9341449738 66.0510025024
25.9369907379 8.9903879166 65.8679962158
26.1540050507 9.0487670898 65.6860961914
26.3631305695 9.1050367355 65.5036315918
26.5522079468 9.1559467316 65.3192749023
26.7142715454 9.1996345520 65.1322250366
26.8468532562 9.2354393005 64.9421844482
26.9508781433 9.2636089325 64.7491760254
27.0299625397 9.2851114273 64.5535430908
27.0895118713 9.3013916016 64.3558502197
27.1350250244 9.3139181137 64.1566619873
27.1703433990 9.3237199783 63.9563789368
27.1971836090 9.3312549591 63.7551803589
27.2161331177 9.3366794586 63.5531158447
27.2280330658 9.3402204514 63.3502616882
27.2349338531 9.3424243927 63.1468467712
27.2406520844 9.3443126678 62.9432907104
27.2514266968 9.3475522995 62.7403221130
27.2763080597 9.3545627594 62.5390014648
27.3259239197 9.3681869507 62.3406066895
27.4090366364 9.3907642365 62.1462097168
27.5291194916 9.4232254028 61.9562950134
27.6841220856 9.4650211334 61.7706832886
27.8687400818 9.5147333145 61.5888137817
28.0753173828 9.5703153610 61.4098167419
28.2922687531 9.6286706924 61.2323341370
28.5040149689 9.6856336594 61.0544929504
28.6952991486 9.7371263504 60.8744125366
28.8572254181 9.7807703018 60.6909599304
28.9903068542 9.8167028427 60.5041427612
29.1022701263 9.8469905853 60.3148689270
29.2017059326 9.8739290237 60.1241607666
29.2925834656 9.8985795975 59.9325027466
29.3749351501 9.9209508896 59.7398757935
29.4492168427 9.9411640167 59.5463256836
29.5170154572 9.9596452713 59.3520355225
29.5777225494 9.9762296677 59.1569137573
29.6279773712 9.9900197983 58.9605178833
29.6658363342 10.0004978180 58.7625732422
29.6939430237 10.0083675385 58.5634040833
29.7182788849 10.0152292252 58.3637657166
29.7454452515 10.0228481293 58.1645240784
29.7819442749 10.0329618454 57.9665412903
29.8345603943 10.0473833084 57.7707366943
29.9085330963 10.0675125122 57.5778427124
30.0030937195 10.0931453705 57.3877906799
30.1092319489 10.1218729019 57.1994132996
30.2144355774 10.1503505707 57.0110397339
30.3114681244 10.1766433716 56.8216819763
30.4029541016 10.2014541626 56.6316871643
30.4979038239 10.2271900177 56.4422760010
30.6034584045 10.2557601929 56.2544403076
30.7178707123 10.2866983414 56.0679626465
30.8296165466 10.3169221878 55.8812522888
30.9238281250 10.3424606323 55.6922302246
30.9912338257 10.3608331680 55.4995536804
31.0323238373 10.3721723557 55.3032417297
31.0543975830 10.3784275055 55.1042785645
31.0656852722 10.3817996979 54.9038009644
31.0714797974 10.3837051392 54.7025451660
31.0736083984 10.3846292496 54.5007591248
31.0724067688 10.3846635818 54.2984886169
31.0699462891 10.3843622208 54.0960273743
31.0724411011 10.3853845596 53.8942718506
31.0897731781 10.3903722763 53.6946868896
31.1327533722 10.4022159576 53.4988822937
31.2096805573 10.4231328964 53.3081359863
31.3223552704 10.4536027908 53.1227836609
31.4625091553 10.4914188385 52.9416580200
31.6127071381 10.5319175720 52.7622108459
31.7529335022 10.5697517395 52.5814514160
31.8682022095 10.6009149551 52.3970985413
31.9524230957 10.6237792969 52.2081871033
32.0078659058 10.6389522552 52.0149955750
32.0415191650 10.6483020782 51.8185386658
32.0602035522 10.6536502838 51.6198234558
32.0670547485 10.6558361053 51.4192962646
32.0611228943 10.6546049118 51.2167968750
32.0399360657 10.6492977142 51.0119056702
32.0037841797 10.6399908066 50.8046455383
31.9592113495 10.6284322739 50.5960121155
31.9188194275 10.6179924011 50.3879699707
31.8974399567 10.6126337051 50.1828727722
31.9089679718 10.6160697937 49.9829559326
31.9664516449 10.6317882538 49.7903671265
32.0810203552 10.6627616882 49.6069755554
32.2545967102 10.7095050812 49.4332008362
32.4718437195 10.7679204941 49.2666816711
32.7029037476 10.8300266266 49.1026725769
32.9175453186 10.8877429962 48.9362869263
33.0980148315 10.9363279343 48.7645988464
33.2417259216 10.9750890732 48.5871124268
33.3568077087 11.0061969757 48.4050941467
33.4559211731 11.0330390930 48.2205810547
33.5504646301 11.0586585999 48.0354309082
33.6463966370 11.0846490860 47.8506278992
33.7432785034 11.1108942032 47.6660995483
33.8365631104 11.1361761093 47.4810867310
33.9215812683 11.1592502594 47.2947921753
33.9978103638 11.1799736023 47.1071166992
34.0711402893 11.1999235153 46.9190368652
34.1516494751 11.2217912674 46.7322692871
34.2477188110 11.2478170395 46.5482597351
34.3621063232 11.2787380219 46.3675079346
34.4938468933 11.3142967224 46.1898880005
34.6425704956 11.3543930054 46.0153656006
34.8092422485 11.3992843628 45.8441429138
34.9929847717 11.4487390518 45.6761054993
35.1881217957 11.5012369156 45.5102882385
35.3845825195 11.5540885925 45.3449478149
35.5718002319 11.6044692993 45.1782302856
35.7432174683 11.6506280899 45.0089530945
35.8980484009 11.6923542023 44.8369445801
36.0393257141 11.7304573059 44.6627159119
36.1704597473 11.7658500671 44.4868507385
36.2932739258 11.7990188599 44.3096542358
36.4079093933 11.8300027847 44.1311378479
36.5135383606 11.8585786819 43.9511337280
36.6099548340 11.8846931458 43.7695884705
36.6990127563 11.9088420868 43.5868186951
36.7828979492 11.9316072464 43.4032135010
36.8605270386 11.9527006149 43.2185630798
36.9274826050 11.9709424973 43.0320434570
36.9804039001 11.9854335785 42.8430099487
37.0206146240 11.9965286255 42.6516799927
37.0542221069 12.0058584213 42.4591712952
37.0915641785 12.0161857605 42.2673912048
37.1492309570 12.0319442749 42.0794601440
37.2528152466 12.0599727631 41.9002189636
37.4333763123 12.1085691452 41.7356147766
37.7117538452 12.1833019257 41.5897407532
38.0774917603 12.2813777924 41.4608039856
38.4828948975 12.3900508881 41.3398857117
38.8648834229 12.4924669266 41.2150115967
39.1791038513 12.5767745972 41.0776329041
39.4168586731 12.6406497955 40.9259452820
39.5944023132 12.6884365082 40.7629318237
39.7308654785 12.7252454758 40.5921821594
39.8362464905 12.7537498474 40.4155616760
39.9146575928 12.7750473022 40.2338104248
39.9719963074 12.7907142639 40.0480346680
40.0173225403 12.8031721115 39.8599624634
40.0581207275 12.8144197464 39.6710510254
40.0962715149 12.8249607086 39.4816627502
40.1288642883 12.8340148926 39.2912101746
40.1520576477 12.8405590057 39.0989265442
40.1641235352 12.8441286087 38.9044418335
40.1660308838 12.8449850082 38.7079315186
40.1607437134 12.8439178467 38.5099716187
40.1526794434 12.8421106339 38.3114356995
40.1474342346 12.8410558701 38.1134529114
40.1512222290 12.8424139023 37.9172859192
40.1701812744 12.8478269577 37.7242050171
40.2102546692 12.8588800430 37.5354499817
40.2775726318 12.8772125244 37.3523139954
40.3780784607 12.9044113159 37.1760787964
40.5147209167 12.9412651062 37.0074119568
40.6828422546 12.9865283966 36.8454208374
40.8676834106 13.0362586975 36.6871070862
41.0484886169 13.0849113464 36.5281906128
41.2087402344 13.1280708313 36.3652076721
41.3446502686 13.1647272110 36.1973342896
41.4638595581 13.1969213486 36.0261192322
41.5766296387 13.2273960114 35.8536987305
41.6888847351 13.2577314377 35.6813087463
41.8009414673 13.2880144119 35.5090103149
41.9088211060 13.3171806335 35.3359642029
42.0059700012 13.3434801102 35.1607627869
42.0854072571 13.3650465012 34.9818916321
42.1421852112 13.3805599213 34.7982559204
42.1758422852 13.3898963928 34.6097106934
42.1915664673 13.3944416046 34.4173278809
42.1982154846 13.3965625763 34.2229957581
42.2040100098 13.3984556198 34.0284805298
42.2129020691 13.4011754990 33.8346366882
42.2229766846 13.4042119980 33.6410560608
42.2274475098 13.4057512283 33.4462509155
42.2191848755 13.4038877487 33.2486495972
42.1977539063 13.3985071182 33.0481224060
42.1734886169 13.3923692703 32.8469352722
42.1642837524 13.3902549744 32.6490478516
42.1881752014 13.3969821930 32.4584999084
42.2574424744 13.4158306122 32.2780914307
42.3753089905 13.4476633072 32.1086349487
42.5342826843 13.4904756546 31.9485454559
42.7185325623 13.5400409698 31.7943401337
42.9107780457 13.5917415619 31.6421699524
43.0972595215 13.6419019699 31.4889392853
43.2666282654 13.6874914169 31.3320598602
43.4077949524 13.7255458832 31.1689758301
43.5132141113 13.7540493011 30.9979095459
43.5845909119 13.7734603882 30.8191833496
43.6327552795 13.7866697311 30.6352138519
43.6702842712 13.7970380783 30.4488525391
43.7040901184 13.8064117432 30.2616710663
43.7339477539 13.8147306442 30.0736122131
43.7555084229 13.8208341599 29.8836593628
43.7627639771 13.8231143951 29.6903972626
43.7481002808 13.8195409775 29.4920196533
43.7035903931 13.8079938889 29.2866287231
43.6265373230 13.7877540588 29.0735340118
43.5259666443 13.7612333298 28.8547935486
43.4218597412 13.7337665558 28.6350803375
43.3352012634 13.7109622955 28.4193534851
43.2777900696 13.6959705353 28.2104473114
43.2509536743 13.6891460419 28.0087356567
43.2519264221 13.6897497177 27.8136138916
43.2796249390 13.6974925995 27.6248836517
43.3346977234 13.7125463486 27.4427471161
43.4155006409 13.7344732285 27.2668666840
43.5162239075 13.7617225647 27.0958900452
43.6310234070 13.7927293777 26.9284400940
43.7595329285 13.8273992538 26.7644577026
43.9050903320 13.8666219711 26.6047801971
44.0655097961 13.9098148346 26.4489097595
44.2271308899 13.9533281326 26.2935352325
44.3701286316 13.9918661118 26.1337966919
44.4801406860 14.0215940475 25.9661293030
44.5545806885 14.0418195724 25.7898292542
44.5991859436 14.0540761948 25.6062469482
44.6210899353 14.0602684021 25.4170913696
44.6258316040 14.0618782043 25.2236919403
44.6188278198 14.0603494644 25.0273647308
44.6067962646 14.0574789047 24.8297653198
44.5962562561 14.0550060272 24.6325149536
44.5897979736 14.0536241531 24.4362697601
44.5830841064 14.0521726608 24.2399425507
44.5657310486 14.0478801727 24.0409126282
44.5267791748 14.0378198624 23.8363914490
44.4613227844 14.0206794739 23.6250858307
44.3739929199 13.9976968765 23.4081268311
44.2776641846 13.9723119736 23.1887493134
44.1884231567 13.9488191605 22.9710502625
44.1195793152 13.9307746887 22.7584552765
44.0781974792 13.9200658798 22.5528163910
44.0663070679 13.9172334671 22.3547115326
44.0846633911 13.9224786758 22.1643924713
44.1341819763 13.9360485077 21.9821567535
44.2130546570 13.9574565887 21.8075942993
44.3129081726 13.9844684601 21.6385860443
44.4189453125 14.0131311417 21.4713134766
44.5150032043 14.0391302109 21.3015613556
44.5901298523 14.0595369339 21.1264400482
44.6419868469 14.0737295151 20.9452953339
44.6750221252 14.0828952789 20.7592525482
44.6955986023 14.0887327194 20.5699539185
44.7082786560 14.0924615860 20.3785839081
44.7149734497 14.0945930481 20.1856346130
44.7155761719 14.0950965881 19.9910640717
44.7082366943 14.0934791565 19.7943687439
44.6892929077 14.0887632370 19.5945549011
44.6543388367 14.0797710419 19.3904151917
44.6010780334 14.0658893585 19.1813049316
44.5318450928 14.0477428436 18.9678153992
44.4534912109 14.0271596909 18.7517662048
44.3758316040 14.0067634583 18.5357933044
44.3106384277 13.9896955490 18.3230934143
44.2699317932 13.9791679382 18.1169586182
44.2622909546 13.9774713516 17.9197750092
44.2893371582 13.9850378036 17.7320518494
44.3446502686 14.0001516342 17.5520973206
44.4159049988 14.0195245743 17.3765850067
44.4904594421 14.0397777557 17.2020645142
44.5619087219 14.0592012405 17.0267772675
44.6327667236 14.0784673691 16.8514118195
44.7109832764 14.0996980667 16.6781711578
44.8033294678 14.1247024536 16.5089492798
44.9096641541 14.1534414291 16.3437347412
45.0206642151 14.1834259033 16.1799545288
45.1204223633 14.2104082108 16.0131664276
45.1934661865 14.2302570343 15.8390102386
45.2321777344 14.2409362793 15.6552906036
45.2391433716 14.2431402206 15.4626712799
45.2229347229 14.2391529083 15.2635078430
45.1913414001 14.2310590744 15.0599613190
45.1481246948 14.2198610306 14.8530683517
45.0954704285 14.2061433792 14.6434278488
45.0382690430 14.1912117004 14.4324140549
44.9842224121 14.1771221161 14.2222185135
44.9397544861 14.1655902863 14.0146865845
44.9070358276 14.1571960449 13.8104610443
44.8851013184 14.1516819000 13.6092853546
44.8726310730 14.1486949921 13.4108018875
44.8693275452 14.1481552124 13.2149419785
44.8756637573 14.1501913071 13.0218620300
44.8924751282 14.1550226212 12.8318223953
44.9211997986 14.1630363464 12.6452617645
44.9641761780 14.1748542786 12.4628858566
45.0233268738 14.1909923553 12.2852849960
45.0971488953 14.2110471725 12.1120491028
45.1790390015 14.2332563400 11.9412698746
45.2600822449 14.2552394867 11.7703409195
45.3340301514 14.2753286362 11.5974187851
45.3990745544 14.2930383682 11.4219541550
45.4550590515 14.3083295822 11.2438831329
45.5002632141 14.3207416534 11.0626792908
45.5313491821 14.3293848038 10.8773279190
45.5456237793 14.3335390091 10.6869983673
45.5429649353 14.3331708908 10.4916191101
45.5262336731 14.3290462494 10.2920169830
45.5004844666 14.3225145340 10.0896797180
45.4708900452 14.3149538040 9.8861427307
45.4401702881 14.3070945740 9.6822214127
45.4073944092 14.2986850739 9.4776296616
45.3692970276 14.2888565063 9.2713775635
45.3240127563 14.2771081924 9.0628881454
45.2754707336 14.2644901276 8.8533401489
45.2353363037 14.2541170120 8.6462821960
45.2195816040 14.2502536774 8.4466066360
45.2410125732 14.2563180923 8.2582778931
45.3030891418 14.2732353210 8.0824308395
45.3989753723 14.2991800308 7.9170465469
45.5156288147 14.3306684494 7.7581729889
45.6399993896 14.3642177582 7.6018257141
45.7636299133 14.3975677490 7.4454035759
45.8829231262 14.4297609329 7.2877926826
45.9962196350 14.4603528976 7.1284670830
46.1010856628 14.4886932373 6.9666595459
46.1932792664 14.5136499405 6.8010296822
46.2663536072 14.5335016251 6.6295385361
46.3128395081 14.5462551117 6.4498085976
46.3282127380 14.5507011414 6.2603688240
46.3149948120 14.5475139618 6.0619502068
46.2825202942 14.5391855240 5.8574390411
46.2413291931 14.5285301208 5.6501250267
46.1962394714 14.5168342590 5.4415163994
46.1439094543 14.5032052994 5.2305436134
46.0776557922 14.4858598709 5.0150718689
45.9968643188 14.4646320343 4.7948756218
45.9129295349 14.4425659180 4.5735635757
45.8442840576 14.4245815277 4.3570208549
45.8036231995 14.4140682220 4.1493444443
45.7907485962 14.4109745026 3.9505276680
45.7979927063 14.4132509232 3.7581560612
45.8200798035 14.4194898605 3.5705707073
45.8580207825 14.4299621582 3.3881273270
45.9157142639 14.4457073212 3.2121174335
45.9944305420 14.4670639038 3.0429925919
46.0902137756 14.4929771423 2.8795082569
46.1954612732 14.5214166641 2.7192232609
46.3016204834 14.5500993729 2.5593657494
46.4002494812 14.5767726898 2.3971781731
46.4840698242 14.5994911194 2.2302610874
46.5494384766 14.6172838211 2.0573902130
46.5974693298 14.6304473877 1.8788946867
46.6313858032 14.6398439407 1.6958038807
46.6524124146 14.6457996368 1.5084933043
46.6581916809 14.6476840973 1.3161575794
46.6453704834 14.6446027756 1.1176558733
46.6138877869 14.6365404129 0.9129309654
46.5688247681 14.6248521805 0.7036375999
46.5184669495 14.6117515564 0.4925118387
46.4711685181 14.5994682312 0.2823342383
46.4337272644 14.5898141861 0.0753855184
10.8584089279 38.9043464661 90.7312622070
10.8623914719 38.9257202148 90.5343627930
10.8708791733 38.9643707275 90.3377761841
10.8808031082 39.0085296631 90.1413192749
10.8896999359 39.0487442017 89.9448394775
10.8963003159 39.0801544189 89.7482299805
10.9002847672 39.1015357971 89.5514526367
10.9017353058 39.1131935120 89.3544998169
10.9006805420 39.1152496338 89.1573410034
10.8968200684 39.1065483093 88.9599533081
10.8894710541 39.0844688416 88.7622451782
10.8780260086 39.0466880798 88.5641403198
10.8628787994 38.9947090149 88.3656463623
10.8459749222 38.9360046387 88.1669158936
10.8300580978 38.8810806274 87.9682006836
10.8171424866 38.8376693726 87.7696914673
10.8077955246 38.8079414368 87.5714797974
10.8018465042 38.7912445068 87.3735656738
10.7997512817 38.7893142700 87.1760177612
10.8035535812 38.8100013733 86.9790802002
10.8167791367 38.8668060303 86.7831878662
10.8428812027 38.9729766846 86.5887832642
10.8830842972 39.1331939697 86.3960952759
10.9355764389 39.3405151367 86.2050094604
10.9968433380 39.5814628601 86.0152130127
11.0629663467 39.8410186768 85.8262863159
11.1290178299 40.1002883911 85.6376647949
11.1884260178 40.3340873718 85.4485168457
11.2351884842 40.5194015503 85.2580413818
11.2674236298 40.6490287781 85.0658950806
11.2882213593 40.7348175049 84.8723907471
11.3029785156 40.7974510193 84.6781616211
11.3159999847 40.8534317017 84.4837722778
11.3287220001 40.9082565308 84.2893905640
11.3399982452 40.9575462341 84.0948715210
11.3477535248 40.9933357239 83.8998870850
11.3506584167 41.0105361938 83.7042312622
11.3487462997 41.0092773438 83.5078735352
11.3430080414 40.9933547974 83.3109207153
11.3348007202 40.9679756165 83.1135635376
11.3255844116 40.9387245178 82.9160003662
11.3169336319 40.9116477966 82.7184906006
11.3106784821 40.8937492371 82.5213165283
11.3091478348 40.8939552307 82.3248748779
11.3154439926 40.9241523743 82.1297302246
11.3331995010 40.9982566833 81.9365234375
11.3651924133 41.1269111633 81.7458267212
11.4113521576 41.3098449707 81.5577239990
11.4681768417 41.5336341858 81.3716964722
11.5304775238 41.7783927917 81.1869049072
11.5933609009 42.0253791809 81.0025100708
11.6521415710 42.2566299438 80.8176727295
11.7014198303 42.4514732361 80.6313476563
11.7362060547 42.5907859802 80.4425582886
11.7546730042 42.6675796509 80.2508468628
11.7594928741 42.6920814514 80.0566024780
11.7563438416 42.6860618591 79.8608398438
11.7510652542 42.6718788147 79.6646347046
11.7474174500 42.6639442444 79.4687347412
11.7463693619 42.6659698486 79.2733306885
11.7466239929 42.6729850769 79.0781936646
11.7457704544 42.6757583618 78.8828201294
11.7416744232 42.6661109924 78.6867675781
11.7336788177 42.6415252686 78.4898681641
11.7230682373 42.6069259644 78.2923736572
11.7126064301 42.5728988647 78.0948638916
11.7056245804 42.5522041321 77.8980560303
11.7054815292 42.5577011108 77.7027206421
11.7153253555 42.6014442444 77.5095901489
11.7372245789 42.6913604736 77.3192214966
11.7708330154 42.8261222839 77.1316070557
11.8131189346 42.9941062927 76.9461364746
11.8595838547 43.1780929565 76.7618331909
11.9056529999 43.3605537415 76.5776519775
11.9477310181 43.5277290344 76.3927459717
11.9845771790 43.6748542786 76.2067871094
12.0179738998 43.8087730408 76.0201721191
12.0508804321 43.9408035278 75.8335876465
12.0842332840 44.0745391846 75.6472702026
12.1160984039 44.2025794983 75.4607391357
12.1443834305 44.3169021606 75.2734603882
12.1697092056 44.4198875427 75.0855636597
12.1944360733 44.5205764771 74.8976287842
12.2183389664 44.6181106567 74.7096023560
12.2357625961 44.6908302307 74.5199966431
12.2379627228 44.7052612305 74.3264770508
12.2190008163 44.6386680603 74.1273651123
12.1804389954 44.4970397949 73.9229202271
12.1318979263 44.3172111511 73.7155990601
12.0874395370 44.1530189514 73.5091629028
12.0600748062 44.0542716980 73.3071975708
12.0574512482 44.0502510071 73.1119461060
12.0799474716 44.1423950195 72.9236907959
12.1206703186 44.3043060303 72.7406616211
12.1677742004 44.4906387329 72.5596389771
12.2096710205 44.6570358276 72.3773422241
12.2405872345 44.7813911438 72.1920776367
12.2621536255 44.8699531555 72.0042343140
12.2803649902 44.9456672668 71.8155059814
12.3011665344 45.0312995911 71.6276321411
12.3272886276 45.1372871399 71.4414367676
12.3570871353 45.2573432922 71.2564697266
12.3859033585 45.3736419678 71.0713424683
12.4094858170 45.4698982239 70.8847503662
12.4269561768 45.5427589417 70.6963958740
12.4406623840 45.6012115479 70.5069503784
12.4529056549 45.6540641785 70.3171081543
12.4625034332 45.6967887878 70.1264953613
12.4649038315 45.7119674683 69.9336395264
12.4563188553 45.6851043701 69.7372894287
12.4371919632 45.6179008484 69.5375061035
12.4110031128 45.5236740112 69.3353347778
12.3812875748 45.4159545898 69.1318969727
12.3520841599 45.3101997375 68.9284744263
12.3304309845 45.2333450317 68.7274169922
12.3247308731 45.2175331116 68.5315704346
12.3383150101 45.2755165100 68.3421783447
12.3654928207 45.3855094910 68.1574401855
12.3956565857 45.5069313049 67.9738464355
12.4215059280 45.6118316650 67.7889099121
12.4431343079 45.7005844116 67.6026382446
12.4653434753 45.7915534973 67.4166717529
12.4921579361 45.9001426697 67.2324142456
12.5234203339 46.0257415771 67.0498580933
12.5554933548 46.1544418335 66.8677291870
12.5847425461 46.2723274231 66.6847381592
12.6100931168 46.3752975464 66.5004882813
12.6323299408 46.4663505554 66.3152236938
12.6517686844 46.5466957092 66.1290435791
12.6675405502 46.6130142212 65.9416122437
12.6786546707 46.6615104675 65.7525329590
12.6844224930 46.6895523071 65.5615234375
12.6833744049 46.6915206909 65.3679809570
12.6728649139 46.6572952271 65.1708831787
12.6512680054 46.5806617737 64.9695281982
12.6212234497 46.4717216492 64.7648544312
12.5901756287 46.3589439392 64.5596542358
12.5665788651 46.2746734619 64.3571777344
12.5546960831 46.2352104187 64.1591262817
12.5527677536 46.2338218689 63.9649047852
12.5560712814 46.2524452209 63.7727279663
12.5615825653 46.2795143127 63.5814323425
12.5701951981 46.3184394836 63.3913955688
12.5853929520 46.3825492859 63.2040328979
12.6100597382 46.4828720093 63.0205421448
12.6438293457 46.6180038452 62.8408546448
12.6827564240 46.7728576660 62.6634178162
12.7212753296 46.9261398315 62.4860000610
12.7546405792 47.0597076416 62.3066406250
12.7803697586 47.1640701294 62.1242713928
12.7985191345 47.2394485474 61.9388694763
12.8112297058 47.2940216064 61.7512741089
12.8218708038 47.3406829834 61.5628623962
12.8340702057 47.3932991028 61.3751602173
12.8504838943 47.4620285034 61.1893081665
12.8711900711 47.5471725464 61.0053710938
12.8922758102 47.6337547302 60.8216896057
12.9061403275 47.6927337646 60.6349830627
12.9045667648 47.6926803589 60.4416160583
12.8831377029 47.6167106628 60.2395477295
12.8439350128 47.4727935791 60.0295562744
12.7949485779 47.2914772034 59.8150444031
12.7469835281 47.1140747070 59.6007537842
12.7093067169 46.9760093689 59.3908348083
12.6858472824 46.8923034668 59.1871261597
12.6747961044 46.8560371399 58.9889106750
12.6721086502 46.8517456055 58.7944412231
12.6753749847 46.8702125549 58.6026763916
12.6846027374 46.9114685059 58.4136619568
12.7004852295 46.9781608582 58.2277565002
12.7229366302 47.0699577332 58.0449752808
12.7512426376 47.1841392517 57.8650245667
12.7844562531 47.3170661926 57.6875038147
12.8208436966 47.4621276855 57.5116348267
12.8575668335 47.6084632874 57.3360939026
12.8917083740 47.7449226379 57.1594963074
12.9211082458 47.8632583618 56.9807929993
12.9435663223 47.9550552368 56.7988929749
12.9562330246 48.0094299316 56.6123657227
12.9573373795 48.0196113586 56.4202919006
12.9485912323 47.9921493530 56.2234153748
12.9348058701 47.9454269409 56.0240287781
12.9206171036 47.8971672058 55.8243751526
12.9078197479 47.8542213440 55.6253395081
12.8954677582 47.8129882813 55.4264602661
12.8816671371 47.7662124634 55.2267990112
12.8654699326 47.7102851868 55.0258674622
12.8483934402 47.6510009766 54.8244132996
12.8345146179 47.6039352417 54.6244964600
12.8275680542 47.5833625793 54.4280357361
12.8263168335 47.5845527649 54.2344551086
12.8234386444 47.5795288086 54.0400276184
12.8112754822 47.5390281677 53.8407936096
12.7897682190 47.4628219604 53.6366577148
12.7679557800 47.3854560852 53.4322586060
12.7571954727 47.3503227234 53.2335319519
12.7630147934 47.3785285950 53.0434646606
12.7826013565 47.4593391418 52.8606910706
12.8086109161 47.5646820068 52.6814117432
12.8350582123 47.6716995239 52.5024909973
12.8604125977 47.7745323181 52.3231048584
12.8858709335 47.8777580261 52.1438903809
12.9114055634 47.9812736511 51.9648399353
12.9340467453 48.0737304688 51.7843360901
12.9496641159 48.1393547058 51.6001129150
12.9553527832 48.1670494080 51.4105377197
12.9498481750 48.1519851685 51.2148361206
12.9331588745 48.0942001343 51.0129394531
12.9075393677 48.0023040771 50.8060112000
12.8787279129 47.8982238770 50.5971870422
12.8545045853 47.8116683960 50.3907852173
12.8406286240 47.7646408081 50.1900711060
12.8376827240 47.7593574524 49.9954490662
12.8414287567 47.7796363831 49.8045959473
12.8459377289 47.8028297424 49.6141891479
12.8469285965 47.8125877380 49.4217948914
12.8436498642 47.8060379028 49.2269592285
12.8392162323 47.7950782776 49.0314407349
12.8395538330 47.8023376465 48.8386535645
12.8505620956 47.8503532410 48.6520538330
12.8743972778 47.9473457336 48.4729766846
12.9074192047 48.0794219971 48.2993812561
12.9416437149 48.2160835266 48.1266441345
12.9688968658 48.3261184692 47.9499588013
12.9850664139 48.3938255310 47.7668418884
12.9918212891 48.4255867004 47.5782051086
12.9948101044 48.4429588318 47.3873481750
12.9995183945 48.4668998718 47.1975364685
13.0074548721 48.5031661987 47.0096817017
13.0151929855 48.5386695862 46.8217468262
13.0168972015 48.5511398315 46.6301841736
13.0086355209 48.5255584717 46.4325675964
12.9913854599 48.4656562805 46.2294197083
12.9701042175 48.3903694153 46.0237121582
12.9496383667 48.3181991577 45.8184051514
12.9316806793 48.2556037903 45.6145477295
12.9155492783 48.1999855042 45.4117355347
12.9005947113 48.1488647461 45.2095794678
12.8870515823 48.1031341553 45.0082321167
12.8756761551 48.0656776428 44.8081741333
12.8677949905 48.0415649414 44.6102638245
12.8652582169 48.0378532410 44.4156913757
12.8694477081 48.0598182678 44.2253761292
12.8805818558 48.1082916260 44.0394973755
12.8983526230 48.1820945740 43.8579139709
12.9226598740 48.2808494568 43.6806068420
12.9530563354 48.4028396606 43.5073318481
12.9875698090 48.5405426025 43.3368644714
13.0222978592 48.6790542603 43.1666946411
13.0524120331 48.7999534607 42.9936828613
13.0742073059 48.8890991211 42.8153762817
13.0866384506 48.9425010681 42.6310272217
13.0909376144 48.9648628235 42.4413795471
13.0886774063 48.9621963501 42.2474212646
13.0800561905 48.9352493286 42.0492286682
13.0636281967 48.8785171509 41.8458023071
13.0376033783 48.7851562500 41.6358833313
13.0019626617 48.6551094055 41.4193954468
12.9600906372 48.5012855530 41.1985473633
12.9183511734 48.3479728699 40.9775848389
12.8832406998 48.2199668884 40.7609138489
12.8581333160 48.1301307678 40.5508689880
12.8424406052 48.0762290955 40.3471260071
12.8334836960 48.0480270386 40.1479148865
12.8287706375 48.0360183716 39.9515724182
12.8269214630 48.0349388123 39.7571830750
12.8275423050 48.0432853699 39.5644874573
12.8310813904 48.0627632141 39.3738174438
12.8391571045 48.0995521545 39.1863212585
12.8546857834 48.1647796631 39.0040664673
12.8803939819 48.2688369751 38.8290214539
12.9155807495 48.4090499878 38.6607627869
12.9542217255 48.5624389648 38.4951057434
12.9876613617 48.6959762573 38.3259429932
13.0099573135 48.7869987488 38.1490249634
13.0203771591 48.8327140808 37.9637413025
13.0211439133 48.8416023254 37.7715988159
13.0138835907 48.8198738098 37.5736999512
12.9982004166 48.7660102844 37.3697013855
12.9727792740 48.6750068665 37.1585884094
12.9375982285 48.5467758179 36.9402809143
12.8955249786 48.3922653198 36.7167892456
12.8517646790 48.2313232422 36.4918670654
12.8109922409 48.0817832947 36.2689208984
12.7748270035 47.9498214722 36.0491638184
12.7428827286 47.8339653015 35.8323402405
12.7165012360 47.7393302917 35.6194725037
12.7001924515 47.6831169128 35.4139480591
12.6982002258 47.6815071106 35.2189865112
12.7098760605 47.7320251465 35.0342140198
12.7293462753 47.8122634888 34.8553276062
12.7499351501 47.8967704773 34.6773719788
12.7685852051 47.9738769531 34.4980506897
12.7863216400 48.0475006104 34.3181266785
12.8054037094 48.1262474060 34.1393013000
12.8264188766 48.2123718262 33.9620361328
12.8475332260 48.2988624573 33.7849464417
12.8657045364 48.3741302490 33.6056976318
12.8784427643 48.4286804199 33.4223670959
12.8847656250 48.4587669373 33.2341537476
12.8848276138 48.4649772644 33.0411338806
12.8788995743 48.4483528137 32.8434753418
12.8669967651 48.4089431763 32.6411399841
12.8496131897 48.3486404419 32.4344749451
12.8283042908 48.2733764648 32.2246551514
12.8048219681 48.1898269653 32.0130310059
12.7794389725 48.0990333557 31.7997951508
12.7505044937 47.9947052002 31.5836372375
12.7162742615 47.8701896667 31.3631477356
12.6780986786 47.7306442261 31.1393623352
12.6425180435 47.6009902954 30.9174594879
12.6195430756 47.5194015503 30.7054481506
12.6171913147 47.5164299011 30.5098400116
12.6361722946 47.5947799683 30.3313484192
12.6689214706 47.7256164551 30.1640377045
12.7037334442 47.8643074036 29.9985446930
12.7308082581 47.9734992981 29.8269443512
12.7458019257 48.0366401672 29.6456546783
12.7493257523 48.0560569763 29.4550857544
12.7446660995 48.0442848206 29.2578430176
12.7360286713 48.0173530579 29.0573158264
12.7272720337 47.9899635315 28.8566455841
12.7207708359 47.9711723328 28.6577911377
12.7172021866 47.9635581970 28.4613304138
12.7164192200 47.9665679932 28.2671585083
12.7181262970 47.9790611267 28.0750503540
12.7214298248 47.9976425171 27.8842811584
12.7240753174 48.0137138367 27.6929740906
12.7225980759 48.0140724182 27.4982185364
12.7133350372 47.9847640991 27.2969074249
12.6934099197 47.9148216248 27.0865554810
12.6617603302 47.8002052307 26.8661880493
12.6205511093 47.6491699219 26.6375617981
12.5756778717 47.4841728210 26.4056186676
12.5347347260 47.3341560364 26.1768131256
12.5033521652 47.2205848694 25.9559898376
12.4829387665 47.1488075256 25.7444210052
12.4714393616 47.1109962463 25.5404205322
12.4657001495 47.0951385498 25.3413314819
12.4631862640 47.0915718079 25.1450023651
12.4623394012 47.0943527222 24.9501037598
12.4622497559 47.1000175476 24.7558574677
12.4623231888 47.1063117981 24.5617504120
12.4621257782 47.1115684509 24.3674049377
12.4612922668 47.1144027710 24.1724987030
12.4594917297 47.1135520935 23.9767360687
12.4563713074 47.1076736450 23.7797985077
12.4514474869 47.0949287415 23.5812492371
12.4438762665 47.0720939636 23.3803291321
12.4322900772 47.0339698792 23.1758022308
12.4151325226 46.9746246338 22.9662532806
12.3917169571 46.8914413452 22.7510318756
12.3634891510 46.7899322510 22.5313835144
12.3344602585 46.6853752136 22.3108825684
12.3103284836 46.5994796753 22.0946483612
12.2967147827 46.5536460876 21.8877944946
12.2972412109 46.5616760254 21.6936740875
12.3120307922 46.6240310669 21.5124988556
12.3373746872 46.7265777588 21.3409957886
12.3673667908 46.8468284607 21.1738510132
12.3968162537 46.9650077820 21.0063495636
12.4230546951 47.0709533691 20.8360424042
12.4455385208 47.1625938416 20.6624031067
12.4648008347 47.2419624329 20.4858989716
12.4819545746 47.3133010864 20.3075370789
12.4980010986 47.3804168701 20.1282272339
12.5127849579 47.4427223206 19.9478168488
12.5249319077 47.4949874878 19.7650203705
12.5330209732 47.5317993164 19.5784893036
12.5364494324 47.5508613586 19.3876323700
12.5351066589 47.5517539978 19.1923103333
12.5286874771 47.5333175659 18.9922046661
12.5168142319 47.4941139221 18.7869205475
12.4999570847 47.4359397888 18.5768661499
12.4799594879 47.3658027649 18.3637504578
12.4590797424 47.2923164368 18.1496982574
12.4382553101 47.2190399170 17.9355983734
12.4165000916 47.1422271729 17.7205085754
12.3920316696 47.0550842285 17.5027141571
12.3637104034 46.9532737732 17.2811031342
12.3319263458 46.8382911682 17.0560226440
12.2995595932 46.7210922241 16.8302268982
12.2726163864 46.6245460510 16.6095199585
12.2582845688 46.5760116577 16.4009075165
12.2602939606 46.5896873474 16.2081031799
12.2757091522 46.6543960571 16.0283660889
12.2966852188 46.7402725220 15.8541316986
12.3155860901 46.8182487488 15.6779623032
12.3287754059 46.8744735718 15.4962749481
12.3365774155 46.9101943970 15.3093490601
12.3408784866 46.9325904846 15.1190071106
12.3430957794 46.9470520020 14.9266223907
12.3436174393 46.9550590515 14.7325649261
12.3421850204 46.9556274414 14.5365676880
12.3383684158 46.9471244812 14.3381891251
12.3317613602 46.9280014038 14.1370038986
12.3218193054 46.8961830139 13.9324483871
12.3076066971 46.8481140137 13.7235622406
12.2879676819 46.7794036865 13.5091524124
12.2624301910 46.6882362366 13.2887039185
12.2323026657 46.5796127319 13.0634975433
12.2009315491 46.4662590027 12.8368854523
12.1725625992 46.3643341064 12.6131687164
12.1504735947 46.2863121033 12.3957014084
12.1356725693 46.2360229492 12.1855535507
12.1270837784 46.2093811035 11.9816808701
12.1228647232 46.1993675232 11.7822408676
12.1216163635 46.2006568909 11.5858268738
12.1228399277 46.2113533020 11.3919477463
12.1269607544 46.2330703735 11.2010593414
12.1351919174 46.2704277039 11.0144357681
12.1487474442 46.3280410767 10.8333663940
12.1667842865 46.4027061462 10.6570110321
12.1843395233 46.4755363464 10.4802389145
12.1934556961 46.5162506104 10.2947435379
12.1884050369 46.5030746460 10.0944805145
12.1703577042 46.4404487610 9.8805713654
12.1459875107 46.3537712097 9.6599330902
12.1214008331 46.2662734985 9.4389486313
12.0979413986 46.1830711365 9.2190351486
12.0733842850 46.0956916809 8.9978456497
12.0462617874 45.9985580444 8.7738189697
12.0193128586 45.9020881653 8.5498456955
11.9993104935 45.8320503235 8.3331365585
11.9930543900 45.8143043518 8.1309947968
12.0025043488 45.8563003540 7.9456152916
12.0234975815 45.9422035217 7.7726473808
12.0494165421 46.0468368530 7.6050672531
12.0760278702 46.1541023254 7.4383530617
12.1026868820 46.2615432739 7.2718153000
12.1297502518 46.3705177307 7.1058378220
12.1560468674 46.4765739441 6.9391574860
12.1789627075 46.5697669983 6.7689270973
12.1962165833 46.6414222717 6.5926418304
12.2072277069 46.6893386841 6.4096288681
12.2130079269 46.7173576355 6.2209477425
12.2150897980 46.7313079834 6.0282406807
12.2146091461 46.7355155945 5.8327274323
12.2121038437 46.7320213318 5.6349825859
12.2077188492 46.7213821411 5.4351501465
12.2013053894 46.7030296326 5.2330546379
12.1922254562 46.6745376587 5.0279726982
12.1791286469 46.6307754517 4.8183879852
12.1603755951 46.5655021667 4.6024479866
12.1355075836 46.4769821167 4.3796019554
12.1067934036 46.3738441467 4.1523399353
12.0789260864 46.2739295959 3.9258873463
12.0565099716 46.1947441101 3.7054128647
12.0416164398 46.1441650391 3.4932847023
12.0336723328 46.1200103760 3.2889106274
12.0312747955 46.1169433594 3.0907566547
12.0339059830 46.1329994202 2.8982768059
12.0422601700 46.1708068848 2.7122933865
12.0573129654 46.2340850830 2.5339565277
12.0789756775 46.3224868774 2.3632118702
12.1051025391 46.4278526306 2.1976597309
12.1312866211 46.5334396362 2.0322952271
12.1519250870 46.6179389954 1.8607014418
12.1626863480 46.6648826599 1.6778658628
12.1629924774 46.6720886230 1.4830558300
12.1561717987 46.6522026062 1.2800303698
12.1466569901 46.6220741272 1.0738587379
12.1366062164 46.5899162292 0.8670205474
12.1250000000 46.5518417358 0.6583270431
12.1097307205 46.4998435974 0.4453191459
12.0903568268 46.4322547913 0.2274583429
12.0691308975 46.3576240540 0.0073407963
31.3625698090 -5.7168922424 89.5151062012
31.3974056244 -5.7251124382 89.3149948120
31.4540004730 -5.7386870384 89.1156234741
31.5169296265 -5.7538208961 88.9165191650
31.5672779083 -5.7658591270 88.7170715332
31.5867137909 -5.7702903748 88.5166168213
31.5596485138 -5.7632770538 88.3145523071
31.4785346985 -5.7429637909 88.1105117798
31.3565139771 -5.7125830650 87.9048767090
31.2332458496 -5.6818943024 87.6990356445
31.1531906128 -5.6618409157 87.4946441650
31.1258583069 -5.6547617912 87.2921600342
31.1103630066 -5.6505956650 87.0900955200
31.0471191406 -5.6346783638 86.8861083984
30.9057197571 -5.5995268822 86.6789016724
30.7033462524 -5.5493698120 86.4690170288
30.4863281250 -5.4956073761 86.2582626343
30.3027839661 -5.4500827789 86.0486221313
30.1910285950 -5.4222254753 85.8418121338
30.1881847382 -5.4211716652 85.6395645142
30.3425121307 -5.4587988853 85.4442214966
30.6991252899 -5.5462107658 85.2580871582
31.2514419556 -5.6817884445 85.0812683105
31.9067211151 -5.8427076340 84.9098663330
32.5232124329 -5.9940814972 84.7375030518
32.9946823120 -6.1097655296 84.5590667725
33.2977256775 -6.1839985847 84.3731765747
