46.7981872559 -22.2344036102 11.9892673492
46.8353843689 -22.2507133484 11.8063135147
46.8922729492 -22.2762966156 11.6291208267
46.9635047913 -22.3086338043 11.4561710358
47.0438308716 -22.3452548981 11.2859621048
47.1253700256 -22.3824481964 11.1162042618
47.1982879639 -22.4155807495 10.9440183640
47.2549171448 -22.4410438538 10.7671356201
47.2931022644 -22.4578227997 10.5848846436
47.3157997131 -22.4673061371 10.3981037140
47.3280258179 -22.4718608856 10.2082443237
47.3339538574 -22.4734497070 10.0165243149
47.3358612061 -22.4731445313 9.8236074448
47.3343963623 -22.4712505341 9.6296777725
47.3292694092 -22.4676322937 9.4346427917
47.3200683594 -22.4620952606 9.2383728027
47.3071517944 -22.4548091888 9.0409650803
47.2922782898 -22.4465999603 8.8429412842
47.2787475586 -22.4390239716 8.6452932358
47.2710952759 -22.4342155457 8.4493923187
47.2746276855 -22.4346752167 8.2568550110
47.2947082520 -22.4429264069 8.0693302155
47.3350524902 -22.4607238770 7.8879833221
47.3951988220 -22.4878482819 7.7127122879
47.4698448181 -22.5218009949 7.5419387817
47.5523643494 -22.5594615936 7.3736639023
47.6393089294 -22.5992088318 7.2068476677
47.7307052612 -22.6410522461 7.0415062904
47.8268089294 -22.6851139069 6.8777279854
47.9265632629 -22.7308959961 6.7151956558
48.0284347534 -22.7776756287 6.5534424782
48.1301078796 -22.8243637085 6.3917546272
48.2268905640 -22.8687477112 6.2286744118
48.3121337891 -22.9076976776 6.0621213913
48.3802185059 -22.9385662079 5.8903198242
48.4289474487 -22.9603195190 5.7125482559
48.4590301514 -22.9732875824 5.5289878845
48.4717407227 -22.9780750275 5.3400030136
48.4673728943 -22.9748172760 5.1456499100
48.4452171326 -22.9631805420 4.9456715584
48.4043846130 -22.9427452087 4.7397503853
48.3451461792 -22.9136409760 4.5279340744
48.2705192566 -22.8772850037 4.3111433983
48.1867828369 -22.8366394043 4.0913453102
48.1020927429 -22.7955417633 3.8711202145
48.0249061584 -22.7579784393 3.6531682014
47.9637222290 -22.7279548645 3.4402256012
47.9267349243 -22.7093276978 3.2349507809
47.9199981689 -22.7049522400 3.0393416882
47.9454536438 -22.7157402039 2.8540821075
48.0000343323 -22.7402477264 2.6782474518
48.0759696960 -22.7748184204 2.5093853474
48.1627082825 -22.8144779205 2.3441157341
48.2503395081 -22.8545589447 2.1792440414
48.3323783875 -22.8920040131 2.0126600266
48.4053688049 -22.9251899719 1.8432248831
48.4663009644 -22.9526939392 1.6699370146
48.5114593506 -22.9727668762 1.4915555716
48.5376930237 -22.9839248657 1.3070148230
48.5435829163 -22.9854984283 1.1158089638
48.5294189453 -22.9776248932 0.9179931879
48.4976539612 -22.9614562988 0.7143350840
48.4534950256 -22.9394493103 0.5065243244
48.4032592773 -22.9145793915 0.2966295779
48.3507499695 -22.8886375427 0.0859019384
-15.7413892746 -37.5388641357 92.6755752563
-15.7512941360 -37.5606460571 92.4810333252
-15.7683973312 -37.5982131958 92.2869186401
-15.7920827866 -37.6502113342 92.0932312012
-15.8215465546 -37.7148780823 91.8999481201
-15.8548049927 -37.7878646851 91.7069702148
-15.8883628845 -37.8615074158 91.5141143799
-15.9182491302 -37.9270973206 91.3211059570
-15.9416484833 -37.9784660339 91.1277542114
-15.9579801559 -38.0143432617 90.9339981079
-15.9684848785 -38.0374412537 90.7398757935
-15.9743299484 -38.0503273010 90.5454559326
-15.9748821259 -38.0516052246 90.3506698608
-15.9676837921 -38.0358924866 90.1553039551
-15.9499244690 -37.9970245361 89.9591217041
-15.9199514389 -37.9313812256 89.7619552612
-15.8778820038 -37.8392143250 89.5637512207
-15.8255729675 -37.7245979309 89.3646011353
-15.7670440674 -37.5963478088 89.1647872925
-15.7090349197 -37.4692382813 88.9648284912
-15.6595020294 -37.3607101440 88.7653961182
-15.6241302490 -37.2832298279 88.5670166016
-15.6045160294 -37.2402954102 88.3698806763
-15.6002426147 -37.2309951782 88.1740264893
-15.6120738983 -37.2570037842 87.9795913696
-15.6420221329 -37.3227310181 87.7868347168
-15.6899204254 -37.4278144836 87.5958175659
-15.7511491776 -37.5621223450 87.4061889648
-15.8194150925 -37.7118568420 87.2174072266
-15.8913393021 -37.8696136475 87.0291748047
-15.9663524628 -38.0341415405 86.8414611816
-16.0423069000 -38.2007369995 86.6540527344
-16.1135921478 -38.3570938110 86.4663925171
-16.1741237640 -38.4898719788 86.2778320313
-16.2207622528 -38.5921897888 86.0879898071
-16.2536277771 -38.6643142700 85.8968200684
-16.2742633820 -38.7096252441 85.7044219971
-16.2841148376 -38.7312889099 85.5109100342
-16.2844142914 -38.7320137024 85.3163604736
-16.2769908905 -38.7158088684 85.1209335327
-16.2646141052 -38.6887435913 84.9249191284
-16.2503509521 -38.6575431824 84.7286376953
-16.2367362976 -38.6277618408 84.5323867798
-16.2254772186 -38.6031455994 84.3363571167
-16.2176017761 -38.5859489441 84.1406936646
-16.2136878967 -38.5774383545 83.9454803467
-16.2141342163 -38.5784835815 83.7507781982
-16.2193164825 -38.5899124146 83.5566558838
-16.2293968201 -38.6120834351 83.3631591797
-16.2438316345 -38.6437988281 83.1702346802
-16.2611885071 -38.6819229126 82.9777221680
-16.2799930573 -38.7232170105 82.7854385376
-16.3001823425 -38.7675514221 82.5933837891
-16.3236637115 -38.8190994263 82.4018249512
-16.3528633118 -38.8831863403 82.2110900879
-16.3880710602 -38.9604415894 82.0212631226
-16.4260616302 -39.0438003540 81.8319091797
-16.4618129730 -39.1222534180 81.6423492432
-16.4919166565 -39.1883163452 81.4520950317
-16.5162391663 -39.2417106628 81.2611007690
-16.5364990234 -39.2861976624 81.0695877075
-16.5536670685 -39.3239059448 80.8776855469
-16.5667896271 -39.3527450562 80.6852264404
-16.5740203857 -39.3686676025 80.4919281006
-16.5745582581 -39.3699111938 80.2976455688
-16.5695743561 -39.3590583801 80.1025161743
-16.5611915588 -39.3407478333 79.9068450928
-16.5503673553 -39.3170814514 79.7107696533
-16.5359001160 -39.2854309082 79.5140838623
-16.5159454346 -39.2417526245 79.3164825439
-16.4910869598 -39.1873245239 79.1180343628
-16.4665966034 -39.1336975098 78.9195709229
-16.4518508911 -39.1014366150 78.7225875854
-16.4561443329 -39.1109237671 78.5286636353
-16.4826431274 -39.1690864563 78.3384017944
-16.5254383087 -39.2629776001 78.1509094238
-16.5734462738 -39.3682975769 77.9644165039
-16.6182212830 -39.4665336609 77.7775115967
-16.6584339142 -39.5547637939 77.5899581909
-16.6975975037 -39.6406936646 77.4023284912
-16.7385807037 -39.7306137085 77.2151336670
-16.7804279327 -39.8224258423 77.0281982422
-16.8197212219 -39.9086418152 76.8409347534
-16.8540134430 -39.9838905334 76.6528854370
-16.8833141327 -40.0481987000 76.4640350342
-16.9085922241 -40.1036834717 76.2745361328
-16.9296436310 -40.1499061584 76.0843353271
-16.9447631836 -40.1831245422 75.8930969238
-16.9519424438 -40.1989288330 75.7004165649
-16.9499912262 -40.1947212219 75.5060501099
-16.9389724731 -40.1706352234 75.3099517822
-16.9204101563 -40.1300086975 75.1123733521
-16.8972167969 -40.0792274475 74.9138488770
-16.8728160858 -40.0257987976 74.7150115967
-16.8500499725 -39.9759559631 74.5164108276
-16.8315620422 -39.9354934692 74.3185729980
-16.8214454651 -39.9133796692 74.1223297119
-16.8247871399 -39.9207763672 73.9287261963
-16.8434486389 -39.9617576599 73.7381973267
-16.8730220795 -40.0266647339 73.5499191284
-16.9073295593 -40.1019477844 73.3626937866
-16.9465732574 -40.1880531311 73.1765670776
-16.9977130890 -40.3002395630 72.9930191040
-17.0645523071 -40.4468460083 72.8128814697
-17.1395187378 -40.6112670898 72.6346359253
-17.2077255249 -40.7608680725 72.4551849365
-17.2583713531 -40.8719711304 72.2721939087
-17.2906646729 -40.9428405762 72.0854187012
-17.3103675842 -40.9861068726 71.8960113525
-17.3234806061 -41.0149192810 71.7052307129
-17.3331127167 -41.0361061096 71.5137100220
-17.3397865295 -41.0508041382 71.3215637207
-17.3428516388 -41.0575942993 71.1286315918
-17.3416919708 -41.0551185608 70.9347457886
-17.3363876343 -41.0435562134 70.7399291992
-17.3277034760 -41.0245895386 70.5443191528
-17.3164272308 -40.9999351501 70.3480758667
-17.3023338318 -40.9691085815 70.1511535645
-17.2838191986 -40.9285812378 69.9531555176
-17.2596454620 -40.8756523132 69.7537841797
-17.2324657440 -40.8161354065 69.5536270142
-17.2101516724 -40.7672805786 69.3545227051
-17.2015113831 -40.7484092712 69.1585769653
-17.2101154327 -40.7673416138 68.9667129517
-17.2334442139 -40.8185539246 68.7783966064
-17.2675609589 -40.8934173584 68.5927505493
-17.3103370667 -40.9872703552 68.4092941284
-17.3598155975 -41.0958099365 68.2276000977
-17.4116630554 -41.2095489502 68.0466308594
-17.4603462219 -41.3163452148 67.8650283813
-17.5030002594 -41.4099273682 67.6820602417
-17.5411834717 -41.4937095642 67.4980926514
-17.5779743195 -41.5744361877 67.3138809204
-17.6137065887 -41.6528434753 67.1295013428
-17.6452198029 -41.7220001221 66.9441452026
-17.6685886383 -41.7733001709 66.7567901611
-17.6815509796 -41.8017883301 66.5668182373
-17.6835594177 -41.8062591553 66.3740234375
-17.6748447418 -41.7872200012 66.1784362793
-17.6563472748 -41.7467346191 65.9802474976
-17.6306228638 -41.6904029846 65.7800827026
-17.6021652222 -41.6280860901 65.5791091919
-17.5760993958 -41.5710105896 65.3786773682
-17.5566883087 -41.5285186768 65.1799468994
-17.5476455688 -41.5087623596 64.9839477539
-17.5533771515 -41.5213966370 64.7919235229
-17.5785770416 -41.5767135620 64.6052246094
-17.6258907318 -41.6805114746 64.4246673584
-17.6934261322 -41.8286399841 64.2498245239
-17.7741470337 -42.0056762695 64.0788345337
-17.8585815430 -42.1908531189 63.9091224670
-17.9393272400 -42.3679466248 63.7386169434
-18.0131435394 -42.5298423767 63.5663909912
-18.0791931152 -42.6747169495 63.3921813965
-18.1366653442 -42.8007850647 63.2157135010
-18.1844940186 -42.9057121277 63.0366477966
-18.2222633362 -42.9885787964 62.8548202515
-18.2504158020 -43.0503692627 62.6703109741
-18.2698478699 -43.0930404663 62.4833450317
-18.2816314697 -43.1189422607 62.2941856384
-18.2869510651 -43.1306724548 62.1031532288
-18.2871017456 -43.1310691833 61.9106025696
-18.2832527161 -43.1226997375 61.7168540955
-18.2758274078 -43.1064872742 61.5220184326
-18.2633590698 -43.0792236328 61.3256378174
-18.2418861389 -43.0322151184 61.1264915466
-18.2068176270 -42.9553985596 60.9231529236
-18.1575450897 -42.8474464417 60.7153701782
-18.1009101868 -42.7233505249 60.5051765442
-18.0492286682 -42.6101112366 60.2963294983
-18.0148315430 -42.5347747803 60.0926628113
-18.0075798035 -42.5189399719 59.8973197937
-18.0362205505 -42.5817985535 59.7131500244
-18.1066837311 -42.7363471985 59.5421867371
-18.2139110565 -42.9714927673 59.3830146790
-18.3366336823 -43.2406120300 59.2290725708
-18.4462738037 -43.4810485840 59.0713233948
-18.5242538452 -43.6520729065 58.9037742615
-18.5702075958 -43.7528915405 58.7261619568
-18.5952701569 -43.8078994751 58.5419311523
-18.6111049652 -43.8426856995 58.3547782898
-18.6248188019 -43.8728179932 58.1669731140
-18.6397151947 -43.9055442810 57.9795913696
-18.6570453644 -43.9436035156 57.7930412292
-18.6757564545 -43.9846954346 57.6069946289
-18.6914520264 -44.0191726685 57.4199943542
-18.6980934143 -44.0337982178 57.2300186157
-18.6929111481 -44.0225105286 57.0360908508
-18.6790885925 -43.9922714233 56.8392295837
-18.6624031067 -43.9557571411 56.6413536072
-18.6457443237 -43.9193038940 56.4434280396
-18.6273918152 -43.8791351318 56.2448654175
-18.6039772034 -43.8278732300 56.0445098877
-18.5752334595 -43.7649269104 55.8422355652
-18.5465354919 -43.7020759583 55.6398849487
-18.5261573792 -43.6574707031 55.4403266907
-18.5189418793 -43.6417198181 55.2452850342
-18.5229244232 -43.6505203247 55.0541343689
-18.5323047638 -43.6711502075 54.8648834229
-18.5424938202 -43.6935577393 54.6759376526
-18.5521640778 -43.7148246765 54.4868316650
-18.5624160767 -43.7373695374 54.2979545593
-18.5758819580 -43.7669601440 54.1102485657
-18.5968360901 -43.8129653931 53.9252624512
-18.6306800842 -43.8872299194 53.7449798584
-18.6807804108 -43.9971351624 53.5706787109
-18.7437248230 -44.1351928711 53.4011917114
-18.8082771301 -44.2767829895 53.2324752808
-18.8615798950 -44.3937072754 53.0598182678
-18.8977317810 -44.4730339050 52.8810043335
-18.9201965332 -44.5223503113 52.6972274780
-18.9361228943 -44.5573348999 52.5110816956
-18.9489898682 -44.5856094360 52.3238372803
-18.9562664032 -44.6016311646 52.1345329285
-18.9519195557 -44.5921669006 51.9408721924
-18.9295425415 -44.5431785583 51.7403907776
-18.8853263855 -44.4463081360 51.5315589905
-18.8224506378 -44.3085365295 51.3154907227
-18.7536811829 -44.1578369141 51.0969734192
-18.6962623596 -44.0320281982 50.8825912476
-18.6614494324 -43.9557723999 50.6767234802
-18.6494026184 -43.9294281006 50.4795417786
-18.6552600861 -43.9423408508 50.2892570496
-18.6792659760 -43.9950370789 50.1060447693
-18.7288475037 -44.1038017273 49.9328994751
-18.8091793060 -44.2799797058 49.7719573975
-18.9127559662 -44.5071258545 49.6204071045
-19.0209674835 -44.7444267273 49.4709968567
-19.1173324585 -44.9557533264 49.3172035217
-19.1987953186 -45.1344146729 49.1577529907
-19.2733573914 -45.2979431152 48.9957847595
-19.3470878601 -45.4596519470 48.8336982727
-19.4149513245 -45.6084976196 48.6694602966
-19.4645004272 -45.7171897888 48.4980163574
-19.4864616394 -45.7654037476 48.3155097961
-19.4807224274 -45.7528877258 48.1217727661
-19.4547386169 -45.6959953308 47.9197273254
-19.4188919067 -45.6174736023 47.7135505676
-19.3826866150 -45.5381660461 47.5071067810
-19.3521900177 -45.4713783264 47.3029060364
-19.3284759521 -45.4194564819 47.1014175415
-19.3072509766 -45.3729934692 46.9008903503
-19.2801761627 -45.3137054443 46.6978416443
-19.2386512756 -45.2227363586 46.4886398315
-19.1802864075 -45.0948524475 46.2722091675
-19.1143245697 -44.9503097534 46.0523872375
-19.0596580505 -44.8305320740 45.8371429443
-19.0344371796 -44.7753067017 45.6342620850
-19.0449600220 -44.7984466553 45.4465675354
-19.0825920105 -44.8810157776 45.2705192566
-19.1301708221 -44.9853897095 45.0988578796
-19.1722869873 -45.0777854919 44.9249687195
-19.2019023895 -45.1427803040 44.7457885742
-19.2199630737 -45.1824455261 44.5616607666
-19.2308025360 -45.2062759399 44.3744316101
-19.2382316589 -45.2226333618 44.1857337952
-19.2443084717 -45.2360191345 43.9964561462
-19.2497730255 -45.2480659485 43.8069152832
-19.2547378540 -45.2590217590 43.6171684265
-19.2592430115 -45.2689628601 43.4272193909
-19.2637596130 -45.2789344788 43.2372817993
-19.2699279785 -45.2925224304 43.0480842590
-19.2812042236 -45.3173141479 42.8611946106
-19.3026504517 -45.3643951416 42.6789016724
-19.3389549255 -45.4440574646 42.5033760071
-19.3910789490 -45.5583953857 42.3351173401
-19.4536247253 -45.6955795288 42.1717453003
-19.5158119202 -45.8319778442 42.0083885193
-19.5666923523 -45.9435920715 41.8400421143
-19.6009864807 -46.0188407898 41.6642265320
-19.6204986572 -46.0616874695 41.4816970825
-19.6307258606 -46.0841712952 41.2949295044
-19.6367568970 -46.0974655151 41.1062393188
-19.6416511536 -46.1082611084 40.9170303345
-19.6468219757 -46.1196632385 40.7279586792
-19.6530017853 -46.1332778931 40.5393638611
-19.6609249115 -46.1507186890 40.3516006470
-19.6718368530 -46.1747055054 40.1652603149
-19.6873817444 -46.2088546753 39.9811363220
-19.7086925507 -46.2556419373 39.7997856140
-19.7357444763 -46.3150138855 39.6212196350
-19.7682247162 -46.3862876892 39.4453201294
-19.8061408997 -46.4694786072 39.2721138000
-19.8476696014 -46.5605888367 39.1007461548
-19.8872852325 -46.6475028992 38.9285774231
-19.9185428619 -46.7160949707 38.7524795532
-19.9384803772 -46.7598724365 38.5709800720
-19.9477748871 -46.7803153992 38.3843574524
-19.9474315643 -46.7796325684 38.1930541992
-19.9370613098 -46.7569618225 37.9968299866
-19.9160137177 -46.7108917236 37.7953300476
-19.8840465546 -46.6408767700 37.5883750916
-19.8391265869 -46.5424652100 37.3749198914
-19.7762050629 -46.4045944214 37.1524009705
-19.6926670074 -46.2215194702 36.9194374084
-19.5981578827 -46.0144004822 36.6807441711
-19.5178813934 -45.8384780884 36.4488677979
-19.4827823639 -45.7616004944 36.2393989563
-19.5122394562 -45.8262481689 36.0622940063
-19.6007976532 -46.0204544067 35.9150848389
-19.7187976837 -46.2792129517 35.7830390930
-19.8290615082 -46.5210075378 35.6474189758
-19.9078826904 -46.6938743591 35.4961128235
-19.9529819489 -46.7928085327 35.3278198242
-19.9751186371 -46.8414077759 35.1478958130
-19.9858760834 -46.8650588989 34.9621849060
-19.9920501709 -46.8786582947 34.7741355896
-19.9963283539 -46.8881072998 34.5851211548
-19.9995708466 -46.8952827454 34.3955726624
-20.0021705627 -46.9010505676 34.2056884766
-20.0043869019 -46.9059791565 34.0156059265
-20.0061931610 -46.9100036621 33.8253097534
-20.0068950653 -46.9116096497 33.6344299316
-20.0043811798 -46.9061660767 33.4418525696
-19.9938697815 -46.8831901550 33.2450408936
-19.9672183990 -46.8248291016 33.0396575928
-19.9151954651 -46.7108497620 32.8207244873
-19.8336029053 -46.5320472717 32.5858955383
-19.7291278839 -46.3030776978 32.3386039734
-19.6186771393 -46.0610084534 32.0877914429
-19.5215206146 -45.8480834961 31.8437690735
-19.4502868652 -45.6919898987 31.6133880615
-19.4072265625 -45.5976562500 31.3979797363
-19.3873100281 -45.5540618896 31.1949558258
-19.3849163055 -45.5488815308 31.0013675690
-19.3990211487 -45.5798721313 30.8167419434
-19.4332771301 -45.6550369263 30.6431446075
-19.4906177521 -45.7808074951 30.4822731018
-19.5666122437 -45.9474792480 30.3318023682
-19.6489887238 -46.1281356812 30.1850643158
-19.7255878448 -46.2961273193 30.0353813171
-19.7927265167 -46.4433822632 29.8806896210
-19.8541927338 -46.5781974792 29.7230472565
-19.9127922058 -46.7067337036 29.5639896393
-19.9652595520 -46.8218193054 29.4016799927
-20.0055351257 -46.9101829529 29.2327041626
-20.0307388306 -46.9655036926 29.0553913116
-20.0426712036 -46.9917259216 28.8706817627
-20.0447177887 -46.9962806702 28.6804275513
-20.0382671356 -46.9822120667 28.4853687286
-20.0216407776 -46.9458312988 28.2845115662
-19.9923076630 -46.8815917969 28.0763740540
-19.9511756897 -46.7914886475 27.8614139557
-19.9050350189 -46.6904029846 27.6434593201
-19.8635711670 -46.5995712280 27.4280338287
-19.8332290649 -46.5331230164 27.2188644409
-19.8142242432 -46.4915275574 27.0161247253
-19.8028030396 -46.4665565491 26.8176975250
-19.7948017120 -46.4490814209 26.6212081909
-19.7866916656 -46.4313697815 26.4246234894
-19.7740955353 -46.4038238525 26.2253932953
-19.7506046295 -46.3523941040 26.0197601318
-19.7101402283 -46.2637519836 25.8041133881
-19.6528835297 -46.1383018494 25.5784854889
-19.5889358521 -45.9981803894 25.3487377167
-19.5334663391 -45.8766479492 25.1237869263
-19.4967117310 -45.7961387634 24.9097232819
-19.4789466858 -45.7572593689 24.7067966461
-19.4740314484 -45.7465515137 24.5114421844
-19.4755363464 -45.7499198914 24.3198909760
-19.4796791077 -45.7590675354 24.1299114227
-19.4849853516 -45.7707710266 23.9406337738
-19.4910774231 -45.7841949463 23.7518348694
-19.4978809357 -45.7991752625 23.5634727478
-19.5053234100 -45.8155593872 23.3755092621
-19.5131282806 -45.8327407837 23.1877803802
-19.5203819275 -45.8487091064 22.9997329712
-19.5253162384 -45.8595924377 22.8102874756
-19.5260772705 -45.8613281250 22.6183071136
-19.5214099884 -45.8511657715 22.4230022430
-19.5093688965 -45.8248367310 22.2231578827
-19.4859294891 -45.7735214233 22.0162715912
-19.4481353760 -45.6907310486 21.8004665375
-19.4001941681 -45.5857048035 21.5782756805
-19.3541793823 -45.4848937988 21.3571243286
-19.3223266602 -45.4151382446 21.1446056366
-19.3087005615 -45.3853302002 20.9433135986
-19.3084506989 -45.3848533630 20.7503070831
-19.3138065338 -45.3966636658 20.5607948303
-19.3196926117 -45.4096336365 20.3716201782
-19.3249645233 -45.4212570190 20.1820697784
-19.3310108185 -45.4345817566 19.9930171967
-19.3407630920 -45.4560317993 19.8063106537
-19.3581600189 -45.4942359924 19.6244583130
-19.3858947754 -45.5551033020 19.4492053986
-19.4209480286 -45.6320190430 19.2786788940
-19.4523162842 -45.7008514404 19.1059017181
-19.4660434723 -45.7310142517 18.9219512939
-19.4552307129 -45.7073783875 18.7223281860
-19.4251708984 -45.6415481567 18.5103168488
-19.3883361816 -45.5608634949 18.2938499451
-19.3554916382 -45.4889297485 18.0798339844
-19.3318099976 -45.4370841980 17.8716297150
-19.3182830811 -45.4074974060 17.6699199677
-19.3131523132 -45.3963203430 17.4736118317
-19.3119468689 -45.3937416077 17.2798309326
-19.3081111908 -45.3854026794 17.0843257904
-19.2947273254 -45.3561286926 16.8825569153
-19.2667598724 -45.2948875427 16.6711845398
-19.2237644196 -45.2006988525 16.4498481750
-19.1706485748 -45.0843276978 16.2217121124
-19.1139488220 -44.9600982666 15.9910411835
-19.0574016571 -44.8362007141 15.7602882385
-19.0033473969 -44.7177696228 15.5310068130
-18.9577846527 -44.6179542542 15.3071937561
-18.9298439026 -44.5567741394 15.0949678421
-18.9243392944 -44.5447769165 14.8976230621
-18.9367275238 -44.5719985962 14.7122211456
-18.9567337036 -44.6159248352 14.5319566727
-18.9761619568 -44.6585845947 14.3513565063
-18.9933834076 -44.6964073181 14.1693210602
-19.0131320953 -44.7397689819 13.9890356064
-19.0439128876 -44.8073158264 13.8162660599
-19.0933513641 -44.9157638550 13.6562328339
-19.1614112854 -45.0650329590 13.5089988708
-19.2366180420 -45.2299728394 13.3668317795
-19.3011531830 -45.3715133667 13.2175998688
-19.3415279388 -45.4600906372 13.0520267487
-19.3549404144 -45.4895629883 12.8680801392
-19.3476638794 -45.4736785889 12.6699466705
-19.3297538757 -45.4344825745 12.4644594193
-19.3099117279 -45.3910560608 12.2575750351
-19.2916355133 -45.3510551453 12.0517044067
-19.2722091675 -45.3085403442 11.8449735641
-19.2457427979 -45.2505874634 11.6332807541
-19.2089138031 -45.1699180603 11.4142837524
-19.1651210785 -45.0739860535 11.1903057098
-19.1224784851 -44.9805717468 10.9669904709
-19.0862674713 -44.9012565613 10.7480430603
-19.0535316467 -44.8295631409 10.5314197540
-19.0157260895 -44.7467536926 10.3111171722
-18.9661731720 -44.6381912231 10.0824041367
-18.9060726166 -44.5065116882 9.8460721970
-18.8488712311 -44.3811798096 9.6116018295
-18.8226375580 -44.3237419128 9.3989419937
-18.8618545532 -44.4097785950 9.2327709198
-18.9843101501 -44.6782951355 9.1260795593
-19.1717319489 -45.0892295837 9.0661869049
-19.3785305023 -45.5426406860 9.0207366943
-19.5625171661 -45.9460411072 8.9595355988
-19.7065696716 -46.2619018555 8.8701639175
-19.8163433075 -46.5026168823 8.7565145493
-19.9060363770 -46.6993064880 8.6286859512
-19.9875202179 -46.8780059814 8.4951801300
-20.0663757324 -47.0509376526 8.3600082397
-20.1422233582 -47.2172775269 8.2228822708
-20.2120513916 -47.3704223633 8.0815954208
-20.2751407623 -47.5087966919 7.9355936050
-20.3349380493 -47.6399536133 7.7873687744
-20.3949413300 -47.7715568542 7.6394677162
-20.4531517029 -47.8992347717 7.4904260635
-20.5027389526 -48.0080070496 7.3352065086
-20.5382289886 -48.0858726501 7.1697297096
-20.5596351624 -48.1328659058 6.9939436913
-20.5706901550 -48.1571693420 6.8105478287
-20.5745754242 -48.1657524109 6.6218547821
-20.5711650848 -48.1583480835 6.4277410507
-20.5569267273 -48.1272010803 6.2255358696
-20.5275096893 -48.0627822876 6.0119447708
-20.4820995331 -47.9632987976 5.7862854004
-20.4259376526 -47.8402519226 5.5524177551
-20.3679924011 -47.7132911682 5.3170285225
-20.3165855408 -47.6006698608 5.0863785744
-20.2779541016 -47.5160484314 4.8652009964
-20.2565021515 -47.4690895081 4.6568832397
-20.2524299622 -47.4602279663 4.4616584778
-20.2590160370 -47.4747352600 4.2745037079
-20.2659111023 -47.4899177551 4.0875940323
-20.2669982910 -47.4923706055 3.8962724209
-20.2638607025 -47.4855575562 3.7017185688
-20.2617683411 -47.4810409546 3.5079476833
-20.2647571564 -47.4876594543 3.3180561066
-20.2752227783 -47.5106697083 3.1339099407
-20.2959747314 -47.5562286377 2.9577062130
-20.3298206329 -47.6304931641 2.7916564941
-20.3757686615 -47.7312850952 2.6350543499
-20.4264717102 -47.8425064087 2.4822678566
-20.4714031219 -47.9410705566 2.3251488209
-20.5034217834 -48.0113296509 2.1581208706
-20.5218582153 -48.0518150330 1.9806026220
-20.5297908783 -48.0692710876 1.7949343920
-20.5295581818 -48.0688285828 1.6028962135
-20.5206241608 -48.0493125916 1.4040316343
-20.5005111694 -48.0052871704 1.1963554621
-20.4675388336 -47.9330749512 0.9784933925
-20.4233684540 -47.8363113403 0.7516970634
-20.3733844757 -47.7268066406 0.5201659203
-20.3243675232 -47.6194229126 0.2892401814
-20.2813320160 -47.5251502991 0.0628959090
27.2805862427 -38.6673164368 93.5957717896
27.2999935150 -38.6921234131 93.4036178589
27.3350105286 -38.7383613586 93.2116699219
27.3784198761 -38.7961235046 93.0198898315
27.4253273010 -38.8586883545 92.8282318115
27.4748477936 -38.9248390198 92.6366958618
27.5295295715 -38.9980812073 92.4453277588
27.5919990540 -39.0820159912 92.2541885376
27.6604690552 -39.1741905212 92.0632705688
27.7283248901 -39.2655220032 91.8724670410
27.7899341583 -39.3482780457 91.6816711426
27.8466644287 -39.4243354797 91.4908828735
27.9052753448 -39.5029792786 91.3002395630
27.9691219330 -39.5888137817 91.1098251343
28.0312881470 -39.6723365784 90.9194869995
28.0773620605 -39.7337684631 90.7288742065
28.0951175690 -39.7563133240 90.5376129150
28.0818901062 -39.7363166809 90.3455505371
28.0451469421 -39.6840286255 90.1527938843
27.9988365173 -39.6186027527 89.9596862793
27.9587821960 -39.5617675781 89.7666549683
27.9377384186 -39.5310363770 89.5741119385
27.9409141541 -39.5335617065 89.3822937012
27.9648323059 -39.5645713806 89.1911392212
28.0005531311 -39.6117858887 89.0004272461
28.0383205414 -39.6618118286 88.8098449707
28.0719032288 -39.7060928345 88.6191864014
28.1031703949 -39.7471961975 88.4284896851
28.1431751251 -39.8002967834 88.2381820679
28.2035369873 -39.8813514709 88.0487289429
28.2830734253 -39.9887428284 87.8601531982
28.3653202057 -40.0998573303 87.6718368530
28.4323978424 -40.1901397705 87.4830398560
28.4808769226 -40.2548828125 87.2935714722
28.5223655701 -40.3100242615 87.1038894653
28.5696773529 -40.3731689453 86.9145355225
28.6248817444 -40.4471511841 86.7256317139
28.6800136566 -40.5210342407 86.5368270874
28.7256660461 -40.5819015503 86.3476638794
28.7574768066 -40.6237564087 86.1579055786
28.7765579224 -40.6481323242 85.9675674438
28.7863502502 -40.6597480774 85.7767868042
28.7899417877 -40.6628532410 85.5856857300
28.7893867493 -40.6602630615 85.3943710327
28.7862358093 -40.6541023254 85.2028961182
28.7819690704 -40.6464157104 85.0113449097
28.7782230377 -40.6394386292 84.8198013306
28.7772789001 -40.6363143921 84.6284027100
28.7830619812 -40.6424255371 84.4373779297
28.8015632629 -40.6660041809 84.2471084595
28.8388481140 -40.7153816223 84.0579910278
28.8967914581 -40.7931365967 83.8702011108
28.9713001251 -40.8936424255 83.6835479736
29.0564365387 -41.0087471008 83.4977035522
29.1488761902 -41.1338806152 83.3124847412
29.2454376221 -41.2646827698 83.1277236938
29.3387851715 -41.3910675049 82.9429244995
29.4218330383 -41.5033073425 82.7576141357
29.4967632294 -41.6044006348 82.5719070435
29.5736961365 -41.7082481384 82.3864822388
29.6574783325 -41.8215026855 82.2016830444
29.7390556335 -41.9317283630 82.0168838501
29.8036251068 -42.0185966492 81.8310089111
29.8465080261 -42.0756797791 81.6436691284
29.8779830933 -42.1170921326 81.4555587769
29.9115810394 -42.1614189148 81.2676620483
29.9487190247 -42.2106132507 81.0800857544
29.9758758545 -42.2460899353 80.8918075562
29.9779243469 -42.2470855713 80.7016067505
29.9538002014 -42.2121276855 80.5093231201
29.9174633026 -42.1603927612 80.3159942627
29.8849506378 -42.1139106750 80.1229019165
29.8631381989 -42.0821228027 79.9306030273
29.8491325378 -42.0610618591 79.7389068604
29.8359508514 -42.0411300659 79.5472412109
29.8184471130 -42.0152664185 79.3551635742
29.7976360321 -41.9848518372 79.1627578735
29.7820377350 -41.9616012573 78.9707489014
29.7855606079 -41.9646186829 78.7803955078
29.8227233887 -42.0138473511 78.5930480957
29.9020442963 -42.1209907532 78.4095764160
30.0195751190 -42.2806243896 78.2297515869
30.1579113007 -42.4688415527 78.0520858765
30.2942714691 -42.6543464661 77.8745040894
30.4130916595 -42.8157615662 77.6955261230
30.5129508972 -42.9511260986 77.5149688721
30.6023406982 -43.0721130371 77.3335876465
30.6886692047 -43.1888961792 77.1520843506
30.7706279755 -43.2996788025 76.9703063965
30.8407840729 -43.3942413330 76.7875137329
30.8939838409 -43.4655151367 76.6031494141
30.9312839508 -43.5149459839 76.4172592163
30.9562873840 -43.5474853516 76.2301788330
30.9703121185 -43.5649375916 76.0419921875
30.9720096588 -43.5654563904 75.8525390625
30.9601173401 -43.5473022461 75.6616363525
30.9351806641 -43.5112304688 75.4693069458
30.8991279602 -43.4598808289 75.2757186890
30.8550052643 -43.3974456787 75.0811691284
30.8086833954 -43.3319892883 74.8862762451
30.7698535919 -43.2768211365 74.6921081543
30.7490520477 -43.2464256287 74.4998703003
30.7531566620 -43.2502479553 74.3103866577
30.7835655212 -43.2902145386 74.1238937378
30.8363037109 -43.3608551025 73.9400253296
30.9030971527 -43.4508132935 73.7578735352
30.9753894806 -43.5483245850 73.5764923096
31.0485820770 -43.6470756531 73.3953552246
31.1203804016 -43.7439155579 73.2141876221
31.1865158081 -43.8329734802 73.0324783325
31.2432823181 -43.9091567993 72.8497543335
31.2946071625 -43.9778671265 72.6664733887
31.3512020111 -44.0538177490 72.4839401245
31.4208602905 -44.1477203369 72.3031234741
31.5028800964 -44.2586097717 72.1239852905
31.5921154022 -44.3794174194 71.9459152222
31.6835155487 -44.5031967163 71.7682876587
31.7709236145 -44.6214942932 71.5903320313
31.8457775116 -44.7225456238 71.4109115601
31.9005298615 -44.7959709167 71.2290267944
31.9317779541 -44.8371047974 71.0441513062
31.9388504028 -44.8450126648 70.8561401367
31.9220600128 -44.8201332092 70.6649475098
31.8853454590 -44.7678756714 70.4710388184
31.8390712738 -44.7024803162 70.2757492065
31.7960891724 -44.6416053772 70.0808105469
31.7633304596 -44.5947799683 69.8871688843
31.7385940552 -44.5589752197 69.6945648193
31.7155380249 -44.5254821777 69.5021362305
31.6898307800 -44.4883460999 69.3092727661
31.6608772278 -44.4467468262 69.1158828735
31.6317481995 -44.4049072266 68.9224014282
31.6098232269 -44.3729629517 68.7298889160
31.6057338715 -44.3655319214 68.5398941040
31.6293239594 -44.3961410522 68.3538970947
31.6853790283 -44.4713630676 68.1726989746
31.7711372375 -44.5874099731 67.9959793091
31.8763313293 -44.7301673889 67.8223114014
31.9866313934 -44.8799400330 67.6496047974
32.0883483887 -45.0179252625 67.4758300781
32.1695480347 -45.1277084351 67.2991333008
32.2189712524 -45.1938247681 67.1177520752
32.2292747498 -45.2061805725 66.9304504395
32.2042694092 -45.1700096130 66.7377014160
32.1613502502 -45.1092147827 66.5420989990
32.1235198975 -45.0554122925 66.3471984863
32.1070022583 -45.0309028625 66.1555709839
32.1153945923 -45.0406303406 65.9678497314
32.1427192688 -45.0763740540 65.7831573486
32.1794967651 -45.1251144409 65.6000289917
32.2169456482 -45.1747779846 65.4170761108
32.2488861084 -45.2168693542 65.2332916260
32.2722358704 -45.2471580505 65.0481491089
32.2859649658 -45.2642173767 64.8614654541
32.2883033752 -45.2656250000 64.6729049683
32.2731132507 -45.2429389954 64.4814224243
32.2294921875 -45.1811752319 64.2851181030
32.1502647400 -45.0704689026 64.0827026367
32.0471458435 -44.9269256592 63.8760643005
31.9567813873 -44.8009071350 63.6713790894
31.9225559235 -44.7520561218 63.4761505127
31.9618186951 -44.8042106628 63.2935447693
32.0506324768 -44.9244766235 63.1196327209
32.1436996460 -45.0505905151 62.9466323853
32.2092399597 -45.1388702393 62.7689666748
32.2456283569 -45.1870803833 62.5862655640
32.2706871033 -45.2197151184 62.4016075134
32.3011322021 -45.2597541809 62.2179565430
32.3409042358 -45.3126182556 62.0360374451
32.3822593689 -45.3676567078 61.8544731140
32.4134597778 -45.4087371826 61.6711349487
32.4263916016 -45.4247055054 61.4845008850
32.4203147888 -45.4145469666 61.2943878174
32.4004707336 -45.3854560852 61.1016960144
32.3736839294 -45.3468284607 60.9076652527
32.3449630737 -45.3055381775 60.7132072449
32.3167648315 -45.2649612427 60.5187721252
32.2895355225 -45.2257232666 60.3244590759
32.2618865967 -45.1859054565 60.1299934387
32.2305259705 -45.1409873962 59.9347572327
32.1914405823 -45.0854415894 59.7379570007
32.1429023743 -45.0169029236 59.5392379761
32.0884666443 -44.9402580261 59.3392639160
32.0367698669 -44.8673782349 59.1397018433
31.9977092743 -44.8118629456 58.9425048828
31.9784908295 -44.7836341858 58.7491340637
31.9833889008 -44.7885513306 58.5605010986
32.0162353516 -44.8318977356 58.3774414063
32.0803184509 -44.9181823730 58.2006988525
32.1715087891 -45.0417366028 58.0295372009
32.2708473206 -45.1764984131 57.8602027893
32.3500785828 -45.2836151123 57.6869659424
32.3916854858 -45.3390083313 57.5061874390
32.4037590027 -45.3537940979 57.3194084167
32.4116783142 -45.3628692627 57.1317825317
32.4347991943 -45.3928527832 56.9473228455
32.4726600647 -45.4430923462 56.7659759521
32.5116043091 -45.4948272705 56.5849189758
32.5397148132 -45.5316658020 56.4016494751
32.5540008545 -45.5494995117 56.2154998779
32.5573234558 -45.5522575378 56.0270347595
32.5522651672 -45.5434951782 55.8367767334
32.5374870300 -45.5213623047 55.6444091797
32.5070381165 -45.4776878357 55.4486198425
32.4529609680 -45.4015274048 55.2476310730
32.3711471558 -45.2872276306 55.0404815674
32.2677268982 -45.1432113647 54.8284225464
32.1605567932 -44.9940452576 54.6153182983
32.0730972290 -44.8719749451 54.4063377380
32.0236434937 -44.8021621704 54.2056007385
32.0173301697 -44.7916641235 54.0143737793
32.0464935303 -44.8299484253 53.8310661316
32.0978698730 -44.8987770081 53.6528053284
32.1599159241 -44.9822769165 53.4770507813
32.2263374329 -45.0717964172 53.3024063110
32.2959709167 -45.1657333374 53.1286201477
32.3694763184 -45.2649917603 52.9558525085
32.4444046021 -45.3662109375 52.7835502625
32.5134124756 -45.4592895508 52.6100234985
32.5684509277 -45.5331611633 52.4333839417
32.6063156128 -45.5834197998 52.2528419495
32.6293869019 -45.6133308411 52.0689010620
32.6417999268 -45.6285896301 51.8824882507
32.6460151672 -45.6325759888 51.6941528320
32.6425933838 -45.6260604858 51.5040054321
32.6318092346 -45.6094207764 51.3120841980
32.6146354675 -45.5839920044 51.1185989380
32.5923233032 -45.5514945984 50.9238357544
32.5657424927 -45.5131301880 50.7279853821
32.5347137451 -45.4686470032 50.5309867859
32.4968681335 -45.4147911072 50.3322601318
32.4476013184 -45.3452262878 50.1306495667
32.3831214905 -45.2547340393 49.9251976013
32.3043708801 -45.1446189880 49.7160797119
32.2170448303 -45.0227127075 49.5046691895
32.1278800964 -44.8982734680 49.2926139832
32.0430374146 -44.7797737122 49.0814399719
31.9703578949 -44.6780014038 48.8731307983
31.9200935364 -44.6070556641 48.6703033447
31.9011402130 -44.5791702271 48.4752693176
31.9164714813 -44.5984344482 48.2888870239
31.9613037109 -44.6582717896 48.1100349426
32.0251197815 -44.7442207336 47.9361190796
32.0974159241 -44.8418312073 47.7644996643
32.1727714539 -44.9436492920 47.5938072205
32.2491378784 -45.0468673706 47.4235229492
32.3219413757 -45.1451797485 47.2524528503
32.3830871582 -45.2274627686 47.0784835815
32.4264335632 -45.2852630615 46.8999671936
32.4517822266 -45.3183097839 46.7167968750
32.4628753662 -45.3317527771 46.5299072266
32.4629096985 -45.3299827576 46.3400955200
32.4518356323 -45.3129348755 46.1473236084
32.4264488220 -45.2762069702 45.9506950378
32.3832359314 -45.2149505615 45.7492218018
32.3228034973 -45.1300086975 45.5430221558
32.2514152527 -45.0300025940 45.3337249756
32.1759681702 -44.9244079590 45.1231689453
32.0977592468 -44.8150177002 44.9117012024
32.0147476196 -44.6990165710 44.6987457275
31.9303951263 -44.5811653137 44.4852447510
31.8561820984 -44.4772644043 44.2743453979
31.8036537170 -44.4031906128 44.0692749023
31.7770271301 -44.3647422791 43.8712692261
31.7744903564 -44.3594284058 43.6799011230
31.7932415009 -44.3833961487 43.4944572449
31.8308753967 -44.4333419800 43.3143386841
31.8832836151 -44.5036087036 43.1384429932
31.9436969757 -44.5848884583 42.9649047852
32.0047721863 -44.6670761108 42.7916641235
32.0615196228 -44.7433204651 42.6173095703
32.1120109558 -44.8109550476 42.4412765503
32.1549530029 -44.8682060242 42.2631683350
32.1871719360 -44.9107055664 42.0820579529
32.2046318054 -44.9328994751 41.8967437744
32.2064399719 -44.9335670471 41.7069206238
32.1964111328 -44.9179534912 41.5136528015
32.1796264648 -44.8930397034 41.3183822632
32.1587562561 -44.8625106812 41.1218719482
32.1343727112 -44.8271446228 40.9242744446
32.1070594788 -44.7877464294 40.7257537842
32.0780105591 -44.7459602356 40.5266494751
32.0489273071 -44.7041282654 40.3274688721
32.0228729248 -44.6664581299 40.1291160583
32.0046730042 -44.6396026611 39.9330482483
31.9979305267 -44.6285018921 39.7403678894
32.0001945496 -44.6297912598 39.5503692627
32.0020446777 -44.6305122375 39.3602447510
31.9923954010 -44.6154136658 39.1666259766
31.9659290314 -44.5771751404 38.9678649902
31.9275760651 -44.5225868225 38.7654113770
31.8909511566 -44.4703750610 38.5634002686
31.8705673218 -44.4405059814 38.3662872314
31.8737125397 -44.4430046082 38.1763725281
31.8991317749 -44.4761505127 37.9933357239
31.9416809082 -44.5328674316 37.8156509399
31.9967441559 -44.6068000793 37.6419372559
32.0612030029 -44.6936645508 37.4712600708
32.1314239502 -44.7884521484 37.3025054932
32.2002677917 -44.8813476563 37.1334533691
32.2565040588 -44.9569015503 36.9605598450
32.2882041931 -44.9986915588 36.7800064087
32.2877616882 -44.9962577820 36.5893096924
32.2551231384 -44.9495277405 36.3883552551
32.1962089539 -44.8666458130 36.1789283752
32.1164932251 -44.7551383972 35.9627075195
32.0160522461 -44.6151161194 35.7396507263
31.8932590485 -44.4443283081 35.5091667175
31.7538623810 -44.2506980896 35.2730484009
31.6141929626 -44.0566864014 35.0365447998
31.4941539764 -43.8896827698 34.8061332703
31.4072685242 -43.7682952881 34.5862884521
31.3564910889 -43.6965980530 34.3780860901
31.3379001617 -43.6691818237 34.1803398132
31.3471736908 -43.6801071167 33.9917335510
31.3818016052 -43.7259254456 33.8115196228
31.4370746613 -43.8001518250 33.6382102966
31.5020923615 -43.8877830505 33.4682502747
31.5626163483 -43.9692382813 33.2969093323
31.6086864471 -44.0308036804 33.1208457947
31.6385650635 -44.0700836182 32.9394264221
31.6560382843 -44.0923004150 32.7538795471
31.6655750275 -44.1035919189 32.5656776428
31.6699829102 -44.1078300476 32.3757438660
31.6707096100 -44.1069984436 32.1845588684
31.6689853668 -44.1027908325 31.9925270081
31.6662483215 -44.0971946716 31.8001346588
31.6627597809 -44.0905609131 31.6074695587
31.6545295715 -44.0774040222 31.4131526947
31.6321296692 -44.0447463989 31.2139186859
31.5861396790 -43.9796257019 31.0064640045
31.5175609589 -43.8834114075 30.7910614014
31.4422588348 -43.7779502869 30.5731658936
31.3813629150 -43.6923103333 30.3601341248
31.3459339142 -43.6417160034 30.1558837891
31.3320026398 -43.6207084656 29.9591026306
31.3285827637 -43.6141662598 29.7659854889
31.3270874023 -43.6102714539 29.5735282898
31.3242969513 -43.6045951843 29.3805999756
31.3219833374 -43.5995750427 29.1878223419
31.3269271851 -43.6045455933 28.9976177216
31.3483371735 -43.6321754456 28.8132972717
31.3895950317 -43.6871223450 28.6361236572
31.4407348633 -43.7556724548 28.4625778198
31.4817714691 -43.8103141785 28.2854824066
31.4958534241 -43.8278579712 28.0987148285
31.4797935486 -43.8039207458 27.9010372162
31.4431953430 -43.7517127991 27.6958465576
31.3987216949 -43.6886634827 27.4876976013
31.3523120880 -43.6229515076 27.2787380219
31.3004074097 -43.5496749878 27.0676555634
31.2346630096 -43.4573478699 26.8513660431
31.1493663788 -43.3381080627 26.6277198792
31.0468673706 -43.1951866150 26.3975257874
30.9393672943 -43.0453834534 26.1652545929
30.8463764191 -42.9155464172 25.9381446838
30.7867164612 -42.8315849304 25.7232627869
30.7675857544 -42.8034095764 25.5233993530
30.7795028687 -42.8179664612 25.3351306915
30.8041458130 -42.8500442505 25.1516571045
30.8285484314 -42.8817901611 24.9681358337
30.8521728516 -42.9124679565 24.7843570709
30.8831672668 -42.9532852173 24.6034107208
30.9304370880 -43.0165100098 24.4287052155
30.9968662262 -43.1061096191 24.2613868713
31.0760555267 -43.2132759094 24.0990734100
31.1544895172 -43.3194007874 23.9366207123
31.2182140350 -43.4052810669 23.7686672211
31.2594490051 -43.4602012634 23.5921688080
31.2792205811 -43.4855804443 23.4074535370
31.2850341797 -43.4917411804 23.2173614502
31.2848815918 -43.4896926880 23.0249538422
31.2818412781 -43.4836654663 22.8314094543
31.2734889984 -43.4703292847 22.6357727051
31.2556629181 -43.4439506531 22.4364013672
31.2257041931 -43.4008674622 22.2322177887
31.1822547913 -43.3392105103 22.0226535797
31.1240959167 -43.2573051453 21.8071823120
31.0515270233 -43.1555633545 21.5858821869
30.9691944122 -43.0403747559 21.3605461121
30.8852024078 -42.9229011536 21.1343688965
30.8056030273 -42.8114700317 20.9097595215
30.7308750153 -42.7067489624 20.6869220734
30.6597957611 -42.6070442200 20.4653797150
30.5958423615 -42.5171546936 20.2465438843
30.5474872589 -42.4487342834 20.0338478088
30.5225963593 -42.4126167297 19.8305187225
30.5244522095 -42.4133224487 19.6379566193
30.5517349243 -42.4490356445 19.4557075500
30.5986175537 -42.5117301941 19.2814807892
30.6545696259 -42.5869178772 19.1110401154
30.7074203491 -42.6578330994 18.9394359589
30.7484893799 -42.7125282288 18.7630977631
30.7744693756 -42.7464523315 18.5806312561
30.7855205536 -42.7598190308 18.3920516968
30.7838001251 -42.7556037903 18.1982097626
30.7732143402 -42.7391815186 18.0006809235
30.7580356598 -42.7164344788 17.8012104034
30.7404327393 -42.6903495789 17.6006889343
30.7191104889 -42.6591415405 17.3985691071
30.6904926300 -42.6178932190 17.1933403015
30.6521663666 -42.5632743835 16.9839706421
30.6059856415 -42.4978370667 16.7712078094
30.5570087433 -42.4285507202 16.5571613312
30.5090904236 -42.3607215881 16.3434486389
30.4632701874 -42.2957763672 16.1305141449
30.4214363098 -42.2363243103 15.9191656113
30.3891601563 -42.1900291443 15.7117872238
30.3725013733 -42.1652374268 15.5109939575
30.3730754852 -42.1641769409 15.3175239563
30.3884181976 -42.1834487915 15.1303758621
30.4164142609 -42.2201461792 14.9486846924
30.4567203522 -42.2737960815 14.7723436356
30.5070323944 -42.3412246704 14.6003952026
30.5597496033 -42.4119644165 14.4295806885
30.6045742035 -42.4718360901 14.2554397583
30.6348552704 -42.5116844177 14.0750560760
30.6507644653 -42.5317382813 13.8884572983
30.6568527222 -42.5382728577 13.6975908279
30.6574707031 -42.5372695923 13.5043287277
30.6533565521 -42.5297546387 13.3089790344
30.6404609680 -42.5101470947 13.1097459793
30.6120204926 -42.4691314697 12.9036178589
30.5639724731 -42.4011077881 12.6887502670
30.4995803833 -42.3105812073 12.4665288925
30.4282073975 -42.2104377747 12.2410621643
30.3596153259 -42.1141242981 12.0166749954
30.3005409241 -42.0309181213 11.7963809967
30.2561798096 -41.9679679871 11.5825347900
30.2322101593 -41.9331016541 11.3777294159
30.2335281372 -41.9330596924 11.1842260361
30.2616939545 -41.9699935913 11.0028076172
30.3144187927 -42.0407485962 10.8325233459
30.3862514496 -42.1378211975 10.6709833145
30.4678173065 -42.2482986450 10.5139951706
30.5454463959 -42.3533554077 10.3553752899
30.6059226990 -42.4347915649 10.1890907288
30.6442165375 -42.4856758118 10.0127897263
30.6656112671 -42.5132904053 9.8288240433
30.6798114777 -42.5309944153 9.6415910721
30.6934833527 -42.5479698181 9.4541330338
30.7070884705 -42.5648574829 9.2666616440
30.7165927887 -42.5760917664 9.0773124695
30.7180347443 -42.5762290955 8.8842411041
30.7116069794 -42.5655212402 8.6875114441
30.7024593353 -42.5510673523 8.4894914627
30.6986598969 -42.5439834595 8.2939338684
30.7080802917 -42.5551033020 8.1045303345
30.7351226807 -42.5904960632 7.9233837128
30.7792339325 -42.6493988037 7.7502884865
30.8368930817 -42.7269630432 7.5836424828
30.9049377441 -42.8188362122 7.4219980240
30.9816551208 -42.9226531982 7.2645788193
31.0657291412 -43.0366020203 7.1107878685
31.1551399231 -43.1579093933 6.9596920013
31.2463607788 -43.2817077637 6.8096308708
31.3335151672 -43.3999061584 6.6578102112
31.4090499878 -43.5021018982 6.5006127357
31.4668350220 -43.5798530579 6.3350691795
31.5051994324 -43.6308479309 6.1603226662
31.5268115997 -43.6587715149 5.9775962830
31.5362586975 -43.6699409485 5.7890458107
31.5382900238 -43.6708908081 5.5969243050
31.5371646881 -43.6674919128 5.4032697678
31.5354824066 -43.6633262634 5.2093319893
31.5326995850 -43.6576461792 5.0148444176
31.5253849030 -43.6457214355 4.8181352615
31.5090446472 -43.6213684082 4.6169972420
31.4791431427 -43.5783271790 4.4091849327
31.4314270020 -43.5107460022 4.1925740242
31.3645019531 -43.4167060852 3.9664237499
31.2844066620 -43.3045196533 3.7336444855
31.2056083679 -43.1941184998 3.5013277531
31.1450233459 -43.1088027954 3.2778322697
31.1145973206 -43.0650329590 3.0691292286
31.1195087433 -43.0699462891 2.8778810501
31.1596984863 -43.1234626770 2.7041687965
31.2283992767 -43.2162551880 2.5447316170
31.3099517822 -43.3267517090 2.3918399811
31.3845920563 -43.4277305603 2.2356498241
31.4385681152 -43.5002403259 2.0692453384
31.4693775177 -43.5408363342 1.8913060427
31.4824256897 -43.5569648743 1.7044796944
31.4850845337 -43.5587768555 1.5124281645
31.4830684662 -43.5541496277 1.3180098534
31.4789409637 -43.5466156006 1.1225060225
31.4720382690 -43.5352516174 0.9255736470
31.4602947235 -43.5172233582 0.7261552811
31.4428863525 -43.4913864136 0.5238134861
31.4210586548 -43.4594650269 0.3191682696
31.3963451385 -43.4235649109 0.1129904538
-20.2374019623 -16.6408843994 91.3326339722
-20.2682304382 -16.6638851166 91.1294708252
-20.3217811584 -16.7038116455 90.9271011353
-20.3918361664 -16.7560310364 90.7253570557
-20.4720249176 -16.8157978058 90.5240707397
-20.5578117371 -16.8797378540 90.3230972290
-20.6472892761 -16.9464225769 90.1223754883
-20.7394371033 -17.0150985718 89.9218902588
-20.8313789368 -17.0836219788 89.7215270996
-20.9177227020 -17.1479740143 89.5210876465
-20.9912300110 -17.2027645111 89.3202590942
-21.0425186157 -17.2410068512 89.1186523438
-21.0620403290 -17.2555847168 88.9158172607
-21.0471820831 -17.2445545197 88.7115707397
-21.0073890686 -17.2149505615 88.5062332153
-20.9591751099 -17.1790733337 88.3004608154
-20.9159317017 -17.1469001770 88.0948257446
-20.8829059601 -17.1223373413 87.8895721436
-20.8598613739 -17.1052112579 87.6847076416
-20.8470630646 -17.0957145691 87.4802780151
-20.8508758545 -17.0985908508 87.2766036987
-20.8853874207 -17.1243343353 87.0743942261
-20.9653778076 -17.1839542389 86.8744354248
-21.0914134979 -17.2778739929 86.6768722534
-21.2410335541 -17.3893585205 86.4806823730
-21.3801937103 -17.4930515289 86.2841796875
-21.4880199432 -17.5734062195 86.0862655640
-21.5712051392 -17.6354064941 85.8872146606
-21.6552963257 -17.6980800629 85.6883316040
-21.7615680695 -17.7772750854 85.4907684326
-21.8887577057 -17.8720531464 85.2945098877
-22.0148715973 -17.9660282135 85.0983810425
-22.1159343719 -18.0413436890 84.9010238647
-22.1822910309 -18.0908088684 84.7018280029
-22.2203807831 -18.1192169189 84.5010986328
-22.2454223633 -18.1379070282 84.2996444702
-22.2733020782 -18.1587123871 84.0983886719
-22.3135318756 -18.1887149811 83.8979187012
-22.3647766113 -18.2269229889 83.6981735229
-22.4155521393 -18.2647800446 83.4984664917
-22.4503612518 -18.2907447815 83.2978286743
-22.4588966370 -18.2971401215 83.0955734253
-22.4429779053 -18.2853202820 82.8917541504
-22.4145755768 -18.2642021179 82.6870880127
-22.3865222931 -18.2433414459 82.4823989868
-22.3655376434 -18.2277488708 82.2781219482
-22.3526306152 -18.2181701660 82.0743484497
-22.3468818665 -18.2139263153 81.8710327148
-22.3477802277 -18.2146320343 81.6681518555
-22.3558635712 -18.2206897736 81.4657669067
-22.3734874725 -18.2338562012 81.2640609741
-22.4056491852 -18.2578487396 81.0634078979
-22.4589176178 -18.2975635529 80.8643112183
-22.5373115540 -18.3559932709 80.6671142578
-22.6376209259 -18.4307479858 80.4716491699
-22.7488803864 -18.5136585236 80.2771377563
-22.8576755524 -18.5947341919 80.0826034546
-22.9555454254 -18.6676712036 79.8874053955
-23.0419216156 -18.7320480347 79.6914749146
-23.1196460724 -18.7899780273 79.4949951172
-23.1881885529 -18.8410701752 79.2979049683
-23.2424297333 -18.8815097809 79.0997924805
