-46.0872573853 -22.7410430908 52.9626846313
-46.0961303711 -22.7439880371 52.7737121582
-46.1204833984 -22.7539024353 52.5873756409
-46.1786499023 -22.7790451050 52.4068260193
-46.2875022888 -22.8270111084 52.2350349426
-46.4458312988 -22.8972587585 52.0718955994
-46.6240692139 -22.9764747620 51.9124031067
-46.7759513855 -23.0438232422 51.7485733032
-46.8625488281 -23.0817718506 51.5735664368
-46.8649101257 -23.0817852020 51.3839378357
-46.7826652527 -23.0436973572 51.1794471741
-46.6344032288 -22.9758777618 50.9631958008
-46.4595413208 -22.8960781097 50.7420196533
-46.3061141968 -22.8259315491 50.5243988037
-46.2082519531 -22.7808055878 50.3164596558
-46.1775398254 -22.7659225464 50.1203918457
-46.2142219543 -22.7813892365 49.9363784790
-46.3154563904 -22.8259315491 49.7640495300
-46.4650573730 -22.8922538757 49.6006011963
-46.6200752258 -22.9610195160 49.4383354187
-46.7203025818 -23.0051116943 49.2662734985
-46.7210540771 -23.0043983459 49.0761184692
-46.6221771240 -22.9588146210 48.8676376343
-46.4681587219 -22.8883934021 48.6488265991
-46.3184356689 -22.8199081421 48.4305877686
-46.2123107910 -22.7710552216 48.2202339172
-46.1566467285 -22.7449302673 48.0191383362
-46.1404647827 -22.7365894318 47.8253479004
-46.1560020447 -22.7425327301 47.6374816895
-46.2062034607 -22.7640933990 47.4561691284
-46.2926712036 -22.8019866943 47.2817802429
-46.3949775696 -22.8470153809 47.1105079651
-46.4672698975 -22.8785247803 46.9336395264
-46.4681739807 -22.8778781891 46.7431907654
-46.3979110718 -22.8451786041 46.5390548706
-46.2985458374 -22.7993659973 46.3291969299
-46.2174224854 -22.7617721558 46.1227188110
-46.1775932312 -22.7427787781 45.9241371155
-46.1797904968 -22.7427139282 45.7336807251
-46.2183609009 -22.7590332031 45.5503234863
-46.2884788513 -22.7895641327 45.3732032776
-46.3829269409 -22.8310565948 45.2009620667
-46.4861183167 -22.8764858246 45.0305633545
-46.5699005127 -22.9131755829 44.8564453125
-46.5991668701 -22.9253063202 44.6715812683
-46.5537147522 -22.9037780762 44.4718132019
-46.4497070313 -22.8558712006 44.2602348328
-46.3322906494 -22.8019237518 44.0458030701
-46.2423362732 -22.7603454590 43.8367385864
-46.1930694580 -22.7370986938 43.6357765198
-46.1759338379 -22.7283229828 43.4412612915
-46.1802711487 -22.7292213440 43.2510910034
-46.2066612244 -22.7400569916 43.0654258728
-46.2678451538 -22.7665653229 42.8869247437
-46.3771171570 -22.8147392273 42.7184028625
-46.5282325745 -22.8817653656 42.5586700439
-46.6825332642 -22.9502277374 42.3997955322
-46.7816238403 -22.9938163757 42.2296295166
-46.7816734314 -22.9927845001 42.0389137268
-46.6827087402 -22.9471454620 41.8274459839
-46.5289382935 -22.8768119812 41.6043090820
-46.3795776367 -22.8084659576 41.3818740845
-46.2739067078 -22.7597999573 41.1684646606
-46.2179183960 -22.7335205078 40.9654388428
-46.1965446472 -22.7228336334 40.7696914673
-46.1921806335 -22.7198123932 40.5775375366
-46.1937217712 -22.7194519043 40.3866310120
-46.1962318420 -22.7195262909 40.1959190369
-46.1980552673 -22.7192916870 40.0050506592
-46.1988983154 -22.7186145782 39.8139610291
-46.1990127563 -22.7176113129 39.6226997375
-46.1989288330 -22.7165164948 39.4313850403
-46.1992301941 -22.7155971527 39.2401390076
-46.2004127502 -22.7150726318 39.0490760803
-46.2029266357 -22.7151489258 38.8582916260
-46.2079315186 -22.7163486481 38.6680488586
-46.2193336487 -22.7204284668 38.4792137146
-46.2468643188 -22.7317771912 38.2939643860
-46.3061904907 -22.7574539185 38.1158180237
-46.4090690613 -22.8027553558 37.9474678040
-46.5438613892 -22.8624382019 37.7863960266
-46.6653442383 -22.9161262512 37.6225090027
-46.7159423828 -22.9378719330 37.4427986145
-46.6688346863 -22.9155883789 37.2410507202
-46.5508041382 -22.8613452911 37.0231399536
-46.4197006226 -22.8012104034 36.8020782471
-46.3213768005 -22.7558441162 36.5883026123
-46.2688903809 -22.7311363220 36.3848686218
-46.2544326782 -22.7235641479 36.1900825500
-46.2711639404 -22.7300453186 36.0024414063
-46.3218879700 -22.7518463135 35.8226623535
-46.4080276489 -22.7896080017 35.6511459351
-46.5094528198 -22.8342609406 35.4832916260
-46.5811424255 -22.8655128479 35.3086318970
-46.5825080872 -22.8650703430 35.1176223755
-46.5137901306 -22.8330459595 34.9101676941
-46.4158248901 -22.7878379822 34.6957283020
-46.3331832886 -22.7495365143 34.4847564697
-46.2841987610 -22.7264022827 34.2816123962
-46.2627029419 -22.7156562805 34.0849113464
-46.2555847168 -22.7113895416 33.8915901184
-46.2538833618 -22.7095642090 33.6995353699
-46.2538528442 -22.7084922791 33.5078697205
-46.2544212341 -22.7076911926 33.3163299561
-46.2552871704 -22.7070236206 33.1248512268
-46.2562789917 -22.7064132690 32.9333915710
-46.2573547363 -22.7058372498 32.7419395447
-46.2585792542 -22.7053318024 32.5505142212
-46.2600631714 -22.7049427032 32.3591423035
-46.2618484497 -22.7046871185 32.1678276062
-46.2638359070 -22.7045249939 31.9765567780
-46.2658882141 -22.7043914795 31.7852897644
-46.2679481506 -22.7042598724 31.5940132141
-46.2700843811 -22.7041645050 31.4027462006
-46.2724304199 -22.7041625977 31.2115230560
-46.2750091553 -22.7042675018 31.0203456879
-46.2774200439 -22.7042942047 30.8291187286
-46.2784080505 -22.7036819458 30.6375255585
-46.2755966187 -22.7013549805 30.4449710846
-46.2664337158 -22.6961631775 30.2508010864
-46.2511940002 -22.6882343292 30.0550785065
-46.2358169556 -22.6802444458 29.8592853546
-46.2295494080 -22.6763591766 29.6657638550
-46.2372169495 -22.6787548065 29.4757614136
-46.2545700073 -22.6855182648 29.2882213593
-46.2727279663 -22.6926441193 29.1008987427
-46.2858085632 -22.6974811554 28.9122886658
-46.2933807373 -22.6998348236 28.7222671509
-46.2977256775 -22.7007331848 28.5314159393
-46.3010406494 -22.7011680603 28.3402900696
-46.3045768738 -22.7017021179 28.1492137909
-46.3087768555 -22.7025337219 27.9582996368
-46.3133697510 -22.7035446167 27.7674827576
-46.3176155090 -22.7043991089 27.5765686035
-46.3207092285 -22.7047348022 27.3853454590
-46.3222999573 -22.7043914795 27.1937198639
-46.3226394653 -22.7034835815 27.0017547607
-46.3223648071 -22.7022991180 26.8096141815
-46.3221359253 -22.7011356354 26.6174716949
-46.3223876953 -22.7001876831 26.4254436493
-46.3232498169 -22.6995162964 26.2335662842
-46.3246574402 -22.6990890503 26.0418224335
-46.3265724182 -22.6988925934 25.8502025604
-46.3291435242 -22.6989917755 25.6587486267
-46.3326835632 -22.6995258331 25.4675445557
-46.3375549316 -22.7006626129 25.2766914368
-46.3448066711 -22.7028694153 25.0864734650
-46.3581542969 -22.7078266144 24.8979053497
-46.3873062134 -22.7199096680 24.7136287689
-46.4489898682 -22.7466602325 24.5382308960
-46.5592536926 -22.7953147888 24.3761558533
-46.7170524597 -22.8654041290 24.2272205353
-46.8946495056 -22.9444198608 24.0839195251
-47.0508117676 -23.0137729645 23.9349613190
-47.1568412781 -23.0605239868 23.7723960876
-47.2077636719 -23.0824260712 23.5947418213
-47.2096061707 -23.0821990967 23.4035549164
-47.1623039246 -23.0598106384 23.1987133026
-47.0597267151 -23.0124988556 22.9784069061
-46.9069442749 -22.9425468445 22.7439384460
-46.7329750061 -22.8630428314 22.5033149719
-46.5796127319 -22.7928256989 22.2682151794
-46.4753112793 -22.7447319031 22.0466804504
-46.4224052429 -22.7198123932 21.8394699097
-46.4083747864 -22.7124233246 21.6431560516
-46.4246520996 -22.7187023163 21.4553947449
-46.4735107422 -22.7396717072 21.2768917084
-46.5564689636 -22.7760200500 21.1081485748
-46.6542167664 -22.8190383911 20.9437294006
-46.7230300903 -22.8490085602 20.7711582184
-46.7233505249 -22.8480930328 20.5790309906
-46.6555786133 -22.8164672852 20.3673229218
-46.5605278015 -22.7725410461 20.1476459503
-46.4849128723 -22.7373790741 19.9334392548
-46.4542427063 -22.7224845886 19.7321224213
-46.4754295349 -22.7309780121 19.5458011627
-46.5493278503 -22.7632408142 19.3748283386
-46.6702156067 -22.8166961670 19.2176475525
-46.8162727356 -22.8815059662 19.0679798126
-46.9481163025 -22.9399051666 18.9143390656
-47.0211334229 -22.9717750549 18.7435932159
-47.0054321289 -22.9636325836 18.5468177795
-46.9039039612 -22.9167804718 18.3246803284
-46.7553291321 -22.8487110138 18.0884723663
-46.6140441895 -22.7839279175 17.8542041779
-46.5204887390 -22.7406692505 17.6339111328
-46.4901809692 -22.7259368896 17.4323158264
-46.5245704651 -22.7403850555 17.2499809265
-46.6189613342 -22.7818946838 17.0856399536
-46.7515068054 -22.8406143188 16.9328632355
-46.8724899292 -22.8941192627 16.7767810822
-46.9227485657 -22.9157257080 16.5995407104
-46.8751335144 -22.8931865692 16.3927917480
-46.7565650940 -22.8386440277 16.1644802094
-46.6250305176 -22.7782535553 15.9320545197
-46.5260887146 -22.7325611115 15.7093448639
-46.4713592529 -22.7068099976 15.4999637604
-46.4488105774 -22.6955757141 15.3003273010
-46.4424285889 -22.6916332245 15.1055974960
-46.4421577454 -22.6904468536 14.9127216339
-46.4437980652 -22.6901206970 14.7204198837
-46.4459533691 -22.6900291443 14.5282659531
-46.4481163025 -22.6899394989 14.3361053467
-46.4500312805 -22.6897392273 14.1438579559
-46.4517173767 -22.6894340515 13.9515275955
-46.4535140991 -22.6891803741 13.7592220306
-46.4564781189 -22.6894531250 13.5672702789
-46.4635658264 -22.6915855408 13.3765983582
-46.4818420410 -22.6987628937 13.1894273758
-46.5234680176 -22.7164783478 13.0096015930
-46.6016578674 -22.7506847382 12.8413267136
-46.7219734192 -22.8038959503 12.6864337921
-46.8783226013 -22.8733634949 12.5430850983
-47.0599403381 -22.9542331696 12.4079484940
-47.2587127686 -23.0428428650 12.2784996033
-47.4636726379 -23.1342449188 12.1512842178
-47.6520042419 -23.2181453705 12.0190401077
-47.7945594788 -23.2813968658 11.8724174500
-47.8708877563 -23.3147716522 11.7047710419
-47.8749389648 -23.3155384064 11.5140180588
-47.8114929199 -23.2858543396 11.3015432358
-47.6980552673 -23.2336158752 11.0728511810
-47.5706901550 -23.1750907898 10.8394870758
-47.4764671326 -23.1315212250 10.6166629791
-47.4510192871 -23.1189765930 10.4160099030
-47.5004920959 -23.1402339935 10.2396707535
-47.5999755859 -23.1840572357 10.0796880722
-47.7029495239 -23.2294540405 9.9209699631
-47.7573051453 -23.2529182434 9.7464723587
-47.7277984619 -23.2385444641 9.5445308685
-47.6157951355 -23.1869468689 9.3154172897
-47.4600372314 -23.1156082153 9.0717220306
-47.3127708435 -23.0480976105 8.8305969238
-47.2086524963 -23.0000553131 8.6035261154
-47.1522026062 -22.9735221863 8.3920993805
-47.1289329529 -22.9619579315 8.1916027069
-47.1224632263 -22.9579734802 7.9966516495
-47.1226539612 -22.9569950104 7.8039026260
-47.1250000000 -22.9569892883 7.6118593216
-47.1277580261 -22.9571685791 7.4199461937
-47.1302413940 -22.9572238922 7.2279300690
-47.1321525574 -22.9570217133 7.0357122421
-47.1334762573 -22.9565544128 6.8432860374
-47.1344108582 -22.9559116364 6.6507177353
-47.1354141235 -22.9552993774 6.4581599236
-47.1376647949 -22.9552497864 6.2660145760
-47.1445999146 -22.9573135376 6.0754499435
-47.1646766663 -22.9653091431 5.8893594742
-47.2130775452 -22.9860858917 5.7129526138
-47.3071060181 -23.0274524689 5.5522060394
-47.4533386230 -23.0923767090 5.4094700813
-47.6365699768 -23.1739997864 5.2796335220
-47.8242073059 -23.2576122284 5.1515583992
-47.9830207825 -23.3282203674 5.0137944221
-48.0910453796 -23.3759059906 4.8586888313
-48.1394653320 -23.3966960907 4.6830849648
-48.1326942444 -23.3925781250 4.4883875847
-48.0864105225 -23.3706283569 4.2799310684
-48.0186042786 -23.3389644623 4.0638980865
-47.9407539368 -23.3027667999 3.8442509174
-47.8566513062 -23.2637481689 3.6222953796
-47.7645606995 -23.2211246490 3.3974087238
-47.6603431702 -23.1730251312 3.1681208611
-47.5464782715 -23.1205711365 2.9352784157
-47.4409294128 -23.0718688965 2.7051942348
-47.3701438904 -23.0388565063 2.4872300625
-47.3475494385 -23.0275936127 2.2862133980
-47.3605270386 -23.0323848724 2.0977661610
-47.3803138733 -23.0402507782 1.9117457867
-47.3844947815 -23.0410709381 1.7201821804
-47.3717575073 -23.0342559814 1.5225757360
-47.3587799072 -23.0273323059 1.3248505592
-47.3632392883 -23.0282783508 1.1333414316
-47.3881683350 -23.0384635925 0.9491712451
-47.4213638306 -23.0523815155 0.7679965496
-47.4474067688 -23.0630702972 0.5842784047
-47.4568977356 -23.0662879944 0.3946073055
-47.4459915161 -23.0602989197 0.1975591928
-6.1995391846 -61.4275207520 93.5221481323
-6.1935434341 -61.3720550537 93.3379516602
-6.1836199760 -61.2739105225 93.1529922485
-6.1720457077 -61.1578330994 92.9676055908
-6.1615428925 -61.0534057617 92.7822723389
-6.1538724899 -60.9797630310 92.5973434448
-6.1491498947 -60.9381523132 92.4129104614
-6.1464486122 -60.9185066223 92.2288208008
-6.1447715759 -60.9099960327 92.0449142456
-6.1435236931 -60.9061431885 91.8610839844
-6.1424679756 -60.9043769836 91.6772766113
-6.1415958405 -60.9046134949 91.4934997559
-6.1411552429 -60.9095306396 91.3098144531
-6.1418728828 -60.9270324707 91.1264038086
-6.1451854706 -60.9727287292 90.9436569214
-6.1530404091 -61.0677566528 90.7621231079
-6.1669631004 -61.2286834717 90.5822906494
-6.1867699623 -61.4535140991 90.4042358398
-6.2099499702 -61.7149658203 90.2273712158
-6.2325687408 -61.9703102112 90.0506439209
-6.2514081001 -62.1845893860 89.8731155396
-6.2656998634 -62.3494682312 89.6944885254
-6.2768683434 -62.4804229736 89.5150909424
-6.2866573334 -62.5963859558 89.3354187012
-6.2956209183 -62.7033767700 89.1556091309
-6.3031420708 -62.7947044373 88.9754562378
-6.3084216118 -62.8616828918 88.7946548462
-6.3112826347 -62.9023933411 88.6131210327
-6.3122425079 -62.9224700928 88.4309616089
-6.3120746613 -62.9302902222 88.2484283447
-6.3113684654 -62.9322738647 88.0656967163
-6.3103742599 -62.9311332703 87.8828582764
-6.3089427948 -62.9252433777 87.6998367310
-6.3063063622 -62.9062690735 87.5163497925
-6.3007316589 -62.8554039001 87.3317108154
-6.2896695137 -62.7449760437 87.1448669434
-6.2711958885 -62.5540962219 86.9549636841
-6.2464032173 -62.2946510315 86.7622833252
-6.2205147743 -62.0233192444 86.5688323975
-6.2009835243 -61.8210105896 86.3776779175
-6.1939258575 -61.7540969849 86.1915130615
-6.2015037537 -61.8460311890 86.0114898682
-6.2210478783 -62.0678291321 85.8367614746
-6.2458753586 -62.3469505310 85.6646041870
-6.2683005333 -62.5999832153 85.4916915894
-6.2835006714 -62.7745971680 85.3158035278
-6.2909874916 -62.8655014038 85.1365737915
-6.2927374840 -62.8941459656 84.9547729492
-6.2904949188 -62.8794670105 84.7711029053
-6.2847084999 -62.8263359070 84.5857086182
-6.2751798630 -62.7326087952 84.3984222412
-6.2620253563 -62.5995483398 84.2092285156
-6.2457933426 -62.4331054688 84.0183334351
-6.2270932198 -62.2399024963 83.8259811401
-6.2069010735 -62.0305175781 83.6326217651
-6.1873140335 -61.8277168274 83.4393081665
-6.1711144447 -61.6616744995 83.2475204468
-6.1600322723 -61.5511512756 83.0582351685
-6.1537213326 -61.4924011230 82.8713684082
-6.1505169868 -61.4673423767 82.6861114502
-6.1487874985 -61.4582901001 82.5016250610
-6.1475806236 -61.4549064636 82.3173980713
-6.1465210915 -61.4531211853 82.1332473755
-6.1455211639 -61.4519805908 81.9491119385
-6.1446466446 -61.4522018433 81.7650375366
-6.1441922188 -61.4569816589 81.5811920166
-6.1449203491 -61.4745864868 81.3980407715
-6.1481943130 -61.5197982788 81.2164154053
-6.1555066109 -61.6087951660 81.0372695923
-6.1671657562 -61.7449264526 80.8608551025
-6.1810340881 -61.9050025940 80.6859588623
-6.1927766800 -62.0420227051 80.5099182129
-6.1978416443 -62.1066284180 80.3298339844
-6.1938118935 -62.0726280212 80.1440429688
-6.1817297935 -61.9513244629 79.9530334473
-6.1656908989 -61.7871322632 79.7593002319
-6.1506600380 -61.6338806152 79.5660247803
-6.1398029327 -61.5258827209 79.3753051758
-6.1334514618 -61.4667396545 79.1874542236
-6.1301808357 -61.4409980774 79.0016021729
-6.1284222603 -61.4316444397 78.8167266846
-6.1272258759 -61.4283943176 78.6322174072
-6.1262006760 -61.4269905090 78.4478073120
-6.1252274513 -61.4261550903 78.2634277344
-6.1242780685 -61.4255790710 78.0790481567
-6.1233425140 -61.4251556396 77.8946609497
-6.1224131584 -61.4247970581 77.7102737427
-6.1214790344 -61.4243888855 77.5258636475
-6.1205306053 -61.4238281250 77.3414382935
-6.1195616722 -61.4230384827 77.1569824219
-6.1185698509 -61.4220085144 76.9724960327
-6.1175575256 -61.4207572937 76.7879791260
-6.1165308952 -61.4193496704 76.6034393311
-6.1154990196 -61.4178886414 76.4188766479
-6.1144742966 -61.4165000916 76.2343139648
-6.1134638786 -61.4152717590 76.0497436523
-6.1124668121 -61.4141845703 75.8651733398
-6.1114706993 -61.4131164551 75.6805877686
-6.1104345322 -61.4116058350 75.4959564209
-6.1092848778 -61.4088706970 75.3112258911
-6.1080341339 -61.4050407410 75.1263961792
-6.1072072983 -61.4058036804 74.9418945313
-6.1084380150 -61.4288558960 74.7590713501
-6.1142611504 -61.5016517639 74.5800857544
-6.1261973381 -61.6406593323 74.4062805176
-6.1425127983 -61.8270874023 74.2363204956
-6.1586370468 -62.0114364624 74.0664138794
-6.1704316139 -62.1488800049 73.8930130005
-6.1767454147 -62.2269630432 73.7150344849
-6.1788692474 -62.2596588135 73.5334930420
-6.1783518791 -62.2637481689 73.3496780396
-6.1754713058 -62.2422523499 73.1637649536
-6.1690311432 -62.1822090149 72.9746475220
-6.1572809219 -62.0646743774 72.7807006836
-6.1395406723 -61.8822822571 72.5811996460
-6.1173806190 -61.6520500183 72.3774566650
-6.0941538811 -61.4102783203 72.1724472046
-6.0733189583 -61.1944198608 71.9693374634
-6.0570826530 -61.0283660889 71.7702255249
-6.0460357666 -60.9185066223 71.5757446289
-6.0394463539 -60.8569107056 71.3853073120
-6.0359015465 -60.8282814026 71.1976776123
-6.0341110229 -60.8186416626 71.0116653442
-6.0335836411 -60.8226776123 70.8268432617
-6.0350713730 -60.8485336304 70.6439666748
-6.0406432152 -60.9185867310 70.4650802612
-6.0528230667 -61.0601654053 70.2927398682
-6.0724978447 -61.2828598022 70.1279449463
-6.0970187187 -61.5579910278 69.9682159424
-6.1208829880 -61.8259925842 69.8081436157
-6.1390399933 -62.0322189331 69.6426544189
-6.1497302055 -62.1576194763 69.4698410034
-6.1543865204 -62.2177162170 69.2910156250
-6.1555557251 -62.2400741577 69.1086807251
-6.1551733017 -62.2456398010 68.9247589111
-6.1541013718 -62.2437438965 68.7401123047
-6.1523275375 -62.2342567444 68.5547256470
-6.1491351128 -62.2094230652 68.3678207397
-6.1431174278 -62.1540184021 68.1778869629
-6.1321973801 -62.0455741882 67.9826583862
-6.1140332222 -61.8587646484 67.7795333862
-6.0873646736 -61.5799598694 67.5670089722
-6.0541739464 -61.2306137085 67.3470764160
-6.0207009315 -60.8782348633 67.1263961792
-5.9953374863 -60.6136131287 66.9141769409
-5.9846091270 -60.5073165894 66.7177734375
-5.9902176857 -60.5777473450 66.5393524170
-6.0081372261 -60.7813415527 66.3747482300
-6.0293993950 -61.0210762024 66.2141265869
-6.0432314873 -61.1804389954 66.0453872681
-6.0421648026 -61.1786422729 65.8599166870
-6.0260014534 -61.0135726929 65.6571884155
-6.0014939308 -60.7582740784 65.4446640015
-5.9777131081 -60.5108451843 65.2326583862
-5.9607825279 -60.3375167847 65.0283050537
-5.9521903992 -60.2543716431 64.8334655762
-5.9511885643 -60.2533149719 64.6474380493
-5.9577431679 -60.3339653015 64.4703140259
-5.9725532532 -60.5038795471 64.3030776978
-5.9941320419 -60.7469749451 64.1441268921
-6.0164175034 -60.9976921082 63.9862937927
-6.0304121971 -61.1587524414 63.8187484741
-6.0293674469 -61.1572036743 63.6331291199
-6.0132613182 -60.9928245544 63.4291229248
-5.9888072014 -60.7382049561 63.2146644592
-5.9649739265 -60.4903221130 63.0006561279
-5.9476680756 -60.3130073547 62.7944259644
-5.9377522469 -60.2155914307 62.5971794128
-5.9329490662 -60.1734542847 62.4062080383
-5.9306631088 -60.1585273743 62.2183456421
-5.9293155670 -60.1537437439 62.0316390991
-5.9282493591 -60.1520042419 61.8452720642
-5.9272603989 -60.1510963440 61.6589927673
-5.9262924194 -60.1504173279 61.4727249146
-5.9253225327 -60.1497192383 61.2864418030
-5.9243412018 -60.1488990784 61.1001319885
-5.9233441353 -60.1479072571 60.9137878418
-5.9223361015 -60.1467971802 60.7274131775
-5.9213280678 -60.1456909180 60.5410270691
-5.9203343391 -60.1447410583 60.3546485901
-5.9193658829 -60.1440620422 60.1682891846
-5.9184231758 -60.1436614990 59.9819526672
-5.9174976349 -60.1434478760 59.7956237793
-5.9165749550 -60.1432647705 59.6092872620
-5.9156398773 -60.1429481506 59.4229240417
-5.9146790504 -60.1423568726 59.2365112305
-5.9136815071 -60.1413688660 59.0500335693
-5.9126391411 -60.1398925781 58.8634834290
-5.9115419388 -60.1378326416 58.6768455505
-5.9103608131 -60.1348609924 58.4900703430
-5.9090070724 -60.1300315857 58.3030433655
-5.9073047638 -60.1214294434 58.1155090332
-5.9050617218 -60.1069908142 57.9271888733
-5.9023361206 -60.0873451233 57.7381591797
-5.8996896744 -60.0685539246 57.5492019653
-5.8979692459 -60.0597686768 57.3615379333
-5.8975958824 -60.0655326843 57.1757812500
-5.8981461525 -60.0812644958 56.9913482666
-5.8987708092 -60.0978088379 56.8070335388
-5.8989086151 -60.1090888977 56.6220169067
-5.8985047340 -60.1145172119 56.4362106323
-5.8977570534 -60.1162414551 56.2498931885
-5.8968582153 -60.1163291931 56.0633468628
-5.8959503174 -60.1163177490 55.8767700195
-5.8952417374 -60.1184616089 55.6904792786
-5.8952002525 -60.1278076172 55.5051765442
-5.8966674805 -60.1534461975 55.3221359253
-5.9005708694 -60.2053833008 55.1427841187
-5.9070568085 -60.2851982117 54.9673881531
-5.9146404266 -60.3768577576 54.7937431335
-5.9205117226 -60.4500274658 54.6175842285
-5.9221353531 -60.4773406982 54.4349937439
-5.9185194969 -60.4480972290 54.2443618774
-5.9098353386 -60.3641433716 54.0458488464
-5.8964910507 -60.2298965454 53.8399887085
-5.8794813156 -60.0560989380 53.6282463074
-5.8613781929 -59.8705101013 53.4145698547
-5.8458266258 -59.7124748230 53.2046661377
-5.8356575966 -59.6125373840 53.0030555725
-5.8319993019 -59.5828781128 52.8116264343
-5.8350143433 -59.6252288818 52.6307640076
-5.8441686630 -59.7338333130 52.4597511292
-5.8568587303 -59.8805885315 52.2945251465
-5.8676004410 -60.0063056946 52.1263275146
-5.8704581261 -60.0469436646 51.9455184937
-5.8633217812 -59.9797477722 51.7485275269
-5.8495359421 -59.8408050537 51.5405998230
-5.8350439072 -59.6942596436 51.3313407898
-5.8241319656 -59.5863494873 51.1277732849
-5.8176941872 -59.5267181396 50.9314422607
-5.8144750595 -59.5018081665 50.7403602600
-5.8130450249 -59.4962043762 50.5522079468
-5.8128094673 -59.5034828186 50.3660278320
-5.8140296936 -59.5264739990 50.1822891235
-5.8172388077 -59.5709152222 50.0019073486
-5.8223714828 -59.6360969543 49.8248138428
-5.8281588554 -59.7083435059 49.6488990784
-5.8324308395 -59.7642364502 49.4704780579
-5.8331446648 -59.7817535400 49.2860374451
-5.8294587135 -59.7518157959 49.0940628052
-5.8223247528 -59.6846961975 48.8961067200
-5.8141241074 -59.6060829163 48.6962127686
-5.8072280884 -59.5415344238 48.4984741211
-5.8026442528 -59.5019302368 48.3046722412
-5.7999863625 -59.4830970764 48.1141738892
-5.7983841896 -59.4756507874 47.9254875183
-5.7971925735 -59.4726295471 47.7375068665
-5.7961168289 -59.4708557129 47.5497169495
-5.7950620651 -59.4693145752 47.3619461060
-5.7940096855 -59.4678001404 47.1741676331
-5.7929544449 -59.4662513733 46.9863700867
-5.7918944359 -59.4646568298 46.7985458374
-5.7908234596 -59.4629402161 46.6106910706
-5.7897615433 -59.4613227844 46.4228401184
-5.7889041901 -59.4619140625 46.2353439331
-5.7889761925 -59.4725227356 46.0495262146
-5.7915120125 -59.5096893311 45.8682060242
-5.7981934547 -59.5915412903 45.6945114136
-5.8088049889 -59.7157478333 45.5281257629
-5.8195481300 -59.8413696289 45.3621253967
-5.8246212006 -59.9058647156 45.1857643127
-5.8206877708 -59.8732948303 44.9927406311
-5.8097400665 -59.7651290894 44.7865867615
-5.7972464561 -59.6403121948 44.5774002075
-5.7879486084 -59.5499382019 44.3740501404
-5.7835988998 -59.5128974915 44.1799011230
-5.7835307121 -59.5220031738 43.9937858582
-5.7858772278 -59.5571212769 43.8122482300
-5.7881212234 -59.5911331177 43.6305465698
-5.7876162529 -59.5955276489 43.4436264038
-5.7825727463 -59.5510139465 43.2480010986
-5.7728567123 -59.4561691284 43.0433273315
-5.7599978447 -59.3274688721 42.8324623108
-5.7465357780 -59.1922760010 42.6202621460
-5.7349448204 -59.0772552490 42.4115219116
-5.7264475822 -58.9955673218 42.2086563110
-5.7206058502 -58.9424934387 42.0108757019
-5.7162342072 -58.9052581787 41.8158988953
-5.7126269341 -58.8762588501 41.6223716736
-5.7098569870 -58.8562774658 41.4304504395
-5.7084112167 -58.8505706787 41.2411155701
-5.7091240883 -58.8681106567 41.0560531616
-5.7133340836 -58.9233093262 40.8779716492
-5.7222423553 -59.0291099548 40.7093467712
-5.7352228165 -59.1787605286 40.5490112305
-5.7486090660 -59.3327751160 40.3896598816
-5.7568664551 -59.4315452576 40.2201194763
-5.7558484077 -59.4304275513 40.0318908691
-5.7455596924 -59.3294754028 39.8247985840
-5.7301397324 -59.1732864380 39.6071052551
-5.7150945663 -59.0211372375 39.3899765015
-5.7040386200 -58.9119529724 39.1808433533
-5.6975016594 -58.8514328003 38.9808692932
-5.6940979958 -58.8246536255 38.7872848511
-5.6922483444 -58.8146057129 38.5968742371
-5.6909937859 -58.8109626770 38.4076766968
-5.6899366379 -58.8094482422 38.2188758850
-5.6889519691 -58.8087158203 38.0302085876
-5.6880073547 -58.8084144592 37.8416175842
-5.6871066093 -58.8085861206 37.6531028748
-5.6863493919 -58.8103027344 37.4648780823
-5.6861157417 -58.8176574707 37.2777557373
-5.6873621941 -58.8409423828 37.0937728882
-5.6916995049 -58.8974914551 36.9163894653
-5.7006535530 -59.0037307739 36.7489318848
-5.7141289711 -59.1586227417 36.5912818909
-5.7295103073 -59.3340148926 36.4379081726
-5.7428641319 -59.4875831604 36.2803573608
-5.7513256073 -59.5884857178 36.1124000549
-5.7541189194 -59.6283950806 35.9322509766
-5.7515687943 -59.6107940674 35.7405090332
-5.7439823151 -59.5390090942 35.5377426147
-5.7319502831 -59.4193916321 35.3251419067
-5.7172770500 -59.2713661194 35.1065826416
-5.7028059959 -59.1255264282 34.8882827759
-5.6907024384 -59.0051651001 34.6750183105
-5.6806788445 -58.9071922302 34.4662055969
-5.6701855659 -58.8041725159 34.2562217712
-5.6569800377 -58.6719818115 34.0400543213
-5.6416764259 -58.5172309875 33.8190269470
-5.6273784637 -58.3733100891 33.6000518799
-5.6168751717 -58.2702140808 33.3894233704
-5.6106796265 -58.2134628296 33.1883659363
-5.6075181961 -58.1893539429 32.9940910339
-5.6058506966 -58.1813125610 32.8031578064
-5.6047077179 -58.1789169312 32.6133995056
-5.6037168503 -58.1781539917 32.4239730835
-5.6029062271 -58.1793327332 32.2349433899
-5.6026716232 -58.1867065430 32.0472259521
-5.6038498878 -58.2092781067 31.8627510071
-5.6076383591 -58.2599182129 31.6843147278
-5.6151008606 -58.3500595093 31.5144252777
-5.6262803078 -58.4801673889 31.3532524109
-5.6393871307 -58.6309890747 31.1967086792
-5.6507511139 -58.7630653381 31.0362701416
-5.6560292244 -58.8297004700 30.8617439270
-5.6523771286 -58.8003158569 30.6663417816
-5.6403493881 -58.6808776855 30.4511890411
-5.6239709854 -58.5146751404 30.2256202698
-5.6084566116 -58.3577766418 30.0018806458
-5.5972156525 -58.2468299866 29.7880764008
-5.5906558037 -58.1862106323 29.5852546692
-5.5873055458 -58.1600952148 29.3899993896
-5.5855255127 -58.1508674622 29.1984577179
-5.5843253136 -58.1478691101 29.0082817078
-5.5832929611 -58.1466789246 28.8184928894
-5.5822997093 -58.1459045410 28.6287841797
-5.5813112259 -58.1451835632 28.4390754700
-5.5803275108 -58.1445159912 28.2493629456
-5.5794014931 -58.1444702148 28.0597782135
-5.5787224770 -58.1470794678 27.8707847595
-5.5787973404 -58.1577911377 27.6836223602
-5.5806331635 -58.1874275208 27.5007743835
-5.5856084824 -58.2507934570 27.3256607056
-5.5947179794 -58.3585853577 27.1607933044
-5.6074967384 -58.5057945251 27.0051040649
-5.6215758324 -58.6669731140 26.8527984619
-5.6335005760 -58.8049888611 26.6953296661
-5.6400957108 -58.8857383728 26.5247516632
-5.6392483711 -58.8865203857 26.3356895447
-5.6301126480 -58.7982521057 26.1258811951
-5.6135492325 -58.6301994324 25.8973236084
-5.5925107002 -58.4140777588 25.6572971344
-5.5711069107 -58.1940536499 25.4160747528
-5.5525264740 -58.0043678284 25.1817111969
-5.5377497673 -57.8555564880 24.9567451477
-5.5261764526 -57.7411575317 24.7397232056
-5.5170741081 -57.6533126831 24.5288467407
-5.5102281570 -57.5897140503 24.3236122131
-5.5055570602 -57.5494728088 24.1238574982
-5.5026497841 -57.5281829834 23.9285697937
-5.5008516312 -57.5187988281 23.7360954285
-5.4996147156 -57.5154495239 23.5450458527
-5.4987058640 -57.5156250000 23.3548297882
-5.4981813431 -57.5199279785 23.1655979156
-5.4982099533 -57.5301666260 22.9777946472
-5.4987392426 -57.5457839966 22.7912979126
-5.4992108345 -57.5607833862 22.6046562195
-5.4987740517 -57.5660247803 22.4156417847
-5.4970035553 -57.5569534302 22.2231197357
-5.4943237305 -57.5381164551 22.0281810760
-5.4915843010 -57.5186386108 21.8330497742
-5.4893422127 -57.5045051575 21.6392002106
-5.4876437187 -57.4962081909 21.4467601776
-5.4862842560 -57.4915504456 21.2551975250
-5.4850745201 -57.4885025024 21.0640182495
-5.4838929176 -57.4857559204 20.8728981018
-5.4826107025 -57.4819335938 20.6814918518
-5.4810204506 -57.4748039246 20.4892425537
-5.4788947105 -57.4619255066 20.2955303192
-5.4762611389 -57.4436035156 20.1004219055
-5.4736747742 -57.4257888794 19.9054069519
-5.4719967842 -57.4177207947 19.7128181458
-5.4716629982 -57.4240837097 19.5238590240
-5.4722485542 -57.4403076172 19.3373985291
-5.4728951454 -57.4571914673 19.1511116028
-5.4730434418 -57.4687232971 18.9634704590
-5.4726490974 -57.4744377136 18.7743415833
-5.4719176292 -57.4765319824 18.5842819214
-5.4710335732 -57.4769897461 18.3937911987
-5.4701037407 -57.4769554138 18.2031612396
-5.4692726135 -57.4779853821 18.0127944946
-5.4689579010 -57.4845504761 17.8238487244
-5.4701733589 -57.5075378418 17.6391544342
-5.4746055603 -57.5650329590 17.4634437561
-5.4838294983 -57.6739273071 17.3011798859
-5.4976801872 -57.8324546814 17.1519966125
-5.5132293701 -58.0091934204 17.0077590942
-5.5258760452 -58.1547851563 16.8555583954
-5.5317378044 -58.2275848389 16.6843852997
-5.5291256905 -58.2094917297 16.4893321991
-5.5186381340 -58.1069259644 16.2719287872
-5.5029892921 -57.9490127563 16.0397319794
-5.4866456985 -57.7836570740 15.8053541183
-5.4745225906 -57.6635742188 15.5828027725
-5.4702200890 -57.6273689270 15.3824558258
-5.4748849869 -57.6873435974 15.2077550888
-5.4868402481 -57.8254966736 15.0540571213
-5.5019998550 -57.9979972839 14.9097375870
-5.5156307220 -58.1540985107 14.7612056732
-5.5247249603 -58.2615470886 14.5997304916
-5.5288748741 -58.3159675598 14.4240407944
-5.5289893150 -58.3271217346 14.2366819382
-5.5254774094 -58.2993927002 14.0387668610
-5.5176930428 -58.2258567810 13.8283376694
-5.5050201416 -58.0999183655 13.6035099030
-5.4885110855 -57.9328575134 13.3672723770
-5.4712791443 -57.7580604553 13.1286964417
-5.4569110870 -57.6139793396 12.8983278275
-5.4473924637 -57.5218925476 12.6820802689
-5.4426326752 -57.4808197021 12.4797811508
-5.4416012764 -57.4797172546 12.2884693146
-5.4433526993 -57.5084457397 12.1054086685
-5.4469170570 -57.5566062927 11.9277677536
-5.4507398605 -57.6075286865 11.7509431839
-5.4527983665 -57.6395454407 11.5688943863
-5.4515070915 -57.6356582642 11.3768358231
-5.4465198517 -57.5921630859 11.1736621857
-5.4386997223 -57.5183067322 10.9618978500
-5.4294185638 -57.4288024902 10.7456245422
-5.4199886322 -57.3377113342 10.5287818909
-5.4116210938 -57.2580146790 10.3150348663
-5.4054899216 -57.2022819519 10.1079654694
-5.4024362564 -57.1795272827 9.9101753235
-5.4024591446 -57.1897392273 9.7217254639
-5.4043369293 -57.2198257446 9.5389394760
-5.4057955742 -57.2454223633 9.3548965454
-5.4046621323 -57.2432479858 9.1629199982
-5.4004745483 -57.2083511353 8.9615383148
-5.3948702812 -57.1582832336 8.7557392120
-5.3899927139 -57.1160011292 8.5521078110
-5.3865256310 -57.0888366699 8.3527784348
-5.3833832741 -57.0651473999 8.1544094086
-5.3789544106 -57.0276870728 7.9520030022
-5.3723812103 -56.9672546387 7.7428622246
-5.3638887405 -56.8862686157 7.5276470184
-5.3543410301 -56.7939949036 7.3090233803
-5.3447422981 -56.7011718750 7.0901145935
-5.3361053467 -56.6186599731 6.8740992546
-5.3294000626 -56.5568428040 6.6640486717
-5.3253283501 -56.5232353210 6.4622139931
-5.3241782188 -56.5209121704 6.2695527077
-5.3258700371 -56.5490264893 6.0858731270
-5.3299231529 -56.6024208069 5.9097037315
-5.3354611397 -56.6717109680 5.7383065224
-5.3416829109 -56.7483253479 5.5691595078
-5.3484725952 -56.8310089111 5.4019050598
-5.3562636375 -56.9244155884 5.2379412651
-5.3651137352 -57.0291519165 5.0774717331
-5.3739433289 -57.1336631775 4.9170517921
-5.3806242943 -57.2151641846 4.7498331070
-5.3828043938 -57.2484817505 4.5681910515
-5.3790836334 -57.2186241150 4.3675141335
-5.3700561523 -57.1319656372 4.1496114731
-5.3584175110 -57.0173645020 3.9231216908
-5.3476791382 -56.9124031067 3.6994056702
-5.3404526711 -56.8450393677 3.4869859219
-5.3379483223 -56.8282318115 3.2898812294
-5.3407130241 -56.8678092957 3.1099689007
-5.3487949371 -56.9642944336 2.9475119114
-5.3603615761 -57.0980720520 2.7965989113
-5.3705897331 -57.2175178528 2.6414334774
-5.3734126091 -57.2577056885 2.4619967937
-5.3654932976 -57.1829414368 2.2471258640
-5.3485112190 -57.0111999512 2.0021677017
-5.3273639679 -56.7948989868 1.7431788445
-5.3063859940 -56.5804252625 1.4844777584
-5.2872829437 -56.3860282898 1.2317429781
-5.2698388100 -56.2093925476 0.9842906594
-5.2537026405 -56.0467643738 0.7409818172
-5.2393932343 -55.9036941528 0.5035781264
-5.2279167175 -55.7909355164 0.2754879892
-5.2196555138 -55.7125854492 0.0580545999
-46.3709907532 -16.0563831329 93.3824310303
-46.3689270020 -16.0547676086 93.1931304932
-46.3556251526 -16.0497817993 93.0035629272
-46.3174705505 -16.0373363495 92.8134002686
-46.2417869568 -16.0136280060 92.6222915649
-46.1294364929 -15.9789152145 92.4301910400
-46.0025100708 -15.9398279190 92.2375717163
-45.8962783813 -15.9069499969 92.0453033447
-45.8426094055 -15.8898468018 91.8542480469
-45.8625335693 -15.8948287964 91.6650848389
-45.9680328369 -15.9254941940 91.4782714844
-46.1568565369 -15.9811668396 91.2939224243
-46.3999938965 -16.0531425476 91.1113586426
-46.6441726685 -16.1254310608 90.9291305542
-46.8394126892 -16.1830368042 90.7457351685
-46.9688148499 -16.2208786011 90.5605697632
-47.0542793274 -16.2455368042 90.3741912842
-47.1388092041 -16.2699146271 90.1878738403
-47.2603912354 -16.3054141998 90.0028610229
-47.4289093018 -16.3550014496 89.8195571899
-47.6184272766 -16.4108924866 89.6371612549
-47.7845726013 -16.4597702026 89.4542007446
-47.8942070007 -16.4916877747 89.2694549561
-47.9393692017 -16.5042533875 89.0825271606
-47.9299125671 -16.5004215240 88.8936538696
-47.8853607178 -16.4860572815 88.7034606934
-47.8354187012 -16.4700756073 88.5129852295
-47.8132438660 -16.4624271393 88.3235092163
-47.8335914612 -16.4675426483 88.1356430054
-47.8782920837 -16.4799690247 87.9487609863
-47.9079589844 -16.4878826141 87.7613143921
-47.8853721619 -16.4801120758 87.5717544556
-47.7913017273 -16.4508800507 87.3791809082
-47.6335296631 -16.4025230408 87.1837692261
-47.4490699768 -16.3461551666 86.9869995117
-47.2891616821 -16.2971572876 86.7910461426
-47.1936874390 -16.2674999237 86.5977249146
-47.1786231995 -16.2619838715 86.4078750610
-47.2418632507 -16.2799739838 86.2215576172
-47.3693161011 -16.3172435760 86.0382843018
-47.5341186523 -16.3657264709 85.8569030762
-47.6995925903 -16.4144115448 85.6757659912
-47.8304214478 -16.4526977539 85.4931564331
-47.9014205933 -16.4730205536 85.3077926636
-47.8983917236 -16.4711189270 85.1188430786
-47.8207893372 -16.4468269348 84.9261398315
-47.6934623718 -16.4076042175 84.7307968140
-47.5730514526 -16.3704586029 84.5356369019
-47.5252723694 -16.3551197052 84.3440856934
-47.5802650452 -16.3706359863 84.1578826904
-47.7095794678 -16.4084701538 83.9756927490
-47.8516998291 -16.4501495361 83.7943572998
-47.9589195251 -16.4813499451 83.6112823486
-48.0198059082 -16.4986381531 83.4257736206
-48.0476264954 -16.5059986115 83.2384872437
-48.0591125488 -16.5084571838 83.0502929688
-48.0634880066 -16.5087757111 82.8616943359
-48.0614242554 -16.5071640015 82.6727218628
-48.0464401245 -16.5016727448 82.4829711914
-48.0068664551 -16.4887943268 82.2917404175
-47.9329833984 -16.4656143188 82.0983810425
-47.8297386169 -16.4336166382 81.9031448364
-47.7236022949 -16.4007511139 81.7075805664
-47.6501579285 -16.3777008057 81.5138931274
-47.6293106079 -16.3704452515 81.3233795166
-47.6527519226 -16.3764915466 81.1356201172
-47.6959648132 -16.3884735107 80.9491348267
-47.7395324707 -16.4005622864 80.7627182007
-47.7783851624 -16.4112358093 80.5760421753
-47.8137435913 -16.4208583832 80.3891754150
-47.8398056030 -16.4276924133 80.2017211914
-47.8414764404 -16.4271984100 80.0126571655
-47.8078613281 -16.4161090851 79.8211975098
-47.7473449707 -16.3969383240 79.6278381348
-47.6859436035 -16.3775024414 79.4343261719
-47.6503219604 -16.3658084869 79.2425231934
-47.6515998840 -16.3651962280 79.0532455444
-47.6812591553 -16.3731079102 78.8659744263
-47.7192535400 -16.3835239410 78.6793289185
-47.7463073730 -16.3906536102 78.4919204712
-47.7493476868 -16.3905715942 78.3027954102
-47.7186660767 -16.3803615570 78.1111755371
-47.6472663879 -16.3579196930 77.9164886475
-47.5389175415 -16.3243770599 77.7189254761
-47.4149398804 -16.2861423492 77.5200347900
-47.3062286377 -16.2524909973 77.3221282959
-47.2361373901 -16.2304401398 77.1270294189
-47.2131080627 -16.2225246429 76.9354782104
-47.2377510071 -16.2289295197 76.7476043701
-47.3085708618 -16.2492027283 76.5633850098
-47.4151954651 -16.2802352905 76.3820877075
-47.5296096802 -16.3136081696 76.2015380859
-47.6122169495 -16.3374271393 76.0185623169
-47.6318283081 -16.3423213959 75.8305587769
-47.5827140808 -16.3265705109 75.6369323730
-47.4867134094 -16.2967319489 75.4393463135
-47.3808441162 -16.2639312744 75.2408065796
-47.2992630005 -16.2384243011 75.0441589355
-47.2620010376 -16.2262325287 74.8511352539
-47.2764739990 -16.2295799255 74.6624679565
-47.3423843384 -16.2483844757 74.4782180786
-47.4492721558 -16.2794971466 74.2975921631
-47.5718917847 -16.3153400421 74.1184692383
-47.6767616272 -16.3458480835 73.9379348755
-47.7367630005 -16.3628768921 73.7535476685
-47.7388305664 -16.3625030518 73.5640640259
-47.6827087402 -16.3446426392 73.3693389893
-47.5814857483 -16.3132324219 73.1704483032
-47.4638900757 -16.2769031525 72.9699172974
-47.3672142029 -16.2468566895 72.7711486816
-47.3217811584 -16.2322063446 72.5769729614
-47.3402786255 -16.2367649078 72.3886795044
-47.4165611267 -16.2586879730 72.2058105469
-47.5283584595 -16.2912807465 72.0263900757
-47.6441726685 -16.3250827789 71.8474731445
-47.7366218567 -16.3518619537 71.6664657593
-47.7937965393 -16.3680438995 71.4821701050
-47.8179168701 -16.3742942810 71.2947235107
-47.8135910034 -16.3719978333 71.1045227051
-47.7786102295 -16.3604869843 70.9112854004
-47.7074699402 -16.3381118774 70.7144088745
-47.6058425903 -16.3065738678 70.5143966675
-47.5013809204 -16.2741851807 70.3139495850
-47.4356002808 -16.2534179688 70.1172561646
-47.4392204285 -16.2535057068 69.9275207520
-47.5113258362 -16.2741756439 69.7447738647
-47.6201400757 -16.3058757782 69.5658950806
-47.7245597839 -16.3362579346 69.3866806030
-47.7984046936 -16.3574504852 69.2044067383
-47.8382339478 -16.3684215546 69.0186538696
-47.8533782959 -16.3719749451 68.8303298950
-47.8525314331 -16.3707218170 68.6403198242
-47.8397483826 -16.3658809662 68.4490203857
-47.8204040527 -16.3590698242 68.2569885254
-47.8066139221 -16.3539257050 68.0655136108
-47.8110046387 -16.3542461395 67.8759918213
-47.8335380554 -16.3600196838 67.6884460449
-47.8600997925 -16.3670043945 67.5013580322
-47.8769493103 -16.3710689545 67.3132171631
-47.8819999695 -16.3715877533 67.1237792969
-47.8814163208 -16.3704128265 66.9336929321
-47.8808593750 -16.3692474365 66.7436065674
-47.8821640015 -16.3686408997 66.5537109375
-47.8841896057 -16.3682498932 66.3638839722
-47.8830795288 -16.3669166565 66.1736984253
-47.8706550598 -16.3621826172 65.9821853638
-47.8341293335 -16.3502044678 65.7878494263
-47.7621421814 -16.3275661469 65.5893173218
-47.6575050354 -16.2951126099 65.3868484497
-47.5455894470 -16.2604694366 65.1833724976
-47.4658164978 -16.2354907990 64.9835510254
-47.4498023987 -16.2296752930 64.7912139893
-47.5034713745 -16.2448062897 64.6072006226
-47.6050109863 -16.2743301392 64.4290161133
-47.7173004150 -16.3070831299 64.2522506714
-47.8057289124 -16.3326663971 64.0727157593
-47.8493270874 -16.3447723389 63.8877906799
-47.8400802612 -16.3409919739 63.6963996887
-47.7794380188 -16.3217620850 63.4986190796
-47.6823959351 -16.2915878296 63.2962150574
-47.5821266174 -16.2604427338 63.0932693481
-47.5195617676 -16.2406311035 62.8949203491
-47.5203475952 -16.2398643494 62.7044906616
-47.5805015564 -16.2569484711 62.5215950012
-47.6724739075 -16.2835979462 62.3428268433
-47.7617912292 -16.3094501495 62.1638298035
-47.8194427490 -16.3257808685 61.9808502197
-47.8263282776 -16.3268508911 61.7913436890
-47.7755508423 -16.3105831146 61.5943183899
-47.6774559021 -16.2800865173 61.3910140991
-47.5622787476 -16.2444572449 61.1853179932
-47.4711990356 -16.2160682678 60.9826431274
-47.4383201599 -16.2051811218 60.7875823975
-47.4764862061 -16.2156524658 60.6019630432
-47.5730247498 -16.2436771393 60.4242172241
-47.6953277588 -16.2794494629 60.2500648499
-47.8064918518 -16.3118743896 60.0745506287
-47.8839950562 -16.3341770172 59.8945808411
-47.9266929626 -16.3460140228 59.7099342346
-47.9464759827 -16.3509616852 59.5221748352
-47.9567909241 -16.3530616760 59.3331260681
-47.9692192078 -16.3557968140 59.1443672180
-47.9975433350 -16.3633136749 58.9578323364
-48.0608215332 -16.3813400269 58.7762222290
-48.1754837036 -16.4148197174 58.6019210815
-48.3360176086 -16.4620952606 58.4342498779
-48.5015411377 -16.5108718872 58.2674865723
-48.6094818115 -16.5423316956 58.0927047729
-48.6128005981 -16.5423316956 57.9030342102
-48.5113601685 -16.5108242035 57.6982574463
-48.3516807556 -16.4618015289 57.4848976135
-48.1956138611 -16.4138641357 57.2718429565
-48.0837593079 -16.3792247772 57.0650329590
-48.0222282410 -16.3597164154 56.8654479980
-47.9957733154 -16.3507595062 56.6709403992
-47.9869613647 -16.3471069336 56.4790000916
-47.9850883484 -16.3455390930 56.2880668640
-47.9854965210 -16.3446598053 56.0974617004
-47.9865570068 -16.3439769745 55.9069404602
-47.9878387451 -16.3433609009 55.7164382935
-47.9895172119 -16.3428630829 55.5259895325
-47.9922676086 -16.3426856995 55.3356933594
-47.9977607727 -16.3433361053 55.1458053589
-48.0104980469 -16.3461647034 54.9570198059
-48.0409049988 -16.3543071747 54.7709655762
-48.1054229736 -16.3727111816 54.5902099609
-48.2161636353 -16.4050178528 54.4167060852
-48.3602828979 -16.4473667145 54.2485427856
-48.4892807007 -16.4851665497 54.0781898499
-48.5417900085 -16.4999599457 53.8959579468
-48.4898338318 -16.4833297729 53.6972846985
-48.3638496399 -16.4444313049 53.4867897034
-48.2297401428 -16.4030876160 53.2748222351
-48.1430053711 -16.3759937286 53.0702400208
-48.1232070923 -16.3690338135 52.8762817383
-48.1601600647 -16.3791465759 52.6914329529
-48.2338142395 -16.4003009796 52.5125656128
-48.3304672241 -16.4283752441 52.3375167847
-48.4467468262 -16.4623527527 52.1657905579
-48.5787353516 -16.5010585785 51.9967727661
-48.7076301575 -16.5388336182 51.8274116516
-48.7992095947 -16.5653820038 51.6520423889
-48.8192596436 -16.5704135895 51.4649162292
-48.7523460388 -16.5492801666 51.2633285522
-48.6147727966 -16.5068893433 51.0498237610
-48.4543075562 -16.4576091766 50.8322868347
-48.3282775879 -16.4186897278 50.6203269958
-48.2704238892 -16.4002799988 50.4197196960
-48.2765197754 -16.4011096954 50.2298812866
-48.3215789795 -16.4136638641 50.0466804504
-48.3854484558 -16.4318771362 49.8667411804
-48.4570732117 -16.4524230957 49.6882095337
-48.5179748535 -16.4697456360 49.5079078674
-48.5349807739 -16.4738597870 49.3200798035
-48.4825057983 -16.4570674896 49.1201858521
-48.3716163635 -16.4226970673 48.9100227356
-48.2464561462 -16.3840332031 48.6972045898
-48.1492042542 -16.3537654877 48.4891128540
-48.0938644409 -16.3361091614 48.2882728577
-48.0706443787 -16.3281173706 48.0930328369
-48.0641441345 -16.3251552582 47.9007225037
-48.0641098022 -16.3241405487 47.7095413208
-48.0659523010 -16.3236904144 47.5186843872
-48.0679779053 -16.3232936859 47.3278465271
-48.0695228577 -16.3227539063 47.1369171143
-48.0703773499 -16.3220062256 46.9458503723
-48.0707397461 -16.3211097717 46.7546806335
-48.0710945129 -16.3202095032 46.5634994507
-48.0719261169 -16.3194541931 46.3723945618
-48.0734939575 -16.3189201355 46.1814079285
-48.0760078430 -16.3186721802 45.9905891418
-48.0807342529 -16.3190879822 45.8001708984
-48.0922660828 -16.3215541840 45.6110076904
-48.1216468811 -16.3293895721 45.4251708984
-48.1868362427 -16.3480033875 45.2460556030
-48.3042564392 -16.3823375702 45.0768051147
-48.4710350037 -16.4315261841 44.9169921875
-48.6531181335 -16.4853229523 44.7602767944
-48.7958869934 -16.5272884369 44.5963363647
-48.8512153625 -16.5429363251 44.4159393311
-48.7999458313 -16.5265026093 44.2152557373
-48.6598358154 -16.4833278656 43.9974746704
-48.4789314270 -16.4278736115 43.7716598511
-48.3130340576 -16.3769340515 43.5484848022
-48.1975593567 -16.3411712646 43.3348388672
-48.1370429993 -16.3219490051 43.1316986084
-48.1194267273 -16.3156414032 42.9368209839
-48.1376571655 -16.3201198578 42.7489166260
-48.1989440918 -16.3375625610 42.5694656372
-48.3146362305 -16.3713798523 42.4007949829
-48.4771194458 -16.4192829132 42.2414970398
-48.6443328857 -16.4686126709 42.0833435059
-48.7528533936 -16.5002746582 41.9137306213
-48.7552223206 -16.4999828339 41.7230758667
-48.6515579224 -16.4677715302 41.5111923218
-48.4893875122 -16.4179477692 41.2874145508
-48.3319892883 -16.3695583344 41.0643730164
-48.2219505310 -16.3354263306 40.8506774902
-48.1698150635 -16.3187236786 40.6485671997
-48.1709861755 -16.3180694580 40.4572181702
-48.2261619568 -16.3336734772 40.2768745422
-48.3416557312 -16.3674354553 40.1089439392
-48.5099258423 -16.4170875549 39.9519882202
-48.6935272217 -16.4713573456 39.7984046936
-48.8335800171 -16.5125160217 39.6360473633
-48.8764266968 -16.5244083405 39.4537048340
-48.7974853516 -16.4996376038 39.2460708618
-48.6140213013 -16.4433956146 39.0165100098
-48.3850708008 -16.3734569550 38.7771682739
-48.1894721985 -16.3135585785 38.5445175171
-48.0893020630 -16.2823905945 38.3316993713
-48.1078453064 -16.2869663239 38.1438217163
-48.2311630249 -16.3230876923 37.9781684875
-48.4129486084 -16.3768138885 37.8250999451
-48.5799217224 -16.4260807037 37.6690940857
-48.6588783264 -16.4488487244 37.4944686890
-48.6196937561 -16.4360427856 37.2945747375
-48.4925422668 -16.3967494965 37.0756797791
-48.3364639282 -16.3487453461 36.8503570557
-48.1906280518 -16.3038234711 36.6270294189
-48.0571594238 -16.2626247406 36.4061889648
-47.9240989685 -16.2215480804 36.1852455139
-47.7934761047 -16.1812038422 35.9646453857
-47.6829605103 -16.1469154358 35.7482681274
-47.6073722839 -16.1231422424 35.5394172668
-47.5663185120 -16.1097679138 35.3380661011
-47.5487365723 -16.1034622192 35.1418457031
-47.5436401367 -16.1009159088 34.9483566284
-47.5461463928 -16.1006603241 34.7565383911
-47.5585327148 -16.1033782959 34.5669212341
-47.5893592834 -16.1116504669 34.3814315796
-47.6497573853 -16.1288280487 34.2026138306
-47.7446670532 -16.1563987732 34.0316352844
-47.8638648987 -16.1912860870 33.8662528992
-47.9832534790 -16.2262325287 33.7010612488
-48.0786933899 -16.2539653778 33.5305747986
-48.1399040222 -16.2713890076 33.3523979187
-48.1718940735 -16.2800140381 33.1676139832
-48.1860733032 -16.2832756042 32.9787788391
-48.1918601990 -16.2840080261 32.7880210876
-48.1942405701 -16.2837162018 32.5964698792
-48.1952171326 -16.2829990387 32.4045867920
-48.1956405640 -16.2821178436 32.2125625610
-48.1961708069 -16.2812671661 32.0205535889
-48.1976165771 -16.2806911469 31.8287410736
-48.2016563416 -16.2808990479 31.6375293732
-48.2128372192 -16.2832565308 31.4479808807
-48.2417373657 -16.2909507751 31.2626037598
-48.3051071167 -16.3090286255 31.0853786469
-48.4153938293 -16.3412380219 30.9193191528
-48.5599174500 -16.3837623596 30.7615127563
-48.6900100708 -16.4219398499 30.6004524231
-48.7439384460 -16.4371757507 30.4213905334
