-37.9851646423 41.1871643066 68.2954177856
-37.9822158813 41.1824836731 68.1065673828
-37.9609336853 41.1583061218 67.9153594971
-37.9141311646 41.1069869995 67.7208251953
-37.8489227295 41.0360984802 67.5238265991
-37.7780113220 40.9591445923 67.3259582520
-37.7052001953 40.8801651001 67.1277084351
-37.6239814758 40.7922477722 66.9282073975
-37.5291557312 40.6898574829 66.7267456055
-37.4257850647 40.5783805847 66.5239715576
-37.3253135681 40.4699859619 66.3213958740
-37.2354202271 40.3728370667 66.1200637817
-37.1567497253 40.2876243591 65.9200973511
-37.0877418518 40.2126808167 65.7213058472
-37.0279541016 40.1475486755 65.5236511230
-36.9754486084 40.0901527405 65.3268966675
-36.9249992371 40.0349464417 65.1303253174
-36.8729553223 39.9780387878 64.9334335327
-36.8238830566 39.9242935181 64.7368545532
-36.7883872986 39.8849906921 64.5421218872
-36.7711677551 39.8651199341 64.3499298096
-36.7623634338 39.8541946411 64.1589050293
-36.7428703308 39.8319053650 63.9663124084
-36.6980667114 39.7826957703 63.7699775696
-36.6283645630 39.7070083618 63.5699043274
-36.5497016907 39.6217880249 63.3683700562
-36.4824333191 39.5486869812 63.1683845520
-36.4346466064 39.4963035583 62.9711799622
-36.3940048218 39.4515151978 62.7749519348
-36.3359680176 39.3882293701 62.5760154724
-36.2411689758 39.2858428955 62.3713798523
-36.1067581177 39.1413269043 62.1605110168
-35.9439353943 38.9665870667 61.9450263977
-35.7674255371 38.7772903442 61.7271308899
-35.5901069641 38.5871315002 61.5087890625
-35.4265518188 38.4116020203 61.2922782898
-35.2941741943 38.2692375183 61.0803718567
-35.2047462463 38.1725502014 60.8750190735
-35.1568641663 38.1200523376 60.6761016846
-35.1398582458 38.1003952026 60.4820289612
-35.1425781250 38.1017150879 60.2910842896
-35.1560630798 38.1144828796 60.1018753052
-35.1706123352 38.1283874512 59.9128532410
-35.1738662720 38.1302757263 59.7220001221
-35.1527404785 38.1062316895 59.5271377563
-35.0980796814 38.0465202332 59.3266906738
-35.0107460022 37.9520530701 59.1207084656
-34.9043426514 37.8372993469 58.9113845825
-34.7984504700 37.7230873108 58.7019462585
-34.7052307129 37.6223526001 58.4944496155
-34.6219482422 37.5321922302 58.2884635925
-34.5370826721 37.4403419495 58.0820503235
-34.4432601929 37.3389663696 57.8739433289
-34.3439674377 37.2317657471 57.6647224426
-34.2482299805 37.1283493042 57.4559288025
-34.1615638733 37.0345802307 57.2485351563
-34.0850715637 36.9516296387 57.0427551270
-34.0215797424 36.8825111389 56.8391189575
-33.9771270752 36.8336448669 56.6387176514
-33.9544143677 36.8078994751 56.4420890808
-33.9479103088 36.7993965149 56.2482948303
-33.9476585388 36.7975502014 56.0556030273
-33.9470481873 36.7953147888 55.8628349304
-33.9461250305 36.7927513123 55.6699981689
-33.9481163025 36.7932853699 55.4776802063
-33.9529838562 36.7968788147 55.2858772278
-33.9539947510 36.7963714600 55.0933647156
-33.9405097961 36.7804450989 54.8981742859
-33.9041175842 36.7401466370 54.6986999512
-33.8410301208 36.6714477539 54.4941825867
-33.7490730286 36.5720367432 54.2841415405
-33.6261596680 36.4396896362 54.0681076050
-33.4753189087 36.2776298523 53.8465766907
-33.3093605042 36.0994873047 53.6219024658
-33.1459693909 35.9240684509 53.3974113464
-32.9986305237 35.7657318115 53.1757011414
-32.8761291504 35.6338119507 52.9584960938
-32.7883186340 35.5387954712 52.7477684021
-32.7440872192 35.4901466370 52.5453376770
-32.7415580750 35.4858665466 52.3509445190
-32.7662010193 35.5104866028 52.1618614197
-32.8005523682 35.5454444885 51.9747238159
-32.8324317932 35.5777664185 51.7871437073
-32.8546524048 35.5998191833 51.5976943970
-32.8627929688 35.6068840027 51.4054603577
-32.8554725647 35.5975036621 51.2101402283
-32.8343124390 35.5733947754 51.0120086670
-32.8016052246 35.5370025635 50.8114967346
-32.7577781677 35.4887809753 50.6086654663
-32.7013053894 35.4270973206 50.4031639099
-32.6329460144 35.3527755737 50.1951217651
-32.5623893738 35.2761039734 49.9864959717
-32.5093765259 35.2181053162 49.7813606262
-32.4934425354 35.1995544434 49.5838050842
-32.5178222656 35.2238998413 49.3945999146
-32.5622406006 35.2695655823 49.2096214294
-32.5932807922 35.3009986877 49.0218963623
-32.5852584839 35.2908668518 48.8259811401
-32.5355300903 35.2363586426 48.6212158203
-32.4636650085 35.1582908630 48.4116439819
-32.3966293335 35.0853652954 48.2029685974
-32.3522186279 35.0365142822 47.9990119934
-32.3331565857 35.0146293640 47.8004226685
-32.3329124451 35.0127716064 47.6058540344
-32.3440399170 35.0230140686 47.4137420654
-32.3615760803 35.0400772095 47.2230339050
-32.3818893433 35.0600929260 47.0329551697
-32.4008712769 35.0786933899 46.8426055908
-32.4136962891 35.0907440186 46.6509246826
-32.4157943726 35.0913772583 46.4568786621
-32.4036941528 35.0769042969 46.2596740723
-32.3751029968 35.0448837280 46.0587539673
-32.3287124634 34.9939155579 45.8537864685
-32.2650604248 34.9245834351 45.6448478699
-32.1892662048 34.8423271179 45.4330406189
-32.1130027771 34.7595672607 45.2209854126
-32.0520439148 34.6930961609 45.0122680664
-32.0203628540 34.6577796936 44.8101196289
-32.0248641968 34.6609687805 44.6161994934
-32.0621833801 34.6990814209 44.4298286438
-32.1186294556 34.7575531006 44.2479324341
-32.1762275696 34.8172454834 44.0663909912
-32.2223243713 34.8647003174 43.8822631836
-32.2543220520 34.8971557617 43.6949119568
-32.2762413025 34.9188804626 43.5052452087
-32.2926788330 34.9347724915 43.3143119812
-32.3057823181 34.9471168518 43.1226081848
-32.3153648376 34.9557151794 42.9300842285
-32.3200645447 34.9591178894 42.7364006042
-32.3184089661 34.9557533264 42.5411987305
-32.3095283508 34.9447021484 42.3442497253
-32.2932662964 34.9257965088 42.1454963684
-32.2696380615 34.8990478516 41.9449272156
-32.2381782532 34.8639602661 41.7424011230
-32.1984825134 34.8201141357 41.5378074646
-32.1525459290 34.7696189880 41.3316116333
-32.1065444946 34.7190551758 41.1253051758
-32.0692901611 34.6778030396 40.9210586548
-32.0479545593 34.6534919739 40.7206649780
-32.0448379517 34.6485710144 40.5247383118
-32.0573387146 34.6602706909 40.3326759338
-32.0802993774 34.6831054688 40.1432380676
-32.1085281372 34.7115516663 39.9551506042
-32.1376190186 34.7409095764 39.7673149109
-32.1635246277 34.7668800354 39.5787162781
-32.1829910278 34.7859992981 39.3885269165
-32.1946678162 34.7968215942 39.1963806152
-32.1991539001 34.7999954224 39.0024108887
-32.1980094910 34.7971725464 38.8069992065
-32.1927833557 34.7900085449 38.6105270386
-32.1840057373 34.7790603638 38.4131240845
-32.1692886353 34.7617912292 38.2141571045
-32.1426658630 34.7318496704 38.0120658875
-32.0996437073 34.6844520569 37.8056526184
-32.0462760925 34.6260414124 37.5964546204
-32.0000038147 34.5751800537 37.3890075684
-31.9747028351 34.5466423035 37.1869773865
-31.9650955200 34.5348129272 36.9890327454
-31.9515647888 34.5188026428 36.7900199890
-31.9201889038 34.4837989807 36.5862350464
-31.8734683990 34.4324569702 36.3782997131
-31.8235645294 34.3777275085 36.1694221497
-31.7814922333 34.3313331604 35.9625434875
-31.7525291443 34.2988967896 35.7591018677
-31.7362422943 34.2799491882 35.5590248108
-31.7281494141 34.2697257996 35.3611221313
-31.7224349976 34.2620353699 35.1638412476
-31.7144260406 34.2518997192 34.9659118652
-31.7014999390 34.2365341187 34.7666168213
-31.6831722260 34.2154121399 34.5658073425
-31.6618003845 34.1910514832 34.3641166687
-31.6428585052 34.1692810059 34.1630439758
-31.6314487457 34.1555252075 33.9640159607
-31.6252536774 34.1473197937 33.7664070129
-31.6115818024 34.1311531067 33.5666885376
-31.5754508972 34.0910797119 33.3606605530
-31.5133132935 34.0233154297 33.1472663879
-31.4385108948 33.9420700073 32.9301872253
-31.3723697662 33.8700447083 32.7154083252
-31.3303833008 33.8237304688 32.5073394775
-31.3166770935 33.8075256348 32.3072128296
-31.3278217316 33.8177795410 32.1141319275
-31.3572673798 33.8475151062 31.9262905121
-31.3963603973 33.8875274658 31.7412528992
-31.4356994629 33.9277954102 31.5563449860
-31.4682750702 33.9608688354 31.3695449829
-31.4904422760 33.9828567505 31.1797809601
-31.4991569519 33.9905242920 30.9861412048
-31.4897727966 33.9789199829 30.7872409821
-31.4580993652 33.9435844421 30.5818061829
-31.4054107666 33.8858757019 30.3701515198
-31.3410091400 33.8156929016 30.1549549103
-31.2780551910 33.7470512390 29.9400596619
-31.2253608704 33.6893310547 29.7280712128
-31.1827297211 33.6423263550 29.5189628601
-31.1429939270 33.5984039307 29.3106269836
-31.0973529816 33.5481910706 29.1004505157
-31.0403060913 33.4858360291 28.8867721558
-30.9728202820 33.4123611450 28.6698532104
-30.9028263092 33.3362197876 28.4520492554
-30.8429222107 33.2708168030 28.2371520996
-30.8069515228 33.2308998108 28.0293807983
-30.8065719604 33.2288742065 27.8323307037
-30.8459911346 33.2692298889 27.6473789215
-30.9141407013 33.3401794434 27.4712524414
-30.9820060730 33.4108276367 27.2951488495
-31.0161437988 33.4455604553 27.1088027954
-31.0034580231 33.4304351807 26.9080944061
-30.9640903473 33.3868980408 26.6991157532
-30.9374637604 33.3569259644 26.4940013885
-30.9546279907 33.3735847473 26.3024234772
-31.0218715668 33.4435729980 26.1264572144
-31.1233348846 33.5500030518 25.9612827301
-31.2313060760 33.6633605957 25.7983150482
-31.3155059814 33.7514076233 25.6280632019
-31.3539371490 33.7907180786 25.4435386658
-31.3444728851 33.7790222168 25.2439460754
-31.3064632416 33.7369308472 25.0352878571
-31.2672767639 33.6935844421 24.8261775970
-31.2454586029 33.6687355042 24.6225166321
-31.2449035645 33.6665267944 24.4255962372
-31.2609462738 33.6819915771 24.2339782715
-31.2883930206 33.7096061707 24.0460395813
-31.3239822388 33.7458915710 23.8607597351
-31.3639945984 33.7868843079 23.6769618988
-31.4026699066 33.8264579773 23.4927883148
-31.4345588684 33.8588027954 23.3064708710
-31.4577903748 33.8819274902 23.1173820496
-31.4741611481 33.8977470398 22.9260826111
-31.4864921570 33.9092636108 22.7334785461
-31.4964275360 33.9182281494 22.5401000977
-31.5036907196 33.9243507385 22.3458499908
-31.5064601898 33.9256820679 22.1501178741
-31.5029869080 33.9203681946 21.9523143768
-31.4938259125 33.9089965820 21.7526073456
-31.4825668335 33.8953895569 21.5521774292
-31.4740371704 33.8846893311 21.3526248932
-31.4716720581 33.8805541992 21.1551074982
-31.4765510559 33.8841323853 20.9600028992
-31.4882125854 33.8949356079 20.7671775818
-31.5052509308 33.9114685059 20.5761737823
-31.5248641968 33.9307403564 20.3860588074
-31.5428791046 33.9483108521 20.1954250336
-31.5554313660 33.9600639343 20.0029582977
-31.5607261658 33.9640884399 19.8080310822
-31.5588264465 33.9604454041 19.6106452942
-31.5498714447 33.9492912292 19.4108314514
-31.5327758789 33.9294662476 19.2081947327
-31.5055694580 33.8988723755 19.0020389557
-31.4667968750 33.8559570313 18.7918319702
-31.4166049957 33.8008766174 18.5775966644
-31.3571281433 33.7359085083 18.3600425720
-31.2928619385 33.6658363342 18.1407051086
-31.2306652069 33.5979652405 17.9219665527
-31.1781406403 33.5404014587 17.7064838409
-31.1404323578 33.4986152649 17.4960899353
-31.1178932190 33.4729843140 17.2909431458
-31.1065864563 33.4593200684 17.0897006989
-31.1009998322 33.4517478943 16.8904476166
-31.0965366364 33.4453735352 16.6915702820
-31.0903873444 33.4371986389 16.4920768738
-31.0812015533 33.4257965088 16.2914810181
-31.0684432983 33.4105834961 16.0895843506
-31.0517959595 33.3912277222 15.8862638474
-31.0305843353 33.3670082092 15.6812677383
-31.0030498505 33.3360557556 15.4739522934
-30.9659080505 33.2948684692 15.2631158829
-30.9155025482 33.2395515442 15.0474166870
-30.8513927460 33.1696319580 14.8266582489
-30.7798805237 33.0918273926 14.6030883789
-30.7128868103 33.0188369751 14.3810243607
-30.6614208221 32.9623832703 14.1644906998
-30.6294479370 32.9266967773 13.9549770355
-30.6137256622 32.9083251953 13.7513494492
-30.6084842682 32.9011116028 13.5515298843
-30.6097679138 32.9008560181 13.3540916443
-30.6165561676 32.9064598083 13.1586761475
-30.6287956238 32.9178733826 12.9652776718
-30.6444091797 32.9328804016 12.7731409073
-30.6583747864 32.9461326599 12.5804080963
-30.6651973724 32.9517745972 12.3850278854
-30.6616840363 32.9464073181 12.1857900620
-30.6468830109 32.9290122986 11.9823102951
-30.6213188171 32.9001502991 11.7747554779
-30.5879421234 32.8629646301 11.5642061234
-30.5522499084 32.8233108521 11.3527126312
-30.5195178986 32.7868080139 11.1422643661
-30.4922828674 32.7561645508 10.9338283539
-30.4708175659 32.7316665649 10.7275238037
-30.4550666809 32.7132568359 10.5233430862
-30.4455394745 32.7014808655 10.3214979172
-30.4429569244 32.6970977783 10.1222791672
-30.4475402832 32.7003517151 9.9257907867
-30.4587554932 32.7106742859 9.7318468094
-30.4758930206 32.7273025513 9.5401906967
-30.4993419647 32.7506599426 9.3509902954
-30.5316181183 32.7834205627 9.1652336121
-30.5763759613 32.8294792175 8.9843606949
-30.6343841553 32.8896598816 8.8087053299
-30.6990852356 32.9569702148 8.6357469559
-30.7569217682 33.0169677734 8.4602146149
-30.7940025330 33.0548515320 8.2766542435
-30.8038330078 33.0636978149 8.0824661255
-30.7896804810 33.0469894409 7.8788595200
-30.7599620819 33.0136985779 7.6690869331
-30.7208805084 32.9704284668 7.4555544853
-30.6733150482 32.9181175232 7.2385854721
-30.6169376373 32.8564147949 7.0180268288
-30.5550937653 32.7888870239 6.7951841354
-30.4925594330 32.7206230164 6.5719456673
-30.4292430878 32.6515235901 6.3482728004
-30.3599567413 32.5760612488 6.1220874786
-30.2824363708 32.4918251038 5.8924665451
-30.2042083740 32.4068298340 5.6624126434
-30.1396865845 32.3364448547 5.4377284050
-30.1012229919 32.2938232422 5.2234358788
-30.0940399170 32.2845344543 5.0217165947
-30.1167678833 32.3071212769 4.8320994377
-30.1617679596 32.3534431458 4.6515607834
-30.2141990662 32.4076843262 4.4741168022
-30.2550086975 32.4495391846 4.2920126915
-30.2685832977 32.4623718262 4.0988321304
-30.2494106293 32.4403076172 3.8922433853
-30.2035312653 32.3897819519 3.6746399403
-30.1448707581 32.3256340027 3.4516828060
-30.0885314941 32.2639579773 3.2295675278
-30.0445537567 32.2154579163 3.0124516487
-30.0154666901 32.1828231812 2.8014147282
-29.9981498718 32.1627349854 2.5952029228
-29.9876155853 32.1498718262 2.3917706013
-29.9797687531 32.1398735046 2.1894288063
-29.9722499847 32.1302261353 1.9871993065
-29.9640789032 32.1198806763 1.7846723795
-29.9550838470 32.1086616516 1.5817742348
-29.9455528259 32.0968666077 1.3786227703
-29.9360122681 32.0850601196 1.1754400730
-29.9271011353 32.0739250183 0.9724942446
-29.9194049835 32.0640869141 0.7700362802
-29.9133586884 32.0560073853 0.5682534575
-29.9091796875 32.0499191284 0.3672421277
-29.9068298340 32.0457763672 0.1669910103
13.6435737610 14.8646278381 88.2682952881
13.6721334457 14.8921356201 88.0616302490
13.7208490372 14.9390268326 87.8559875488
13.7851381302 15.0008964539 87.6511917114
13.8648805618 15.0776271820 87.4472885132
13.9647207260 15.1736860275 87.2445449829
14.0886812210 15.2929401398 87.0432281494
14.2316884995 15.4305124283 86.8431320190
14.3762378693 15.5695667267 86.6433639526
14.5001993179 15.6888227463 86.4426956177
14.5897169113 15.7749538422 86.2403106689
14.6450061798 15.8281669617 86.0361328125
14.6757068634 15.8577337265 85.8306274414
14.6928730011 15.8742847443 85.6243743896
14.7044744492 15.8854846954 85.4178085327
14.7150793076 15.8957252502 85.2111968994
14.7274847031 15.9076976776 85.0046997070
14.7449016571 15.9244890213 84.7985305786
14.7735891342 15.9521198273 84.5930862427
14.8244009018 16.0010261536 84.3890914917
14.9098730087 16.0832672119 84.1874160767
15.0360097885 16.2046146393 83.9885330200
15.1956167221 16.3581504822 83.7920684814
15.3714675903 16.5273075104 83.5969696045
15.5469589233 16.6961193085 83.4021377563
15.7130737305 16.8559112549 83.2069549561
15.8669261932 17.0039138794 83.0111999512
16.0078544617 17.1394844055 82.8147811890
16.1378288269 17.2645225525 82.6178283691
16.2647438049 17.3866176605 82.4208602905
16.4002113342 17.5169372559 82.2247314453
16.5482215881 17.6593208313 82.0297546387
16.6957473755 17.8012371063 81.8349914551
16.8194847107 17.9202766418 81.6386718750
16.9039459229 18.0015430450 81.4395446777
16.9510440826 18.0468788147 81.2376708984
16.9738197327 18.0688247681 81.0339584351
16.9852600098 18.0798664093 80.8293762207
16.9930801392 18.0874290466 80.6245193481
17.0002880096 18.0944042206 80.4196166992
17.0069007874 18.1008052826 80.2146682739
17.0105018616 18.1043090820 80.0094680786
17.0065612793 18.1005630493 79.8036422729
16.9904632568 18.0851211548 79.5967788696
16.9616184235 18.0574226379 79.3887863159
16.9261035919 18.0233116150 79.1801605225
16.8939647675 17.9924449921 78.9717559814
16.8733100891 17.9726238251 78.7642974854
16.8677520752 17.9673213959 78.5581359863
16.8787784576 17.9779663086 78.3534393311
16.9075202942 18.0056495667 78.1503524780
16.9521827698 18.0486412048 77.9487686157
17.0051555634 18.0996284485 77.7480087280
17.0557136536 18.1482906342 77.5471115112
17.0966682434 18.1877174377 77.3453903198
17.1279106140 18.2178039551 77.1428146362
17.1545124054 18.2434291840 76.9398345947
17.1836853027 18.2715263367 76.7371444702
17.2238159180 18.3101615906 76.5355606079
17.2831687927 18.3672828674 76.3359298706
17.3651351929 18.4461498260 76.1386260986
17.4629192352 18.5402278900 75.9430389404
17.5613517761 18.6349315643 75.7476806641
17.6474895477 18.7178115845 75.5512313843
17.7212524414 18.7887916565 75.3536529541
17.7960834503 18.8607959747 75.1563034058
17.8889369965 18.9501342773 74.9609603882
18.0077228546 19.0644111633 74.7684860229
18.1474475861 19.1988239288 74.5784378052
18.2995452881 19.3451366425 74.3899383545
18.4630298615 19.5023994446 74.2029266357
18.6414737701 19.6740474701 74.0178070068
18.8300094604 19.8554019928 73.8340988159
19.0131435394 20.0315589905 73.6501083374
19.1785964966 20.1907138824 73.4644622803
19.3284111023 20.3348312378 73.2773437500
19.4731674194 20.4740810394 73.0899047852
19.6178302765 20.6132431030 72.9026947021
19.7553043365 20.7454910278 72.7148971558
19.8722000122 20.8579502106 72.5249557495
19.9591674805 20.9416255951 72.3317260742
20.0160236359 20.9963455200 72.1351013184
20.0493564606 21.0284423828 71.9357910156
20.0674991608 21.0459308624 71.7347183228
20.0779647827 21.0560379028 71.5327529907
20.0876941681 21.0654354095 71.3307037354
20.1041755676 21.0813274384 71.1294860840
20.1360111237 21.1119823456 70.9301681519
20.1921348572 21.1659984589 70.7338943481
20.2795505524 21.2501068115 70.5415954590
20.4006366730 21.3665943146 70.3536453247
20.5517024994 21.5119113922 70.1696777344
20.7237777710 21.6774349213 69.9886322021
20.9056758881 21.8524055481 69.8091201782
21.0876808167 22.0274772644 69.6299362183
21.2630062103 22.1961250305 69.4501953125
21.4269809723 22.3538570404 69.2692642212
21.5764904022 22.4976787567 69.0867156982
21.7095432281 22.6256752014 68.9022445679
21.8227500916 22.7345848083 68.7153625488
21.9092903137 22.8178501129 68.5250930786
21.9631652832 22.8697013855 68.3305740356
21.9883785248 22.8939895630 68.1322479248
22.0013084412 22.9064655304 67.9322891235
22.0202636719 22.9247360229 67.7331695557
22.0535221100 22.9567604065 67.5360488892
22.0986633301 23.0002136230 67.3406295776
22.1490879059 23.0487461090 67.1460189819
22.1977672577 23.0956020355 66.9512405396
22.2382011414 23.1345252991 66.7553634644
22.2672004700 23.1624546051 66.5579299927
22.2888660431 23.1833305359 66.3594818115
22.3160972595 23.2095603943 66.1618652344
22.3664913177 23.2580642700 65.9676437378
22.4523487091 23.3406715393 65.7786788940
22.5708789825 23.4547023773 65.5946502686
22.7049617767 23.5836868286 65.4131164551
22.8358879089 23.7096366882 65.2313385010
22.9552555084 23.8244705200 65.0480499268
23.0630798340 23.9282035828 64.8632278442
23.1572189331 24.0187759399 64.6765136719
23.2306060791 24.0893917084 64.4868011475
23.2809734344 24.1378688812 64.2936859131
23.3200645447 24.1755027771 64.0989151001
23.3698120117 24.2233848572 63.9058570862
23.4472045898 24.2978534698 63.7171707153
23.5500526428 24.3967990875 63.5325889587
23.6546611786 24.4974403381 63.3484573364
23.7284793854 24.5684719086 63.1596260071
23.7500801086 24.5892848969 62.9626197815
23.7221603394 24.5624732971 62.7577285767
23.6671390533 24.5096035004 62.5484237671
23.6106224060 24.4552917480 62.3387756348
23.5692672729 24.4155635834 62.1314811707
23.5519828796 24.3989810944 61.9280357361
23.5665302277 24.4130115509 61.7297782898
23.6208534241 24.4652938843 61.5380973816
23.7213401794 24.5619697571 61.3541641235
23.8735637665 24.7084007263 61.1790237427
24.0790157318 24.9060211182 61.0130577087
24.3206405640 25.1384258270 60.8535385132
24.5531673431 25.3620815277 60.6928901672
24.7240867615 25.5264911652 60.5221481323
24.8152618408 25.6142120361 60.3380508423
24.8587512970 25.6560764313 60.1459007263
24.9046306610 25.7002372742 59.9542350769
24.9765796661 25.7694683075 59.7671661377
25.0622215271 25.8518676758 59.5826034546
25.1378288269 25.9246196747 59.3964233398
25.1910419464 25.9758319855 59.2064132690
25.2219200134 26.0055675507 59.0125312805
25.2337913513 26.0170249939 58.8153114319
25.2298641205 26.0132884979 58.6152763367
25.2175636292 26.0015010834 58.4137229919
25.2115192413 25.9957275391 58.2132644653
25.2289447784 26.0125255585 58.0170516968
25.2814445496 26.0630531311 57.8272552490
25.3708133698 26.1490383148 57.6443023682
25.4895057678 26.2632198334 57.4668922424
25.6229190826 26.3915615082 57.2924041748
25.7545642853 26.5181999207 57.1178092957
25.8731517792 26.6322841644 56.9409980774
25.9760742188 26.7313003540 56.7614440918
26.0678367615 26.8195877075 56.5799598694
26.1550521851 26.9035015106 56.3977622986
26.2380695343 26.9833755493 56.2149124146
26.3051509857 27.0479259491 56.0291519165
26.3403358459 27.0818023682 55.8373756409
26.3411731720 27.0826473236 55.6390266418
26.3246173859 27.0667686462 55.4373054504
26.3122386932 27.0549049377 55.2363586426
26.3135814667 27.0562362671 55.0380592346
26.3260593414 27.0682754517 54.8419456482
26.3464717865 27.0879459381 54.6474075317
26.3785209656 27.1188068390 54.4552001953
26.4297637939 27.1681251526 54.2668571472
26.5031356812 27.2387256622 54.0830154419
26.5921974182 27.3244132996 53.9024429321
26.6843948364 27.4131183624 53.7226486206
26.7689437866 27.4944648743 53.5414581299
26.8435497284 27.5662517548 53.3583869934
26.9162006378 27.6361579895 53.1750373840
26.9994525909 27.7162590027 52.9939765930
27.0990905762 27.8121166229 52.8164253235
27.2067813873 27.9157218933 52.6407089233
27.3056106567 28.0108013153 52.4633255005
27.3837223053 28.0859603882 52.2817916870
27.4421615601 28.1421985626 52.0962638855
27.4912929535 28.1894874573 51.9088706970
27.5416049957 28.2379112244 51.7218055725
27.5967330933 28.2909641266 51.5358390808
27.6538200378 28.3459053040 51.3503761292
27.7106742859 28.4006195068 51.1649589539
27.7700347900 28.4577445984 50.9801635742
27.8331489563 28.5184803009 50.7962760925
27.8914947510 28.5746269226 50.6114578247
27.9300403595 28.6117362976 50.4224319458
27.9384307861 28.6198463440 50.2268867493
27.9172534943 28.5995197296 50.0248756409
27.8759937286 28.5598812103 49.8184013367
27.8284969330 28.5142459869 49.6104736328
27.7910385132 28.4782638550 49.4046783447
27.7824058533 28.4700012207 49.2052192688
27.8212375641 28.5073852539 49.0163383484
27.9197025299 28.6021156311 48.8408813477
28.0796680450 28.7559871674 48.6794319153
28.2949390411 28.9630470276 48.5307464600
28.5528907776 29.2111492157 48.3921051025
28.8297367096 29.4774208069 48.2582092285
29.0883502960 29.7261600494 48.1206169128
29.2914752960 29.9215373993 47.9707412720
29.4224758148 30.0475559235 47.8045997620
29.4914798737 30.1139545441 47.6243515015
29.5221080780 30.1434478760 47.4353065491
29.5352554321 30.1561317444 47.2422370911
29.5429782867 30.1635990143 47.0479125977
29.5506629944 30.1710281372 46.8535842896
29.5604705811 30.1805000305 46.6597595215
29.5728015900 30.1923980713 46.4665412903
29.5860824585 30.2052097321 46.2735633850
29.5970439911 30.2157897949 46.0800476074
29.6041240692 30.2226390839 45.8856124878
29.6134643555 30.2316608429 45.6917228699
29.6412734985 30.2584438324 45.5022888184
29.7060813904 30.3208065033 45.3218345642
29.8149871826 30.4255771637 45.1521759033
29.9573955536 30.5625629425 44.9908523560
30.1125736237 30.7118339539 44.8328895569
30.2620067596 30.8555755615 44.6737823486
30.3941249847 30.9826679230 44.5106658936
30.5011444092 31.0856246948 44.3415756226
30.5777339935 31.1593170166 44.1651229858
30.6272068024 31.2069339752 43.9820556641
30.6678485870 31.2460556030 43.7968673706
30.7268333435 31.3028202057 43.6163291931
30.8214149475 31.3938121796 43.4448280334
30.9443244934 31.5120506287 43.2806243896
31.0694847107 31.6324501038 43.1171989441
31.1730995178 31.7321319580 42.9485130310
31.2493610382 31.8055095673 42.7730331421
31.3078861237 31.8618316650 42.5931434631
31.3599395752 31.9119281769 42.4116859436
31.4087505341 31.9589061737 42.2294807434
31.4513092041 31.9998722076 42.0457344055
31.4865417480 32.0337944031 41.8601570129
31.5200195313 32.0660285950 41.6741790771
31.5607109070 32.1051979065 41.4901313782
31.6137313843 32.1562232971 41.3093719482
31.6769752502 32.2170829773 41.1313781738
31.7459487915 32.2834510803 40.9549980164
31.8216114044 32.3562507629 40.7804985046
31.9105873108 32.4418563843 40.6096534729
32.0155487061 32.5428352356 40.4432067871
32.1274490356 32.6504821777 40.2787895203
32.2315368652 32.7506179810 40.1124649048
32.3221130371 32.8377571106 39.9426803589
32.4094009399 32.9217414856 39.7721633911
32.5105552673 33.0190544128 39.6055412292
32.6320190430 33.1358985901 39.4445953369
32.7576942444 33.2567977905 39.2849998474
32.8562622070 33.3516235352 39.1182098389
32.9075279236 33.4009628296 38.9386329651
32.9234771729 33.4163398743 38.7494316101
32.9375190735 33.4298820496 38.5597229004
32.9731750488 33.4642066956 38.3760070801
33.0295753479 33.5184860229 38.1980972290
33.0941200256 33.5805969238 38.0225486755
33.1575622559 33.6416435242 37.8467941284
33.2153320313 33.6972351074 37.6695518494
33.2637290955 33.7438201904 37.4897727966
33.3009109497 33.7796134949 37.3069076538
33.3298416138 33.8074722290 37.1217689514
33.3586845398 33.8352508545 36.9366455078
33.3985557556 33.8736305237 36.7547035217
33.4587211609 33.9315299988 36.5786094666
33.5396080017 34.0093536377 36.4085426331
33.6292648315 34.0956115723 36.2411231995
33.7097282410 34.1730270386 36.0712089539
33.7690544128 34.2301177979 35.8953208923
33.8071136475 34.2667579651 35.7133674622
33.8311195374 34.2898788452 35.5273933411
33.8479919434 34.3061447144 35.3393707275
33.8601112366 34.3178405762 35.1499824524
33.8643455505 34.3219490051 34.9582939148
33.8521728516 34.3102836609 34.7617797852
33.8121910095 34.2718772888 34.5570373535
33.7376823425 34.2002639771 34.3420028687
33.6361579895 34.1026687622 34.1188163757
33.5308761597 34.0014648438 33.8943290710
33.4488601685 33.9226341248 33.6765899658
33.4047889709 33.8802909851 33.4700508118
33.3953437805 33.8712501526 33.2738227844
33.4064445496 33.8819618225 33.0837516785
33.4237785339 33.8986740112 32.8955764771
33.4392585754 33.9136009216 32.7068595886
33.4543800354 33.9281768799 32.5180511475
33.4831848145 33.9559211731 32.3334274292
33.5508346558 34.0210113525 32.1607093811
33.6812858582 34.1464996338 32.0073356628
33.8781814575 34.3358840942 31.8745899200
34.1165657043 34.5651626587 31.7549571991
34.3576889038 34.7970771790 31.6365795135
34.5727691650 35.0039482117 31.5105476379
34.7522506714 35.1765861511 31.3738288879
34.8995780945 35.3182983398 31.2273960114
35.0229415894 35.4369735718 31.0737285614
35.1299095154 35.5398750305 30.9151325226
35.2231941223 35.6296234131 30.7524166107
35.2999839783 35.7035064697 30.5846595764
35.3562355042 35.7576370239 30.4105415344
35.3917503357 35.7918281555 30.2299442291
35.4111061096 35.8104820251 30.0442676544
35.4206886292 35.8197364807 29.8555049896
35.4255561829 35.8244552612 29.6652431488
35.4284629822 35.8272895813 29.4743556976
35.4305801392 35.8293647766 29.2832088470
35.4323768616 35.8311309814 29.0919551849
35.4340553284 35.8327827454 28.9006595612
35.4355392456 35.8342514038 28.7092933655
35.4355926514 35.8343429565 28.5174579620
35.4295806885 35.8285980225 28.3236408234
35.4062957764 35.8062477112 28.1241664886
35.3484497070 35.7506561279 27.9133300781
35.2438011169 35.6500625610 27.6870288849
35.1042213440 35.5158767700 27.4490413666
34.9713821411 35.3881721497 27.2130260468
34.8915901184 35.3114776611 26.9943141937
34.8798217773 35.3002014160 26.7980155945
34.9131469727 35.3322868347 26.6166820526
34.9594764709 35.3768806458 26.4397354126
35.0065765381 35.4222106934 26.2631168365
35.0641326904 35.4775962830 26.0900783539
35.1464195251 35.5567665100 25.9254417419
35.2576675415 35.6637840271 25.7706985474
35.3908081055 35.7918586731 25.6235370636
35.5337829590 35.9293899536 25.4799308777
35.6732177734 36.0635147095 25.3353652954
35.7941017151 36.1798019409 25.1847209930
35.8819732666 36.2643394470 25.0230121613
35.9286537170 36.3092651367 24.8473548889
35.9353675842 36.3157615662 24.6580619812
35.9104423523 36.2918319702 24.4578914642
35.8647079468 36.2478942871 24.2504940033
35.8075218201 36.1929397583 24.0390472412
35.7441978455 36.1320800781 23.8253669739
35.6746292114 36.0652236938 23.6093978882
35.5926475525 35.9864273071 23.3889751434
35.4893913269 35.8871688843 23.1609706879
35.3637161255 35.7663536072 22.9249286652
35.2311782837 35.6389389038 22.6862487793
35.1183624268 35.5304908752 22.4542694092
35.0466804504 35.4615974426 22.2365894318
35.0245018005 35.4403076172 22.0362777710
35.0532951355 35.4680366516 21.8539848328
35.1330032349 35.5447273254 21.6898250580
35.2561645508 35.6632003784 21.5412750244
35.4016914368 35.8031845093 21.4009170532
35.5432739258 35.9393730164 21.2593955994
35.6665420532 36.0579528809 21.1115436554
35.7748451233 36.1621398926 20.9585151672
35.8788642883 36.2622070313 20.8041229248
35.9844970703 36.3638267517 20.6504898071
36.0899581909 36.4652786255 20.4969692230
36.1894264221 36.5609741211 20.3414516449
36.2770347595 36.6452560425 20.1817798615
36.3489112854 36.7144165039 20.0165119171
36.4033699036 36.7668228149 19.8449916840
36.4397354126 36.8018341064 19.6669216156
36.4570350647 36.8185081482 19.4818992615
36.4532051086 36.8148612976 19.2891120911
36.4255180359 36.7882766724 19.0874996185
36.3728713989 36.7376899719 18.8765869141
36.2971649170 36.6649246216 18.6570186615
36.2005157471 36.5720252991 18.4295177460
36.0832557678 36.4593048096 18.1941528320
35.9507408142 36.3319091797 17.9528732300
35.8220634460 36.2082099915 17.7127895355
35.7234878540 36.1134529114 17.4837741852
35.6680297852 36.0601654053 17.2708072662
35.6451148987 36.0381660461 17.0700092316
35.6331977844 36.0267448425 16.8733234406
35.6197433472 36.0138435364 16.6760253906
35.6074028015 36.0020217896 16.4791183472
35.6060829163 36.0007858276 16.2863769531
35.6245498657 36.0185852051 16.1011772156
35.6678924561 36.0603065491 15.9255170822
35.7357330322 36.1255836487 15.7593164444
35.8191146851 36.2058029175 15.5991983414
35.9016418457 36.2852020264 15.4388904572
35.9675254822 36.3485946655 15.2722930908
36.0093193054 36.3888244629 15.0964832306
36.0277976990 36.4066352844 14.9116973877
36.0260314941 36.4049758911 14.7190656662
36.0054359436 36.3852081299 14.5190877914
35.9671134949 36.3483963013 14.3121452332
35.9146156311 36.2979545593 14.0995788574
35.8540267944 36.2397270203 13.8837394714
35.7924461365 36.1805458069 13.6673936844
35.7376289368 36.1278724670 13.4535970688
35.6980819702 36.0898818970 13.2457246780
35.6824378967 36.0748786926 13.0472326279
35.6993675232 36.0911979675 12.8616228104
35.7572097778 36.1468620300 12.6922969818
35.8606376648 36.2463569641 12.5412206650
36.0058326721 36.3860206604 12.4069938660
36.1788864136 36.5524711609 12.2841587067
36.3580627441 36.7248115540 12.1640748978
36.5188522339 36.8794708252 12.0369081497
36.6422424316 36.9981651306 11.8949546814
36.7224159241 37.0753021240 11.7357673645
36.7663040161 37.1175422668 11.5620346069
36.7848968506 37.1354598999 11.3781166077
36.7851905823 37.1357803345 11.1867895126
36.7694778442 37.1207122803 10.9889383316
36.7404212952 37.0928077698 10.7856054306
36.7050285339 37.0588111877 10.5796222687
36.6729125977 37.0279693604 10.3749122620
36.6511611938 37.0070915222 10.1743927002
36.6421775818 36.9984931946 9.9790811539
36.6456184387 37.0018386841 9.7888689041
36.6590766907 37.0148200989 9.6027946472
36.6742324829 37.0294342041 9.4174394608
36.6740608215 37.0293083191 9.2257413864
36.6397933960 36.9963951111 9.0198516846
36.5657463074 36.9252281189 8.7973127365
36.4670639038 36.8303718567 8.5643463135
36.3710708618 36.7380981445 8.3323230743
36.3024482727 36.6721496582 8.1116027832
36.2785110474 36.6491699219 7.9095368385
36.3136444092 36.6829948425 7.7323002815
36.4182853699 36.7836608887 7.5844564438
36.5866470337 36.9455986023 7.4637379646
36.7876548767 37.1389312744 7.3571457863
36.9768180847 37.3208732605 7.2458691597
37.1222839355 37.4607963562 7.1163177490
37.2187995911 37.5536460876 6.9661378860
37.2784538269 37.6110496521 6.8003664017
37.3134231567 37.6447181702 6.6241211891
37.3280448914 37.6588134766 6.4391951561
37.3212852478 37.6523513794 6.2450942993
37.2930488586 37.6252403259 6.0417189598
37.2492408752 37.5831527710 5.8315625191
37.2008857727 37.5366897583 5.6193509102
37.1557998657 37.4933776855 5.4084658623
37.1122474670 37.4515342712 5.1981582642
37.0642814636 37.4054450989 4.9858431816
37.0126495361 37.3558349609 4.7718381882
36.9663581848 37.3113594055 4.5600662231
36.9340209961 37.2803039551 4.3543171883
36.9179115295 37.2648506165 4.1556229591
36.9158859253 37.2629432678 3.9630837440
36.9242362976 37.2710075378 3.7751040459
36.9377174377 37.2840118408 3.5893964767
36.9503860474 37.2962341309 3.4033441544
36.9580307007 37.3036270142 3.2150809765
36.9599647522 37.3055229187 3.0242848396
36.9609565735 37.3065147400 2.8330643177
36.9736366272 37.3187484741 2.6470491886
37.0149650574 37.3585319519 2.4738476276
37.0928230286 37.4334373474 2.3170595169
37.1942367554 37.5309982300 2.1709663868
37.2915725708 37.6246376038 2.0232117176
37.3620529175 37.6924514771 1.8635277748
37.3991432190 37.7281570435 1.6888949871
37.4065513611 37.7353172302 1.5009013414
37.3868827820 37.7164459229 1.3006516695
37.3389778137 37.6704177856 1.0875434875
37.2650604248 37.5993766785 0.8625162244
37.1780319214 37.5157279968 0.6313767433
37.0987205505 37.4394989014 0.4035975635
37.0437088013 37.3866348267 0.1867831796
-11.8447065353 48.6595993042 89.0316467285
-11.8544235229 48.6929702759 88.8414306641
-11.8728342056 48.7600440979 88.6519775391
-11.8970460892 48.8496131897 88.4631042480
-11.9227275848 48.9448814392 88.2744674683
-11.9473581314 49.0360755920 88.0858306885
-11.9735660553 49.1333961487 87.8974533081
-12.0067243576 49.2576599121 87.7098541260
-12.0474729538 49.4113616943 87.5231475830
-12.0881471634 49.5647773743 87.3366165161
-12.1175107956 49.6743392944 87.1490936279
-12.1279287338 49.7104415894 86.9596939087
-12.1191501617 49.6721115112 86.7682571411
-12.0984735489 49.5876388550 86.5754394531
-12.0774459839 49.5018043518 86.3824768066
-12.0655879974 49.4515228271 86.1904525757
-12.0654621124 49.4467353821 85.9997406006
-12.0730733871 49.4719543457 85.8099441528
-12.0822372437 49.5031967163 85.6203613281
-12.0884437561 49.5229644775 85.4304351807
-12.0897073746 49.5235671997 85.2398986816
-12.0852298737 49.5019035339 85.0486068726
-12.0746278763 49.4564895630 84.8564758301
-12.0592069626 49.3923835754 84.6636276245
-12.0435829163 49.3274917603 84.4706649780
-12.0345287323 49.2880706787 84.2785263062
-12.0369911194 49.2933197021 84.0879592896
-12.0512971878 49.3444976807 83.8991012573
-12.0746555328 49.4307937622 83.7116241455
-12.1050748825 49.5444717407 83.5252914429
-12.1433868408 49.6887702942 83.3402786255
-12.1918334961 49.8723831177 83.1569976807
-12.2511672974 50.0982208252 82.9756317139
-12.3186082840 50.3555183411 82.7958221436
-12.3878765106 50.6199073792 82.6166076660
-12.4516201019 50.8628730774 82.4368133545
-12.5045957565 51.0640792847 82.2555313110
-12.5445928574 51.2149429321 82.0723037720
-12.5705966949 51.3115386963 81.8868713379
-12.5812759399 51.3486824036 81.6988983154
-12.5762929916 51.3250770569 81.5082244873
-12.5590934753 51.2540779114 81.3153457642
-12.5372371674 51.1650123596 81.1215286255
-12.5186243057 51.0885276794 80.9281921387
-12.5071763992 51.0398330688 80.7360687256
-12.5025472641 51.0175895691 80.5451507568
-12.5033216476 51.0163116455 80.3552246094
-12.5092039108 51.0348472595 80.1662673950
-12.5203084946 51.0736465454 79.9783401489
-12.5354318619 51.1280326843 79.7912368774
-12.5512237549 51.1850166321 79.6043319702
-12.5620956421 51.2229156494 79.4164886475
-12.5612459183 51.2153358459 79.2263031006
-12.5454645157 51.1498222351 79.0330123901
-12.5225505829 51.0566329956 78.8381500244
-12.5119113922 51.0110702515 78.6457519531
-12.5314950943 51.0827674866 78.4597396851
-12.5817680359 51.2735443115 78.2804260254
-12.6452054977 51.5154037476 78.1042175293
-12.7016019821 51.7299499512 77.9267425537
-12.7414293289 51.8802108765 77.7458267212
-12.7662296295 51.9721679688 77.5617065430
-12.7812118530 52.0260314941 77.3754501343
-12.7893400192 52.0532989502 77.1876754761
-12.7907829285 52.0546188354 76.9983673096
-12.7859601974 52.0316314697 76.8075866699
-12.7777738571 51.9955902100 76.6159667969
-12.7702293396 51.9620361328 76.4244461060
-12.7654218674 51.9391059875 76.2335433960
-12.7625894547 51.9238357544 76.0430831909
-12.7596960068 51.9083290100 75.8525772095
-12.7553491592 51.8871803284 75.6616821289
-12.7494459152 51.8599967957 75.4703598022
-12.7427482605 51.8297233582 75.2788009644
-12.7362031937 51.8000411987 75.0872268677
-12.7305183411 51.7736968994 74.8958282471
-12.7260293961 51.7519950867 74.7047119141
-12.7227230072 51.7348785400 74.5138626099
-12.7202310562 51.7209243774 74.3232040405
-12.7177238464 51.7069091797 74.1325073242
-12.7137165070 51.6870727539 73.9413909912
-12.7063312531 51.6541252136 73.7493057251
-12.6948604584 51.6053199768 73.5560531616
-12.6821708679 51.5517807007 73.3623886108
-12.6749629974 51.5195159912 73.1701889038
-12.6797485352 51.5338020325 72.9813308716
-12.6980113983 51.6004066467 72.7963333130
-12.7262086868 51.7055702209 72.6142654419
-12.7598590851 51.8319091797 72.4338989258
-12.7957887650 51.9670982361 72.2543487549
-12.8310861588 52.0998344421 72.0747680664
-12.8627023697 52.2182846069 71.8942489624
-12.8890180588 52.3161621094 71.7122802734
-12.9103174210 52.3945693970 71.5289077759
-12.9271354675 52.4555778503 71.3442535400
-12.9387922287 52.4965591431 71.1580886841
-12.9434175491 52.5102348328 70.9697875977
-12.9385871887 52.4872055054 70.7785491943
-12.9224824905 52.4204063416 70.5837326050
-12.8959245682 52.3130226135 70.3855056763
-12.8641319275 52.1853141785 70.1854782104
-12.8363018036 52.0729827881 69.9865493774
-12.8221406937 52.0137176514 69.7919006348
-12.8261909485 52.0251579285 69.6031112671
-12.8435735703 52.0883636475 69.4187088013
-12.8617630005 52.1547012329 69.2346496582
-12.8683366776 52.1759414673 69.0467834473
-12.8584604263 52.1333122253 68.8534088135
-12.8362951279 52.0429649353 68.6558151245
-12.8106937408 51.9392700195 68.4569396973
-12.7903852463 51.8561286926 68.2597351074
-12.7819709778 51.8191642761 68.0665283203
-12.7888765335 51.8416900635 67.8785934448
-12.8092651367 51.9165687561 67.6954040527
-12.8356475830 52.0147285461 67.5144119263
-12.8591346741 52.1016464233 67.3325042725
-12.8749742508 52.1588668823 67.1479644775
-12.8837947845 52.1888351440 66.9609603882
-12.8885650635 52.2030715942 66.7725143433
-12.8916234970 52.2106628418 66.5834503174
-12.8940334320 52.2157363892 66.3941497803
-12.8959932327 52.2190589905 66.2046890259
-12.8966865540 52.2174682617 66.0147399902
-12.8936271667 52.2012977600 65.8233871460
-12.8831787109 52.1564331055 65.6292114258
-12.8634281158 52.0754356384 65.4314498901
-12.8379278183 51.9721107483 65.2313842773
-12.8163890839 51.8841629028 65.0327072144
-12.8097124100 51.8539390564 64.8396530151
-12.8221664429 51.8980178833 64.6539840698
-12.8476600647 51.9927406311 64.4734649658
-12.8739500046 52.0905609131 64.2933654785
-12.8902759552 52.1496810913 64.1094360352
-12.8914403915 52.1499137878 63.9195327759
-12.8777761459 52.0925483704 63.7236747742
-12.8549480438 51.9995841980 63.5240440369
-12.8333892822 51.9115486145 63.3248023987
-12.8237895966 51.8699645996 63.1303215027
-12.8303956985 51.8913307190 62.9424324036
-12.8491172791 51.9597587585 62.7595634460
-12.8722829819 52.0454521179 62.5786132813
-12.8937740326 52.1246414185 62.3970642090
-12.9098272324 52.1827125549 62.2133216858
-12.9179916382 52.2101325989 62.0263061523
-12.9177751541 52.2050018311 61.8357543945
-12.9115476608 52.1765136719 61.6426200867
-12.9029417038 52.1387863159 61.4484214783
-12.8941612244 52.1003837585 61.2540893555
-12.8850469589 52.0606803894 61.0595550537
-12.8743171692 52.0146980286 60.8642578125
-12.8616800308 51.9613037109 60.6680564880
-12.8492069244 51.9085464478 60.4718551636
-12.8401823044 51.8691825867 60.2771072388
-12.8356275558 51.8471870422 60.0843009949
-12.8321809769 51.8294944763 59.8919525146
-12.8243646622 51.7948265076 59.6976051331
-12.8093280792 51.7321014404 59.4999275208
-12.7897787094 51.6518402100 59.3001022339
-12.7731285095 51.5828399658 59.1014976501
-12.7677640915 51.5576934814 58.9080047607
-12.7785148621 51.5951614380 58.7219390869
-12.8035669327 51.6881980896 58.5425758362
-12.8349113464 51.8056907654 58.3662681580
-12.8628387451 51.9099044800 58.1884841919
-12.8814115524 51.9777793884 58.0064010620
-12.8905649185 52.0090446472 57.8199081421
-12.8938531876 52.0175247192 57.6306457520
-12.8948612213 52.0171394348 57.4402885437
-12.8953447342 52.0147171021 57.2496643066
-12.8955974579 52.0113945007 57.0589218140
-12.8955640793 52.0069656372 56.8680229187
-12.8952121735 52.0012931824 56.6769561768
-12.8935976028 51.9907188416 56.4852523804
-12.8876380920 51.9632530212 56.2913742065
-12.8729104996 51.9017105103 56.0930938721
-12.8473958969 51.7982444763 55.8893356323
-12.8147878647 51.6672058105 55.6818809509
-12.7827138901 51.5382423401 55.4745216370
-12.7570161819 51.4340515137 55.2702255249
-12.7382192612 51.3566818237 55.0693054199
-12.7234764099 51.2950668335 54.8703575134
-12.7110576630 51.2424850464 54.6725158691
-12.7025699615 51.2051773071 54.4766349792
-12.7009105682 51.1944084167 54.2842407227
-12.7065324783 51.2119445801 54.0956230164
-12.7164192200 51.2460556030 53.9092521667
-12.7266893387 51.2816581726 53.7231178284
-12.7353744507 51.3111000061 53.5361785889
-12.7426700592 51.3351440430 53.3485298157
-12.7495355606 51.3575172424 53.1606712341
-12.7564706802 51.3801574707 52.9728698730
-12.7630443573 51.4013977051 52.7848968506
-12.7680320740 51.4164695740 52.5960807800
-12.7701091766 51.4202270508 52.4056930542
-12.7686386108 51.4101943970 52.2133636475
-12.7636327744 51.3864173889 52.0190773010
-12.7547588348 51.3475990295 51.8226203918
-12.7407941818 51.2889900208 51.6232948303
-12.7206773758 51.2064666748 51.4204711914
-12.6951742172 51.1029930115 51.2145271301
-12.6673564911 50.9905204773 51.0071525574
-12.6416997910 50.8864479065 50.8008422852
-12.6228370667 50.8087844849 50.5982322693
-12.6145200729 50.7721214294 50.4015045166
-12.6186285019 50.7837638855 50.2117996216
-12.6342391968 50.8401336670 50.0286865234
-12.6573934555 50.9258308411 49.8499679565
-12.6823997498 51.0187339783 49.6724166870
-12.7044992447 51.1003341675 49.4932861328
-12.7221145630 51.1645050049 49.3116416931
-12.7371091843 51.2184829712 49.1285362244
-12.7532100677 51.2767677307 48.9461364746
-12.7734642029 51.3512001038 48.7662506104
-12.7975234985 51.4404335022 48.5886993408
-12.8203554153 51.5248985291 48.4105186462
-12.8342418671 51.5745735168 48.2271003723
-12.8333778381 51.5668983459 48.0349006653
-12.8177528381 51.5018119812 47.8338012695
-12.7932186127 51.4020805359 47.6272354126
-12.7675943375 51.2981109619 47.4198722839
-12.7456054688 51.2082710266 47.2145881653
-12.7264547348 51.1294708252 47.0109138489
-12.7057695389 51.0446968079 46.8061904907
-12.6803407669 50.9414710999 46.5984344482
-12.6518926620 50.8265037537 46.3886718750
-12.6265211105 50.7234954834 46.1806640625
-12.6106462479 50.6574172974 45.9784431458
-12.6077852249 50.6419525146 45.7842674255
-12.6181154251 50.6777992249 45.5983505249
-12.6389636993 50.7545471191 45.4191017151
-12.6652708054 50.8525314331 45.2433967590
-12.6915054321 50.9502372742 45.0677566528
-12.7147569656 51.0363426208 44.8903274536
-12.7359094620 51.1142845154 44.7116546631
-12.7569637299 51.1918487549 44.5330047607
-12.7767744064 51.2645759583 44.3536415100
-12.7898902893 51.3112640381 44.1700248718
-12.7907361984 51.3102264404 43.9784851074
-12.7789354324 51.2599945068 43.7786827087
-12.7593908310 51.1796340942 43.5737380981
-12.7370700836 51.0884742737 43.3668594360
-12.7128181458 50.9897994995 43.1585845947
-12.6843242645 50.8746185303 42.9473686218
-12.6502151489 50.7375907898 42.7322692871
-12.6128931046 50.5880584717 42.5148468018
-12.5778665543 50.4474563599 42.2987670898
-12.5508127213 50.3378639221 42.0878562927
-12.5351457596 50.2725677490 41.8844795227
-12.5314712524 50.2539253235 41.6891250610
-12.5383558273 50.2763633728 41.5009078979
-12.5536012650 50.3313255310 41.3184089661
-12.5753736496 50.4116897583 41.1404342651
-12.6022176743 50.5117835999 40.9660301208
-12.6317834854 50.6224746704 40.7936210632
-12.6600475311 50.7280960083 40.6204376221
-12.6825227737 50.8112030029 40.4433631897
-12.6962041855 50.8600959778 40.2602615356
-12.7002706528 50.8715744019 40.0704956055
-12.6958894730 50.8501853943 39.8748130798
-12.6863002777 50.8085327148 39.6754341125
-12.6761846542 50.7648315430 39.4756202698
-12.6689004898 50.7321434021 39.2777519226
-12.6637058258 50.7075843811 39.0813140869
-12.6566314697 50.6757125854 38.8834991455
-12.6440753937 50.6225051880 38.6817131042
-12.6246681213 50.5426368713 38.4749298096
-12.5984601974 50.4363059998 38.2631416321
-12.5665054321 50.3076019287 38.0470542908
-12.5319185257 50.1686553955 37.8288879395
-12.5000476837 50.0402717590 37.6125183105
-12.4766359329 49.9448089600 37.4021530151
-12.4657258987 49.8979911804 37.2008209229
-12.4687004089 49.9052047729 37.0096244812
-12.4840431213 49.9605598450 36.8275489807
-12.5075359344 50.0476303101 36.6515655518
-12.5337400436 50.1452598572 36.4776916504
-12.5588989258 50.2388191223 36.3031539917
-12.5830001831 50.3282699585 36.1279373169
-12.6085510254 50.4233627319 35.9539070129
-12.6367769241 50.5288658142 35.7819976807
-12.6650962830 50.6347427368 35.6102828979
-12.6886205673 50.7219543457 35.4350624084
-12.7037448883 50.7764701843 35.2535667419
-12.7096834183 50.7952384949 35.0651283264
-12.7070169449 50.7805099487 34.8701286316
-12.6961050034 50.7336845398 34.6687812805
-12.6774930954 50.6568870544 34.4614410400
-12.6530647278 50.5574455261 34.2495117188
-12.6258955002 50.4473304749 34.0353240967
-12.5990953445 50.3386535645 33.8212814331
-12.5751819611 50.2412071228 33.6093368530
-12.5560884476 50.1625213623 33.4010276794
-12.5430955887 50.1075820923 33.1973953247
-12.5367765427 50.0786209106 32.9989280701
-12.5371704102 50.0757904053 32.8057136536
-12.5436925888 50.0968208313 32.6173324585
-12.5546960831 50.1352958679 32.4325256348
-12.5673942566 50.1803703308 32.2491035461
-12.5785980225 50.2196311951 32.0645408630
-12.5859222412 50.2437820435 31.8769073486
-12.5888805389 50.2509384155 31.6857910156
-12.5891561508 50.2476501465 31.4925117493
-12.5895357132 50.2447662354 31.2993030548
-12.5922861099 50.2511138916 31.1080055237
-12.5980930328 50.2693595886 30.9191894531
-12.6055545807 50.2940521240 30.7317371368
-12.6110982895 50.3112754822 30.5427398682
-12.6104412079 50.3043556213 30.3486671448
-12.6015548706 50.2653884888 30.1478042603
-12.5859231949 50.2001571655 29.9413185120
-12.5661611557 50.1188430786 29.7313251495
-12.5431661606 50.0249404907 29.5185356140
-12.5166130066 49.9171752930 29.3026580811
-12.4876546860 49.8000411987 29.0846271515
-12.4599294662 49.6877098083 28.8674716949
-12.4376926422 49.5967407227 28.6547775269
-12.4235610962 49.5373344421 28.4487876892
