35.1060981750 -19.0423641205 83.7059097290
35.2143363953 -19.0975570679 83.5130691528
35.2892684937 -19.1353816986 83.3189849854
35.3349952698 -19.1579761505 83.1237640381
35.3594169617 -19.1694622040 82.9276962280
35.3706398010 -19.1740627289 82.7310791016
35.3745040894 -19.1748256683 82.5341415405
35.3736839294 -19.1731452942 82.3369903564
35.3682212830 -19.1690464020 82.1396179199
35.3571128845 -19.1620006561 81.9419631958
35.3405876160 -19.1521301270 81.7440338135
35.3224754333 -19.1414318085 81.5460052490
35.3113250732 -19.1343631744 81.3482666016
35.3190689087 -19.1371498108 81.1514282227
35.3572883606 -19.1558303833 80.9560852051
35.4330215454 -19.1940784454 80.7626647949
35.5463294983 -19.2519226074 80.5712356567
35.6907119751 -19.3259754181 80.3815460205
35.8561630249 -19.4110202789 80.1931304932
36.0325851440 -19.5017871857 80.0055160522
36.2109184265 -19.5935535431 79.8182220459
36.3822746277 -19.6816787720 79.6307830811
36.5380096436 -19.7616615295 79.4427108765
36.6718215942 -19.8302078247 79.2536239624
36.7812652588 -19.8860473633 79.0633392334
36.8670120239 -19.9295272827 78.8718566895
36.9308128357 -19.9615573883 78.6792144775
36.9736900330 -19.9826774597 78.4854354858
36.9953994751 -19.9927539825 78.2904586792
36.9958000183 -19.9917163849 78.0942382813
36.9770622253 -19.9806976318 77.8968505859
36.9441452026 -19.9622802734 77.6985778809
36.9033889771 -19.9397735596 77.4997634888
36.8616943359 -19.9167766571 77.3008270264
36.8269271851 -19.8973941803 77.1022567749
36.8076286316 -19.8860778809 76.9046096802
36.8110427856 -19.8866138458 76.7083892822
36.8412933350 -19.9011459351 76.5138931274
36.8993339539 -19.9301738739 76.3212509155
36.9841156006 -19.9731540680 76.1304473877
37.0933799744 -20.0289077759 75.9413833618
37.2235069275 -20.0955429077 75.7538681030
37.3692665100 -20.1703376770 75.5675735474
37.5241241455 -20.2498779297 75.3821029663
37.6808013916 -20.3303699493 75.1969528198
37.8318023682 -20.4078998566 75.0116043091
37.9700241089 -20.4787654877 74.8255386353
38.0896415710 -20.5399265289 74.6383285522
38.1865463257 -20.5892391205 74.4496231079
38.2582893372 -20.6254234314 74.2592086792
38.3044738770 -20.6482753754 74.0669937134
38.3275451660 -20.6590709686 73.8731231689
38.3324928284 -20.6604099274 73.6779174805
38.3249588013 -20.6552371979 73.4817581177
38.3094215393 -20.6458892822 73.2849731445
38.2892341614 -20.6341133118 73.0877990723
38.2683258057 -20.6219635010 72.8905258179
38.2524986267 -20.6124629974 72.6936187744
38.2485580444 -20.6091651917 72.4976196289
38.2621726990 -20.6150245667 72.3029937744
38.2968521118 -20.6318759918 72.1100769043
38.3548049927 -20.6608695984 71.9190750122
38.4377632141 -20.7029132843 71.7301864624
38.5463790894 -20.7583427429 71.5435180664
38.6787948608 -20.8261909485 71.3589477539
38.8295974731 -20.9036331177 71.1760940552
38.9899673462 -20.9860706329 70.9942398071
39.1495552063 -21.0680999756 70.8125228882
39.2992553711 -21.1449718475 70.6301651001
39.4327812195 -21.2134056091 70.4466018677
39.5465545654 -21.2715339661 70.2614898682
39.6393470764 -21.3187141418 70.0746841431
39.7122001648 -21.3554916382 69.8862304688
39.7677001953 -21.3832149506 69.6963119507
39.8085098267 -21.4032726288 69.5051498413
39.8367614746 -21.4167766571 69.3128890991
39.8548927307 -21.4250011444 69.1197433472
39.8665466309 -21.4298439026 68.9260101318
39.8761711121 -21.4336318970 68.7320938110
39.8875961304 -21.4383563995 68.5383529663
39.9028053284 -21.4450550079 68.3449707031
39.9225311279 -21.4541110992 68.1520309448
39.9488868713 -21.4666290283 67.9597320557
39.9876632690 -21.4856262207 67.7686462402
40.0470352173 -21.5153732300 67.5795974731
40.1332893372 -21.5591487885 67.3932266235
40.2473907471 -21.6174564362 67.2096939087
40.3847885132 -21.6879253387 67.0285949707
40.5376091003 -21.7664413452 66.8491973877
40.6974830627 -21.8486423492 66.6707077026
40.8580474854 -21.9312038422 66.4924926758
41.0157394409 -22.0122661591 66.3141937256
41.1683731079 -22.0906906128 66.1355819702
41.3129539490 -22.1649150848 65.9563369751
41.4449729919 -22.2325820923 65.7759857178
41.5595855713 -22.2911682129 65.5939865112
41.6531105042 -22.3387470245 65.4099349976
41.7236595154 -22.3743381500 65.2235794067
41.7714843750 -22.3980674744 65.0348968506
41.7991905212 -22.4112968445 64.8441238403
41.8112144470 -22.4163436890 64.6516952515
41.8125190735 -22.4157943726 64.4581222534
41.8076248169 -22.4120082855 64.2638626099
41.8006591797 -22.4071426392 64.0693588257
41.7959556580 -22.4034576416 63.8750839233
41.7984046936 -22.4035053253 63.6815872192
41.8130798340 -22.4099349976 63.4894447327
41.8443832397 -22.4250431061 63.2991752625
41.8952217102 -22.4503479004 63.1111373901
41.9668731689 -22.4865169525 62.9255218506
42.0592079163 -22.5334815979 62.7423515320
42.1705322266 -22.5903606415 62.5614776611
42.2972564697 -22.6552772522 62.3825187683
42.4340171814 -22.7254352570 62.2048873901
42.5742340088 -22.7973976135 62.0278358459
42.7107162476 -22.8674106598 61.8505249023
42.8367042542 -22.9319477081 61.6721458435
42.9470481873 -22.9883213043 61.4920730591
43.0387496948 -23.0349636078 61.3099098206
43.1111373901 -23.0715217590 61.1255416870
43.1661071777 -23.0989933014 60.9391555786
43.2072944641 -23.1192665100 60.7511596680
43.2374610901 -23.1337890625 60.5618629456
43.2563209534 -23.1424083710 60.3712043762
43.2612113953 -23.1437358856 60.1788406372
43.2503242493 -23.1368274689 59.9845085144
43.2258033752 -23.1228008270 59.7884521484
43.1944580078 -23.1052112579 59.5914955139
43.1658401489 -23.0890464783 59.3948287964
43.1489219666 -23.0789871216 59.1996002197
43.1495895386 -23.0781097412 59.0065841675
43.1704673767 -23.0877819061 58.8161506653
43.2125816345 -23.1085414886 58.6284751892
43.2766990662 -23.1407909393 58.4436950684
43.3628463745 -23.1845378876 58.2618675232
43.4686889648 -23.2385711670 58.0827255249
43.5885848999 -23.2999401093 57.9055671692
43.7143249512 -23.3643627167 57.7293357849
43.8372077942 -23.4272937775 57.5528831482
43.9503059387 -23.4851169586 57.3752784729
44.0500869751 -23.5359878540 57.1960258484
44.1368598938 -23.5800685883 57.0151443481
44.2137107849 -23.6189708710 56.8330230713
44.2841072083 -23.6545009613 56.6501159668
44.3490257263 -23.6871738434 56.4665451050
44.4054641724 -23.7154197693 56.2818794250
44.4478645325 -23.7363357544 56.0953407288
44.4714698792 -23.7474403381 55.9062309265
44.4746437073 -23.7478752136 55.7142906189
44.4587020874 -23.7383308411 55.5196571350
44.4270591736 -23.7205848694 55.3227767944
44.3850402832 -23.6974220276 55.1243705750
44.3398094177 -23.6725845337 54.9254417419
44.2993125916 -23.6502170563 54.7271194458
44.2705993652 -23.6340007782 54.5304260254
44.2585144043 -23.6264667511 54.3360862732
44.2653846741 -23.6288318634 54.1444740295
44.2917709351 -23.6413860321 53.9557113647
44.3375816345 -23.6640834808 53.7698173523
44.4024124146 -23.6967144012 53.5867805481
44.4848594666 -23.7385444641 53.4064254761
44.5820922852 -23.7880954742 53.2283706665
44.6904525757 -23.8434562683 53.0520973206
44.8057518005 -23.9024429321 52.8770027161
44.9226379395 -23.9622612000 52.7022972107
45.0345458984 -24.0194778442 52.5269851685
45.1352729797 -24.0708580017 52.3501129150
45.2211532593 -24.1144866943 52.1711006165
45.2919197083 -24.1502208710 51.9898796082
45.3492813110 -24.1789550781 51.8066787720
45.3941345215 -24.2011604309 51.6216087341
45.4246559143 -24.2158794403 51.4343643188
45.4370613098 -24.2211399078 51.2443237305
45.4285545349 -24.2154769897 51.0510101318
45.4001274109 -24.1994132996 50.8545417786
45.3569679260 -24.1756534576 50.6556930542
45.3065147400 -24.1480846405 50.4556198120
45.2561302185 -24.1205501556 50.2554779053
45.2117843628 -24.0961704254 50.0562248230
45.1777610779 -24.0771808624 49.8585586548
45.1568756104 -24.0650520325 49.6629638672
45.1512985229 -24.0609188080 49.4698104858
45.1633148193 -24.0659732819 49.2795066833
45.1950569153 -24.0813312531 49.0924339294
45.2470512390 -24.1072654724 48.9087181091
45.3169250488 -24.1425399780 48.7280158997
45.3998527527 -24.1846313477 48.5495567322
45.4905929565 -24.2308044434 48.3725013733
45.5851745605 -24.2789840698 48.1962013245
45.6804428101 -24.3275260925 48.0201339722
45.7726554871 -24.3744678497 47.8436698914
45.8572044373 -24.4174118042 47.6660270691
45.9297218323 -24.4540691376 47.4864501953
45.9869155884 -24.4827270508 47.3043518066
46.0267753601 -24.5023269653 47.1193542480
46.0485076904 -24.5124607086 46.9312896729
46.0524101257 -24.5132808685 46.7401695251
46.0394554138 -24.5052947998 46.5461273193
46.0112304688 -24.4893341064 46.3494071960
45.9704551697 -24.4668159485 46.1504478455
45.9213294983 -24.4399375916 45.9499626160
45.8690643311 -24.4114189148 45.7488517761
45.8190765381 -24.3840866089 45.5480575562
45.7766494751 -24.3607044220 45.3485260010
45.7466697693 -24.3438243866 45.1511383057
45.7328796387 -24.3354015350 44.9565925598
45.7374343872 -24.3365592957 44.7653007507
45.7611808777 -24.3477439880 44.5774612427
45.8040008545 -24.3688945770 44.3930854797
45.8642997742 -24.3991737366 44.2119255066
45.9383277893 -24.4366264343 44.0333366394
46.0204238892 -24.4782924652 43.8563079834
46.1041450500 -24.5208110809 43.6796836853
46.1836357117 -24.5611190796 43.5023803711
46.2548904419 -24.5971240997 43.3236579895
46.3163223267 -24.6280002594 43.1432037354
46.3682479858 -24.6539077759 42.9610519409
46.4117774963 -24.6754302979 42.7773933411
46.4476165771 -24.6929378510 42.5923461914
46.4749908447 -24.7060222626 42.4057464600
46.4913825989 -24.7133674622 42.2170982361
46.4935188293 -24.7132663727 42.0257644653
46.4789314270 -24.7044258118 41.8312454224
46.4472618103 -24.6866626740 41.6334381104
46.4010658264 -24.6613101959 41.4328002930
46.3458175659 -24.6312255859 41.2303466797
46.2889328003 -24.6002864838 41.0274925232
46.2381744385 -24.5725479126 40.8257408142
46.1999359131 -24.5513496399 40.6263351440
46.1780853271 -24.5387153625 40.4300651550
46.1741065979 -24.5354156494 40.2372474670
46.1886825562 -24.5418109894 40.0480537415
46.2232933044 -24.5586757660 39.8628120422
46.2795639038 -24.5868587494 39.6818885803
46.3561134338 -24.6256351471 39.5050506592
46.4462509155 -24.6715145111 39.3310127258
46.5398216248 -24.7191867828 39.1577682495
46.6278152466 -24.7639465332 38.9835281372
46.7053489685 -24.8032417297 38.8072929382
46.7712364197 -24.8364505768 38.6288070679
46.8261604309 -24.8639316559 38.4481849670
46.8714370728 -24.8863735199 38.2656669617
46.9081382751 -24.9043331146 38.0814514160
46.9362678528 -24.9178161621 37.8955307007
46.9548301697 -24.9262962341 37.7076721191
46.9625663757 -24.9291229248 37.5176048279
46.9584236145 -24.9257411957 37.3250846863
46.9414024353 -24.9156284332 37.1298828125
46.9109420776 -24.8984928131 36.9318542480
46.8679695129 -24.8748207092 36.7311668396
46.8156280518 -24.8462505341 36.5284538269
46.7587890625 -24.8153285980 36.3247108459
46.7030982971 -24.7850074768 36.1211280823
46.6546478271 -24.7584705353 35.9189872742
46.6202278137 -24.7392635345 35.7197418213
46.6067047119 -24.7309761047 35.5248794556
46.6193313599 -24.7363567352 35.3355636597
46.6607627869 -24.7567882538 35.1524162292
46.7309570313 -24.7922534943 34.9754905701
46.8261260986 -24.8407707214 34.8040237427
46.9373321533 -24.8976707458 34.6361389160
47.0520477295 -24.9564037323 34.4691581726
47.1590538025 -25.0111103058 34.3006477356
47.2523612976 -25.0586585999 34.1292877197
47.3310737610 -25.0985774994 33.9548530579
47.3968009949 -25.1317138672 33.7776679993
47.4515991211 -25.1591339111 33.5981559753
47.4967079163 -25.1814956665 33.4165725708
47.5316696167 -25.1985511780 33.2327919006
47.5541877747 -25.2091045380 33.0462875366
47.5613250732 -25.2116184235 32.8563804626
47.5511398315 -25.2050800323 32.6626014709
47.5237159729 -25.1895294189 32.4649314880
47.4811172485 -25.1660480499 32.2638053894
47.4265136719 -25.1362915039 32.0599060059
47.3632507324 -25.1020088196 31.8539619446
47.2943992615 -25.0648021698 31.6466522217
47.2225074768 -25.0260086060 31.4385490417
47.1498260498 -24.9867992401 31.2301578522
47.0797004700 -24.9489269257 31.0222415924
47.0184402466 -24.9156875610 30.8162555695
46.9746589661 -24.8915824890 30.6142005920
46.9549217224 -24.8800487518 30.4176292419
46.9592361450 -24.8810844421 30.2265911102
46.9812393188 -24.8913650513 30.0396575928
47.0135192871 -24.9070186615 29.8551387787
47.0526351929 -24.9262466431 29.6722507477
47.0988655090 -24.9491920471 29.4910755157
47.1521949768 -24.9758510590 29.3116207123
47.2098350525 -25.0047626495 29.1332454681
47.2674980164 -25.0336856842 28.9549427032
47.3218002319 -25.0608558655 28.7759151459
47.3707618713 -25.0852317810 28.5956802368
47.4123725891 -25.1057643890 28.4137477875
47.4432182312 -25.1206722260 28.2292900085
47.4588813782 -25.1276416779 28.0412235260
47.4559516907 -25.1248912811 27.8486957550
47.4340782166 -25.1122379303 27.6515865326
47.3963241577 -25.0912837982 27.4505958557
47.3476142883 -25.0645999908 27.2468872070
47.2923889160 -25.0345096588 27.0415153503
47.2329826355 -25.0022335052 26.8350391388
47.1697845459 -24.9679737091 26.6275463104
47.1030693054 -24.9318752289 26.4190921783
47.0350875854 -24.8951129913 26.2102260590
46.9709587097 -24.8603649139 26.0022068024
46.9177513123 -24.8313274384 25.7967929840
46.8822784424 -24.8115596771 25.5956935883
46.8689689636 -24.8033809662 25.4000473022
46.8792304993 -24.8075237274 25.2102508545
46.9120521545 -24.8234634399 25.0261020660
46.9647293091 -24.8497810364 24.8469638824
47.0327072144 -24.8841037750 24.6717376709
47.1094512939 -24.9230060577 24.4988021851
47.1875495911 -24.9626197815 24.3263053894
47.2607345581 -24.9996643066 24.1526584625
47.3247451782 -25.0319118500 23.9767723083
47.3764915466 -25.0577468872 23.7978363037
47.4129486084 -25.0755901337 23.6150550842
47.4310684204 -25.0838451385 23.4276142120
47.4288673401 -25.0814723969 23.2349681854
47.4069137573 -25.0687751770 23.0372219086
47.3685264587 -25.0474834442 22.8351917267
47.3178672791 -25.0197734833 22.6299209595
47.2578926086 -24.9871921539 22.4221515656
47.1902351379 -24.9505920410 22.2122917175
47.1164779663 -24.9108047485 22.0007362366
47.0389060974 -24.8690204620 21.7880706787
46.9603347778 -24.8267135620 21.5750293732
46.8842468262 -24.7857017517 21.3625221252
46.8158683777 -24.7487239838 21.1519336700
46.7630729675 -24.7198925018 20.9453620911
46.7348480225 -24.7039108276 20.7452239990
46.7371864319 -24.7039089203 20.5531597137
46.7691078186 -24.7193775177 20.3689708710
46.8223152161 -24.7459774017 20.1905040741
46.8855972290 -24.7778472900 20.0147972107
46.9510688782 -24.8108634949 19.8397560120
47.0170326233 -24.8441352844 19.6649265289
47.0849723816 -24.8784427643 19.4907093048
47.1542320251 -24.9134407043 19.3169345856
47.2199592590 -24.9465904236 19.1422843933
47.2755622864 -24.9744472504 18.9649639130
47.3158340454 -24.9942874908 18.7835273743
47.3376770020 -25.0044860840 18.5970973969
47.3396682739 -25.0043067932 18.4052505493
47.3222846985 -24.9939937592 18.2080745697
47.2881889343 -24.9749393463 18.0062618256
47.2413444519 -24.9492187500 17.8008728027
47.1857070923 -24.9188976288 17.5929756165
47.1248855591 -24.8858642578 17.3835563660
47.0625991821 -24.8520660400 17.1736335754
47.0026092529 -24.8194675446 16.9642581940
46.9478759766 -24.7896156311 16.7562580109
46.9001884460 -24.7634506226 16.5501480103
46.8612136841 -24.7418403625 16.3464088440
46.8338088989 -24.7262840271 16.1458644867
46.8219108582 -24.7188358307 15.9496488571
46.8287086487 -24.7211647034 15.7586956024
46.8547821045 -24.7335777283 15.5732078552
46.8975601196 -24.7547302246 15.3924961090
46.9521865845 -24.7820758820 15.2152080536
47.0129241943 -24.8126201630 15.0397310257
47.0744247437 -24.8435649872 14.8645448685
47.1326065063 -24.8727741241 14.6884822845
47.1852226257 -24.8990726471 14.5108861923
47.2314987183 -24.9220523834 14.3315238953
47.2709732056 -24.9414787292 14.1502504349
47.3023681641 -24.9566764832 13.9666795731
47.3231201172 -24.9663085938 13.7800502777
47.3298263550 -24.9685935974 13.5893497467
47.3197593689 -24.9621028900 13.3937540054
47.2925872803 -24.9466667175 13.1931304932
47.2505912781 -24.9234733582 12.9881143570
47.1977996826 -24.8946342468 12.7798576355
47.1396789551 -24.8630065918 12.5699491501
47.0829887390 -24.8321247101 12.3603725433
47.0342788696 -24.8054199219 12.1530704498
46.9979934692 -24.7852115631 11.9493761063
46.9762306213 -24.7726020813 11.7499408722
46.9700660706 -24.7681503296 11.5551128387
46.9801826477 -24.7722187042 11.3651304245
47.0061035156 -24.7845516205 11.1798820496
47.0452651978 -24.8038139343 10.9986324310
47.0935630798 -24.8278560638 10.8201742172
47.1470832825 -24.8546314240 10.6433458328
47.2036170959 -24.8829822540 10.4674921036
47.2626304626 -24.9126300812 10.2924566269
47.3236312866 -24.9433193207 10.1180944443
47.3843574524 -24.9738636017 9.9437227249
47.4404869080 -25.0020065308 9.7680234909
47.4867439270 -25.0249824524 9.5893745422
47.5178985596 -25.0400562286 9.4061546326
47.5294265747 -25.0448646545 9.2169437408
47.5185623169 -25.0379562378 9.0208501816
47.4854393005 -25.0194015503 8.8178701401
47.4333610535 -24.9909305573 8.6089782715
47.3675079346 -24.9552497864 8.3957395554
47.2928428650 -24.9149608612 8.1796665192
47.2129898071 -24.8719539642 7.9618649483
47.1310882568 -24.8278751373 7.7433071136
47.0515861511 -24.7850513458 7.5253753662
46.9804420471 -24.7465991974 7.3099412918
46.9230461121 -24.7153415680 7.0987138748
46.8819198608 -24.6925964355 6.8925137520
46.8565711975 -24.6781044006 6.6912183762
46.8452720642 -24.6709632874 6.4943161011
46.8467102051 -24.6704883575 6.3014202118
46.8602943420 -24.6763706207 6.1123700142
46.8855056763 -24.6883316040 5.9270224571
46.9209060669 -24.7056293488 5.7449479103
46.9637565613 -24.7268238068 5.5652890205
47.0105819702 -24.7500972748 5.3869509697
47.0582389832 -24.7738094330 5.2089352608
47.1043472290 -24.7967090607 5.0304756165
47.1469879150 -24.8177947998 4.8509535789
47.1843948364 -24.8361415863 4.6697902679
47.2149391174 -24.8508987427 4.4864492416
47.2378540039 -24.8616638184 4.3006687164
47.2542343140 -24.8690071106 4.1127862930
47.2669181824 -24.8744182587 3.9237134457
47.2787399292 -24.8793792725 3.7343680859
47.2908287048 -24.8844776154 3.5451140404
47.3028717041 -24.8895530701 3.3558537960
47.3150825500 -24.8947162628 3.1666531563
47.3294258118 -24.9009952545 2.9781615734
47.3489341736 -24.9099788666 2.7913830280
47.3758049011 -24.9228134155 2.6070508957
47.4102859497 -24.9396305084 2.4252648354
47.4515724182 -24.9600124359 2.2457737923
47.4996376038 -24.9839401245 2.0685822964
47.5557289124 -25.0120697021 1.8941196203
47.6207008362 -25.0448474884 1.7226874828
47.6929359436 -25.0814266205 1.5537637472
47.7682876587 -25.1196365356 1.3859729767
47.8423233032 -25.1571598053 1.2178350687
47.9125823975 -25.1927070618 1.0485171080
47.9782524109 -25.2258510590 0.8777390122
48.0378303528 -25.2558097839 0.7049832344
48.0878524780 -25.2807655334 0.5290643573
48.1245880127 -25.2987689972 0.3486977816
48.1466331482 -25.3090839386 0.1633787602
-21.4114074707 -42.7350540161 90.3536911011
-21.4135074615 -42.7390403748 90.1630477905
-21.4138793945 -42.7397956848 89.9722900391
-21.4121265411 -42.7365760803 89.7813720703
-21.4103279114 -42.7332687378 89.5904464722
-21.4115447998 -42.7356071472 89.3997192383
-21.4173374176 -42.7465057373 89.2093124390
-21.4267158508 -42.7641143799 89.0191802979
-21.4370803833 -42.7835731506 88.8291397095
-21.4460678101 -42.8004493713 88.6390075684
-21.4527549744 -42.8130226135 88.4487152100
-21.4576549530 -42.8222541809 88.2582931519
-21.4621772766 -42.8307762146 88.0678482056
-21.4684944153 -42.8426551819 87.8775482178
-21.4800624847 -42.8643646240 87.6876983643
-21.5021591187 -42.9057731628 87.4987487793
-21.5413951874 -42.9792556763 87.3113174438
-21.6038322449 -43.0961608887 87.1259918213
-21.6927890778 -43.2626876831 86.9431533813
-21.8075256348 -43.4774627686 86.7628479004
-21.9425640106 -43.7302322388 86.5846862793
-22.0873641968 -44.0012664795 86.4077606201
-22.2279987335 -44.2644996643 86.2308273315
-22.3517665863 -44.4961776733 86.0526657104
-22.4519329071 -44.6836814880 85.8725509644
-22.5287361145 -44.8274688721 85.6904220581
-22.5865135193 -44.9356536865 85.5066070557
-22.6299228668 -45.0169448853 85.3215026855
-22.6620292664 -45.0770874023 85.1353607178
-22.6846237183 -45.1194305420 84.9483261108
-22.6993827820 -45.1471061707 84.7605209351
-22.7084522247 -45.1641387939 84.5721511841
-22.7140579224 -45.1746864319 84.3834228516
-22.7177104950 -45.1815834045 84.1944961548
-22.7197875977 -45.1855278015 84.0054016113
-22.7199211121 -45.1858367920 83.8160858154
-22.7178802490 -45.1820755005 83.6265182495
-22.7140388489 -45.1749458313 83.4367370605
-22.7091121674 -45.1657829285 83.2468032837
-22.7040996552 -45.1564636230 83.0568466187
-22.7011051178 -45.1509208679 82.8671035767
-22.7038688660 -45.1561508179 82.6780319214
-22.7167415619 -45.1802978516 82.4901580811
-22.7429237366 -45.2293548584 82.3039321899
-22.7836971283 -45.3057136536 82.1195526123
-22.8387813568 -45.4088554382 81.9370422363
-22.9065856934 -45.5358009338 81.7562561035
-22.9839649200 -45.6806640625 81.5768585205
-23.0664291382 -45.8350410461 81.3983001709
-23.1491451263 -45.9898910522 81.2199859619
-23.2279567719 -46.1374359131 81.0413742065
-23.2997741699 -46.2718925476 80.8620452881
-23.3627376556 -46.3897781372 80.6817169189
-23.4164619446 -46.4903717041 80.5003128052
-23.4618873596 -46.5754394531 80.3179092407
-23.5004882813 -46.6477317810 80.1346817017
-23.5331611633 -46.7089347839 79.9507369995
-23.5594654083 -46.7582168579 79.7659759521
-23.5775699615 -46.7921562195 79.5801162720
-23.5851078033 -46.8063240051 79.3927993774
-23.5808620453 -46.7984352112 79.2037963867
-23.5664443970 -46.7715110779 79.0133056641
-23.5465927124 -46.7344245911 78.8219757080
-23.5273876190 -46.6985397339 78.6306762695
-23.5136890411 -46.6729621887 78.4401321411
-23.5080490112 -46.6624679565 78.2507629395
-23.5115985870 -46.6691665649 78.0627593994
-23.5253314972 -46.6949272156 77.8763198853
-23.5504245758 -46.7419433594 77.6916503906
-23.5876884460 -46.8117332458 77.5089416504
-23.6369762421 -46.9040298462 77.3282012939
-23.6969146729 -47.0162506104 77.1492691040
-23.7648334503 -47.1434135437 76.9717636108
-23.8370094299 -47.2785339355 76.7951126099
-23.9092178345 -47.4137229919 76.6186523438
-23.9773731232 -47.5413208008 76.4417114258
-24.0380268097 -47.6548843384 76.2637100220
-24.0888366699 -47.7500267029 76.0842208862
-24.1289405823 -47.8251342773 75.9030685425
-24.1590194702 -47.8814811707 75.7203216553
-24.1811103821 -47.9228782654 75.5362854004
-24.1982250214 -47.9549636841 75.3514480591
-24.2131881714 -47.9830245972 75.1662750244
-24.2269458771 -48.0088272095 74.9809265137
-24.2380619049 -48.0296897888 74.7951431274
-24.2442455292 -48.0413169861 74.6085052490
-24.2441368103 -48.0411758423 74.4207611084
-24.2377014160 -48.0291862488 74.2318725586
-24.2257575989 -48.0068931580 74.0419616699
-24.2099933624 -47.9774551392 73.8513183594
-24.1933345795 -47.9463386536 73.6604537964
-24.1798171997 -47.9211006165 73.4701232910
-24.1738548279 -47.9100036621 73.2811508179
-24.1792640686 -47.9201812744 73.0942916870
-24.1983013153 -47.9558639526 72.9100036621
-24.2309932709 -48.0171012878 72.7283477783
-24.2751598358 -48.0998115540 72.5489730835
-24.3270397186 -48.1969528198 72.3711929321
-24.3822345734 -48.3003005981 72.1941833496
-24.4369621277 -48.4027748108 72.0172195435
-24.4891586304 -48.5005111694 71.8398971558
-24.5385875702 -48.5930633545 71.6621551514
-24.5859355927 -48.6817245483 71.4841232300
-24.6319160461 -48.7678298950 71.3059310913
-24.6767482758 -48.8517837524 71.1276245117
-24.7193794250 -48.9316215515 70.9489822388
-24.7566738129 -49.0014686584 70.7693481445
-24.7839660645 -49.0526008606 70.5877532959
-24.7973403931 -49.0776863098 70.4033355713
-24.7957496643 -49.0747680664 70.2158203125
-24.7813339233 -49.0478477478 70.0256042480
-24.7580394745 -49.0043182373 69.8334655762
-24.7300796509 -48.9520530701 69.6402664185
-24.7013034821 -48.8982620239 69.4468078613
-24.6753005981 -48.8496589661 69.2538681030
-24.6552906036 -48.8122711182 69.0621414185
-24.6435699463 -48.7903976440 68.8721618652
-24.6409893036 -48.7856254578 68.6841506958
-24.6469783783 -48.7968902588 68.4980087280
-24.6599159241 -48.8211593628 68.3134155273
-24.6777133942 -48.8545227051 68.1299362183
-24.6986694336 -48.8937950134 67.9472045898
-24.7221755981 -48.9378433228 67.7650985718
-24.7485523224 -48.9872589111 67.5836944580
-24.7783126831 -49.0430107117 67.4031219482
-24.8117122650 -49.1055717468 67.2234649658
-24.8485527039 -49.1745681763 67.0446777344
-24.8876857758 -49.2478599548 66.8665161133
-24.9267959595 -49.3211059570 66.6884460449
-24.9630603790 -49.3890228271 66.5097961426
-24.9940280914 -49.4470329285 66.3299942017
-25.0177459717 -49.4914741516 66.1485290527
-25.0325737000 -49.5192832947 65.9650039673
-25.0375061035 -49.5285720825 65.7791290283
-25.0327281952 -49.5196876526 65.5909042358
-25.0198001862 -49.4955520630 65.4006881714
-25.0013217926 -49.4610328674 65.2090682983
-24.9803237915 -49.4217948914 65.0167694092
-24.9597702026 -49.3833923340 64.8245239258
-24.9423522949 -49.3508529663 64.6329879761
-24.9302043915 -49.3281784058 64.4427108765
-24.9244880676 -49.3175430298 64.2540130615
-24.9253940582 -49.3192977905 64.0669631958
-24.9327926636 -49.3331985474 63.8815574646
-24.9467105865 -49.3593025208 63.6978225708
-24.9669303894 -49.3971977234 63.5157318115
-24.9921340942 -49.4444198608 63.3349685669
-25.0197257996 -49.4961090088 63.1548881531
-25.0468311310 -49.5468902588 62.9747428894
-25.0717983246 -49.5936698914 62.7941017151
-25.0950737000 -49.6372871399 62.6130752563
-25.1187076569 -49.6815681458 62.4321975708
-25.1445827484 -49.7300491333 62.2519683838
-25.1726360321 -49.7826042175 62.0723838806
-25.2006168365 -49.8350219727 61.8928451538
-25.2256546021 -49.8819351196 61.7125778198
-25.2458686829 -49.9198188782 61.5310630798
-25.2602977753 -49.9468803406 61.3480186462
-25.2679195404 -49.9612007141 61.1631431580
-25.2675323486 -49.9605331421 60.9760742188
-25.2585372925 -49.9437561035 60.7866210938
-25.2413558960 -49.9116668701 60.5948638916
-25.2173366547 -49.8667755127 60.4011421204
-25.1889247894 -49.8136672974 60.2061195374
-25.1599445343 -49.7594947815 60.0108528137
-25.1352291107 -49.7132987976 59.8167076111
-25.1194972992 -49.6839218140 59.6250419617
-25.1159896851 -49.6774139404 59.4368171692
-25.1254940033 -49.6952590942 59.2523117065
-25.1464385986 -49.7345123291 59.0711174011
-25.1759567261 -49.7898063660 58.8924522400
-25.2110862732 -49.8556022644 58.7154960632
-25.2495574951 -49.9276542664 58.5395965576
-25.2901191711 -50.0036163330 58.3644065857
-25.3322296143 -50.0824737549 58.1897735596
-25.3751144409 -50.1627807617 58.0154724121
-25.4170398712 -50.2412948608 57.8409919739
-25.4554843903 -50.3132972717 57.6655769348
-25.4878597260 -50.3739356995 57.4884338379
-25.5121936798 -50.4195289612 57.3089408875
-25.5275363922 -50.4483032227 57.1267814636
-25.5338401794 -50.4601554871 56.9419097900
-25.5314044952 -50.4556541443 56.7543716431
-25.5205078125 -50.4353256226 56.5642242432
-25.5015678406 -50.3999366760 56.3715591431
-25.4754638672 -50.3511505127 56.1766204834
-25.4437141418 -50.2917938232 55.9798469543
-25.4084300995 -50.2258262634 55.7818756104
-25.3721160889 -50.1579284668 55.5834808350
-25.3372783661 -50.0927925110 55.3854484558
-25.3063201904 -50.0349197388 55.1885414124
-25.2818412781 -49.9891700745 54.9935989380
-25.2666320801 -49.9607658386 54.8015403748
-25.2625999451 -49.9532775879 54.6130104065
-25.2694187164 -49.9660987854 54.4279518127
-25.2844276428 -49.9942398071 54.2455482483
-25.3041706085 -50.0312461853 54.0647125244
-25.3263244629 -50.0727577209 53.8847045898
-25.3503704071 -50.1178169250 53.7053642273
-25.3766822815 -50.1671104431 53.5268249512
-25.4051189423 -50.2203826904 53.3490486145
-25.4346027374 -50.2756118774 53.1716842651
-25.4636058807 -50.3299446106 52.9942321777
-25.4905033112 -50.3803367615 52.8161468506
-25.5135002136 -50.4234275818 52.6368179321
-25.5309181213 -50.4560813904 52.4556694031
-25.5418701172 -50.4766311646 52.2723731995
-25.5464859009 -50.4853286743 52.0869560242
-25.5453796387 -50.4833183289 51.8995933533
-25.5389957428 -50.4714279175 51.7104148865
-25.5275745392 -50.4501152039 51.5194892883
-25.5116710663 -50.4204139709 51.3269767761
-25.4925155640 -50.3846282959 51.1332969666
-25.4717998505 -50.3459205627 50.9390106201
-25.4512805939 -50.3075790405 50.7447319031
-25.4326610565 -50.2727928162 50.5510559082
-25.4174938202 -50.2444725037 50.3585319519
-25.4068984985 -50.2247009277 50.1675682068
-25.4013957977 -50.2144660950 49.9783706665
-25.4011707306 -50.2140998840 49.7910194397
-25.4064388275 -50.2240180969 49.6056213379
-25.4176673889 -50.2450866699 49.4223556519
-25.4354496002 -50.2784194946 49.2414665222
-25.4598484039 -50.3241348267 49.0629959106
-25.4893589020 -50.3794136047 48.8864326477
-25.5204772949 -50.4377059937 48.7105255127
-25.5488586426 -50.4908752441 48.5336952209
-25.5711765289 -50.5326957703 48.3547134399
-25.5857753754 -50.5600700378 48.1729545593
-25.5919227600 -50.5716362000 47.9881134033
-25.5892581940 -50.5667037964 47.8000259399
-25.5779514313 -50.5456047058 47.6087150574
-25.5586585999 -50.5095634460 47.4143981934
-25.5321826935 -50.4600791931 47.2173347473
-25.4997692108 -50.3994789124 47.0179672241
-25.4637680054 -50.3321685791 46.8171577454
-25.4273319244 -50.2640457153 46.6160812378
-25.3930778503 -50.2000045776 46.4157218933
-25.3622055054 -50.1422920227 46.2165489197
-25.3350906372 -50.0916099548 46.0187225342
-25.3126068115 -50.0495948792 45.8225860596
-25.2967166901 -50.0199203491 45.6289176941
-25.2897453308 -50.0069313049 45.4386329651
-25.2930068970 -50.0130920410 45.2522811890
-25.3060073853 -50.0374794006 45.0697135925
-25.3268566132 -50.0765533447 44.8902244568
-25.3532714844 -50.1260414124 44.7129631042
-25.3830699921 -50.1818580627 44.5370864868
-25.4141025543 -50.2399864197 44.3617706299
-25.4443511963 -50.2966499329 44.1862182617
-25.4722709656 -50.3489532471 44.0098190308
-25.4967899323 -50.3948936462 43.8321304321
-25.5169563293 -50.4326896667 43.6527671814
-25.5318737030 -50.4606628418 43.4713439941
-25.5410938263 -50.4779739380 43.2876663208
-25.5447063446 -50.4847908020 43.1017494202
-25.5427284241 -50.4811477661 42.9135704041
-25.5345058441 -50.4658203125 42.7228469849
-25.5189418793 -50.4367561340 42.5291061401
-25.4956321716 -50.3931922913 42.3321533203
-25.4660263062 -50.3378524780 42.1325531006
-25.4335498810 -50.2771377563 41.9316864014
-25.4024009705 -50.2189064026 41.7312698364
-25.3759002686 -50.1693763733 41.5326843262
-25.3555927277 -50.1314315796 41.3365898132
-25.3414230347 -50.1049766541 41.1429901123
-25.3326053619 -50.0885353088 40.9515762329
-25.3284244537 -50.0807685852 40.7620735168
-25.3284931183 -50.0809555054 40.5743370056
-25.3324947357 -50.0885009766 40.3882522583
-25.3398761749 -50.1023750305 40.2035980225
-25.3498153687 -50.1210289001 40.0200386047
-25.3614616394 -50.1428794861 39.8372268677
-25.3741798401 -50.1667404175 39.6548957825
-25.3874454498 -50.1916198730 39.4728240967
-25.4003734589 -50.2158737183 39.2906341553
-25.4115104675 -50.2367706299 39.1077003479
-25.4193286896 -50.2514572144 38.9233551025
-25.4231243134 -50.2586212158 38.7372741699
-25.4233589172 -50.2591171265 38.5496482849
-25.4211769104 -50.2550926208 38.3609619141
-25.4177284241 -50.2486991882 38.1717071533
-25.4138031006 -50.2414093018 37.9822235107
-25.4098453522 -50.2340621948 37.7927093506
-25.4061012268 -50.2271156311 37.6032676697
-25.4027595520 -50.2209205627 37.4139862061
-25.4000244141 -50.2158622742 37.2249603271
-25.3981399536 -50.2123908997 37.0362968445
-25.3973445892 -50.2109642029 36.8481063843
-25.3978061676 -50.2118835449 36.6604690552
-25.3994731903 -50.2150611877 36.4733695984
-25.4019107819 -50.2196807861 36.2866096497
-25.4042892456 -50.2241935730 36.0998229980
-25.4058361053 -50.2271423340 35.9126586914
-25.4066448212 -50.2287139893 35.7251548767
-25.4079685211 -50.2312507629 35.5378761292
-25.4110260010 -50.2370338440 35.3513908386
-25.4150772095 -50.2446708679 35.1653594971
-25.4170875549 -50.2484893799 34.9783897400
-25.4140338898 -50.2428321838 34.7890815735
-25.4055404663 -50.2269973755 34.5972366333
-25.3938732147 -50.2052268982 34.4038887024
-25.3814907074 -50.1821136475 34.2101707458
-25.3690700531 -50.1589279175 34.0163879395
-25.3556995392 -50.1339683533 33.8221244812
-25.3403530121 -50.1053123474 33.6268844604
-25.3229598999 -50.0728225708 33.4306335449
-25.3042812347 -50.0379257202 33.2337188721
-25.2849788666 -50.0018653870 33.0364532471
-25.2648315430 -49.9642219543 32.8387222290
-25.2428245544 -49.9231033325 32.6400489807
-25.2181396484 -49.8769683838 32.4400253296
-25.1914253235 -49.8270378113 32.2389564514
-25.1654434204 -49.7784767151 32.0381584167
-25.1445503235 -49.7394371033 31.8397350311
-25.1331443787 -49.7181549072 31.6458301544
-25.1336193085 -49.7191009521 31.4576416016
-25.1449699402 -49.7403984070 31.2747306824
-25.1635341644 -49.7751960754 31.0953559875
-25.1855239868 -49.8164024353 30.9176940918
-25.2087287903 -49.8598823547 30.7406787872
-25.2319126129 -49.9033279419 30.5637073517
-25.2534065247 -49.9436035156 30.3859577179
-25.2708873749 -49.9763717651 30.2062759399
-25.2822628021 -49.9977188110 30.0236091614
-25.2862777710 -50.0052909851 29.8373107910
-25.2822971344 -49.9979019165 29.6470336914
-25.2699928284 -49.9749336243 29.4525833130
-25.2493152618 -49.9362983704 29.2539024353
-25.2205047607 -49.8824462891 29.0510768890
-25.1839752197 -49.8141479492 28.8442802429
-25.1407051086 -49.7332382202 28.6339778900
-25.0931739807 -49.6443557739 28.4213943481
-25.0453987122 -49.5550155640 28.2085533142
-25.0010395050 -49.4720687866 27.9973125458
-24.9609661102 -49.3971405029 27.7881298065
-24.9230365753 -49.3262214661 27.5799274445
-24.8848819733 -49.2548828125 27.3715000153
-24.8470554352 -49.1841583252 27.1631298065
-24.8132286072 -49.1209220886 26.9567127228
-24.7874240875 -49.0726928711 26.7543392181
-24.7711162567 -49.0422363281 26.5568065643
-24.7624530792 -49.0260848999 26.3631935120
-24.7576694489 -49.0171928406 26.1715660095
-24.7533035278 -49.0090827942 25.9801368713
-24.7476902008 -48.9986381531 25.7880363464
-24.7411422729 -48.9864425659 25.5954208374
-24.7351818085 -48.9753494263 25.4030876160
-24.7313861847 -48.9683036804 25.2118740082
-24.7304134369 -48.9665412903 25.0221309662
-24.7317924500 -48.9691810608 24.8336257935
-24.7344474792 -48.9742088318 24.6457939148
-24.7373180389 -48.9796409607 24.4580764771
-24.7395820618 -48.9839363098 24.2700347900
-24.7404575348 -48.9856338501 24.0812454224
-24.7390041351 -48.9829711914 23.8912010193
-24.7344913483 -48.9745826721 23.6994991302
-24.7272377014 -48.9610710144 23.5062980652
-24.7189941406 -48.9457054138 23.3125343323
-24.7122116089 -48.9330711365 23.1195335388
-24.7089729309 -48.9270706177 22.9284286499
-24.7105903625 -48.9301567078 22.7399559021
-24.7178745270 -48.9438438416 22.5545711517
-24.7313632965 -48.9691429138 22.3725948334
-24.7511291504 -49.0061874390 22.1940898895
-24.7763614655 -49.0534629822 22.0186386108
-24.8053550720 -49.1077766418 21.8453216553
-24.8361339569 -49.1654281616 21.6730594635
-24.8671150208 -49.2234573364 21.5009822845
-24.8972759247 -49.2799568176 21.3285274506
-24.9260673523 -49.3338928223 21.1553821564
-24.9533996582 -49.3850936890 20.9814891815
-24.9793243408 -49.4336624146 20.8068752289
-25.0032253265 -49.4784469604 20.6311893463
-25.0232048035 -49.5158920288 20.4533538818
-25.0364646912 -49.5407638550 20.2717761993
-25.0404682159 -49.5483131409 20.0849971771
-25.0340843201 -49.5364265442 19.8923416138
-25.0179710388 -49.5063323975 19.6941356659
-24.9940052032 -49.4615478516 19.4914131165
-24.9644908905 -49.4063796997 19.2854537964
-24.9320049286 -49.3456497192 19.0777091980
-24.8996696472 -49.2851982117 18.8699550629
-24.8704891205 -49.2306556702 18.6639175415
-24.8455486298 -49.1840438843 18.4602336884
-24.8230209351 -49.1419525146 18.2578678131
-24.7996883392 -49.0983505249 18.0549659729
-24.7739887238 -49.0503196716 17.8506202698
-24.7479839325 -49.0017166138 17.6460227966
-24.7265205383 -48.9616127014 17.4439907074
-24.7143211365 -48.9388465881 17.2472991943
-24.7133350372 -48.9370574951 17.0571269989
-24.7220211029 -48.9533691406 16.8726139069
-24.7365207672 -48.9805603027 16.6915340424
-24.7522964478 -49.0101394653 16.5112342834
-24.7652111053 -49.0343627930 16.3292808533
-24.7723197937 -49.0477256775 16.1439208984
-24.7727069855 -49.0485115051 15.9545822144
-24.7675552368 -49.0389289856 15.7619447708
-24.7587451935 -49.0225028992 15.5671062469
-24.7468948364 -49.0003852844 15.3704195023
-24.7306671143 -48.9700813293 15.1710748672
-24.7079715729 -48.9276695251 14.9677982330
-24.6777572632 -48.8711929321 14.7599325180
-24.6408500671 -48.8021888733 14.5479450226
-24.5995979309 -48.7250556946 14.3332281113
-24.5572261810 -48.6458282471 14.1177129745
-24.5171680450 -48.5709304810 13.9034786224
-24.4821205139 -48.5054092407 13.6921758652
-24.4532470703 -48.4514389038 13.4845294952
-24.4305019379 -48.4089355469 13.2805395126
-24.4139575958 -48.3780364990 13.0802736282
-24.4047298431 -48.3608322144 12.8844432831
-24.4044742584 -48.3604125977 12.6940927505
-24.4138336182 -48.3779830933 12.5096549988
-24.4312038422 -48.4105491638 12.3301792145
-24.4528121948 -48.4510421753 12.1533632278
-24.4741191864 -48.4909667969 11.9764099121
-24.4915866852 -48.5237121582 11.7971200943
-24.5036087036 -48.5462684631 11.6144800186
-24.5101585388 -48.5585823059 11.4284477234
-24.5117111206 -48.5615463257 11.2392997742
-24.5082492828 -48.5551261902 11.0470066071
-24.4987945557 -48.5374946594 10.8509321213
-24.4816589355 -48.5054893494 10.6499900818
-24.4555263519 -48.4566497803 10.4433193207
-24.4208602905 -48.3918418884 10.2311763763
-24.3805255890 -48.3164253235 10.0153408051
-24.3389968872 -48.2387771606 9.7986316681
-24.3007888794 -48.1673393250 9.5839138031
-24.2690811157 -48.1080703735 9.3732280731
-24.2449760437 -48.0630226135 9.1673059464
-24.2278709412 -48.0310745239 8.9657907486
-24.2172794342 -48.0113182068 8.7684001923
-24.2146263123 -48.0064086914 8.5760746002
-24.2226963043 -48.0215682983 8.3906412125
-24.2431316376 -48.0598678589 8.2132043839
-24.2746849060 -48.1189689636 8.0430030823
-24.3135852814 -48.1918182373 7.8776416779
-24.3550033569 -48.2693786621 7.7140126228
-24.3943805695 -48.3431205750 7.5491585732
-24.4284286499 -48.4068908691 7.3809256554
-24.4558048248 -48.4581756592 7.2084159851
-24.4772548676 -48.4983711243 7.0320906639
-24.4948444366 -48.5313453674 6.8532814980
-24.5105171204 -48.5607337952 6.6732511520
-24.5249595642 -48.5878143311 6.4924430847
-24.5376338959 -48.6115913391 6.3104977608
-24.5476322174 -48.6303596497 6.1268095970
-24.5542831421 -48.6428642273 5.9409193993
-24.5570163727 -48.6480331421 5.7524356842
-24.5550041199 -48.6443290710 5.5607924461
-24.5472183228 -48.6298217773 5.3652853966
-24.5330123901 -48.6032981873 5.1654572487
-24.5127677917 -48.5654754639 4.9615383148
-24.4879989624 -48.5191879272 4.7545208931
-24.4608364105 -48.4684181213 4.5458178520
-24.4334506989 -48.4172363281 4.3368844986
-24.4080581665 -48.3697776794 4.1292128563
-24.3872528076 -48.3309097290 3.9245693684
-24.3739051819 -48.3059921265 3.7249150276
-24.3701992035 -48.2991180420 3.5317654610
-24.3764686584 -48.3109092712 3.3453855515
-24.3905563354 -48.3373260498 3.1643443108
-24.4081707001 -48.3703460693 2.9857425690
-24.4243507385 -48.4006805420 2.8061983585
-24.4353332520 -48.4212913513 2.6231245995
-24.4396018982 -48.4293403625 2.4354588985
-24.4377460480 -48.4259223938 2.2435777187
-24.4318675995 -48.4149856567 2.0489089489
-24.4251136780 -48.4024047852 1.8536100388
-24.4208450317 -48.3944778442 1.6600072384
-24.4211139679 -48.3950386047 1.4695323706
-24.4252052307 -48.4027557373 1.2817081213
-24.4297103882 -48.4112434387 1.0941748619
-24.4304466248 -48.4126777649 0.9040136337
-24.4248104095 -48.4021911621 0.7093908787
-24.4126319885 -48.3794631958 0.5101601481
-24.3949966431 -48.3465270996 0.3070572913
-24.3726367950 -48.3047447205 0.1005747244
29.4533710480 -47.5661811829 88.5858688354
29.4620170593 -47.5778045654 88.3987274170
29.4798488617 -47.6038703918 88.2119903564
29.5051212311 -47.6416320801 88.0256042480
29.5348129272 -47.6863403320 87.8394622803
29.5649795532 -47.7317962646 87.6533966064
29.5919055939 -47.7721557617 87.4672317505
29.6132469177 -47.8037414551 87.2808456421
29.6284275055 -47.8256378174 87.0942001343
29.6381835938 -47.8390121460 86.9073028564
29.6437549591 -47.8458061218 86.7201995850
29.6461734772 -47.8476409912 86.5329284668
29.6459102631 -47.8452606201 86.3455123901
29.6427860260 -47.8383827209 86.1579284668
29.6360473633 -47.8258247375 85.9701232910
29.6247406006 -47.8060798645 85.7820281982
29.6084537506 -47.7785072327 85.5936126709
29.5879802704 -47.7443542480 85.4048995972
29.5654468536 -47.7069625854 85.2160034180
29.5441074371 -47.6714477539 85.0271224976
29.5280933380 -47.6442985535 84.8385238647
29.5216560364 -47.6322097778 84.6504745483
29.5277614594 -47.6398429871 84.4632186890
29.5471096039 -47.6682929993 84.2768402100
29.5787658691 -47.7160949707 84.0913162231
29.6219654083 -47.7820472717 83.9066390991
29.6771945953 -47.8669128418 83.7228775024
29.7452754974 -47.9719886780 83.5401306152
29.8252868652 -48.0958213806 83.3583831787
29.9133205414 -48.2322692871 83.1773757935
30.0030765533 -48.3714256287 82.9966888428
30.0880775452 -48.5031089783 82.8158264160
30.1643886566 -48.6211318970 82.6344909668
30.2317085266 -48.7250213623 82.4526138306
30.2914447784 -48.8169860840 82.2702865601
30.3438377380 -48.8974037170 82.0875015259
30.3873767853 -48.9639015198 81.9041061401
30.4205875397 -49.0141639709 81.7199630737
30.4434242249 -49.0481147766 81.5350189209
30.4567699432 -49.0671386719 81.3493270874
30.4613704681 -49.0724143982 81.1629104614
30.4579544067 -49.0650787354 80.9757995605
30.4479618073 -49.0474052429 80.7881011963
30.4333152771 -49.0224189758 80.5999603271
30.4153995514 -48.9922828674 80.4114837646
30.3949222565 -48.9581222534 80.2227249146
30.3729381561 -48.9215927124 80.0337677002
30.3516559601 -48.8861656189 79.8448181152
30.3341312408 -48.8566474915 79.6561660767
30.3232192993 -48.8375244141 79.4680862427
30.3204994202 -48.8312835693 79.2807617188
30.3260173798 -48.8380012512 79.0942153931
30.3391895294 -48.8567504883 78.9084243774
30.3602066040 -48.8878402710 78.7234268188
30.3906002045 -48.9336738586 78.5394134521
30.4322738647 -48.9972457886 78.3565979004
30.4858131409 -49.0794830322 78.1750793457
30.5493679047 -49.1774673462 77.9947052002
30.6186809540 -49.2845077515 77.8150711060
30.6882133484 -49.3918991089 77.6356048584
30.7529602051 -49.4917640686 77.4557647705
30.8098964691 -49.5793457031 77.2752151489
30.8580398560 -49.6531028748 77.0938186646
30.8974075317 -49.7130584717 76.9115524292
30.9279766083 -49.7591743469 76.7283782959
30.9493160248 -49.7907791138 76.5442276001
30.9607601166 -49.8068237305 76.3589859009
30.9616718292 -49.8062973022 76.1725463867
30.9515380859 -49.7884063721 75.9848251343
30.9302330017 -49.7529411316 75.7957534790
30.8988094330 -49.7015609741 75.6054306030
30.8604011536 -49.6391944885 75.4141921997
30.8200111389 -49.5737113953 75.2226181030
30.7826595306 -49.5130043030 75.0313186646
30.7510318756 -49.4612998962 74.8406219482
30.7244014740 -49.4174575806 74.6504592896
30.6999492645 -49.3770332336 74.4605026245
30.6761989594 -49.3377189636 74.2705688477
30.6562576294 -49.3043937683 74.0810546875
30.6471519470 -49.2881088257 73.8928756714
30.6546535492 -49.2979469299 73.7068099976
30.6786785126 -49.3337745667 73.5229110718
30.7140903473 -49.3875083923 73.3405456543
30.7550086975 -49.4499092102 73.1589889526
30.7976169586 -49.5149688721 72.9777297974
30.8400478363 -49.5797500610 72.7965316772
30.8812351227 -49.6425743103 72.6152496338
30.9201812744 -49.7018737793 72.4337463379
30.9557781219 -49.7559089661 72.2518539429
30.9869976044 -49.8030548096 72.0694122314
31.0133266449 -49.8425140381 71.8863525391
31.0348529816 -49.8744163513 71.7026519775
31.0515460968 -49.8987159729 71.5183029175
31.0622825623 -49.9136428833 71.3331222534
31.0647850037 -49.9156265259 71.1467590332
31.0566272736 -49.9008293152 70.9588394165
31.0363426208 -49.8669662476 70.7690963745
31.0040760040 -49.8142471313 70.5775299072
30.9618930817 -49.7459297180 70.3843917847
30.9140262604 -49.6686706543 70.1902923584
30.8665008545 -49.5919456482 69.9961318970
30.8255729675 -49.5255966187 69.8028640747
30.7955360413 -49.4763832092 69.6111602783
30.7776050568 -49.4462127686 69.4212646484
30.7706737518 -49.4333457947 69.2330322266
30.7729701996 -49.4349937439 69.0462188721
30.7830047607 -49.4488182068 68.8606338501
30.7996063232 -49.4729728699 68.6761016846
30.8217601776 -49.5058631897 68.4924926758
30.8484420776 -49.5458717346 68.3096466064
30.8782024384 -49.5907325745 68.1273574829
30.9088020325 -49.6369094849 67.9452590942
30.9375801086 -49.6802215576 67.7629165649
30.9625644684 -49.7175674438 67.5799942017
30.9833488464 -49.7483024597 67.3964157104
31.0007667542 -49.7737426758 67.2123107910
31.0154151917 -49.7948303223 67.0277633667
31.0262470245 -49.8099098206 66.8425827026
31.0305423737 -49.8147048950 66.6562957764
31.0252418518 -49.8044052124 66.4683456421
31.0084133148 -49.7759666443 66.2783660889
30.9800300598 -49.7293434143 66.0863189697
30.9419918060 -49.6675338745 65.8924865723
30.8976974487 -49.5958747864 65.6974563599
30.8512248993 -49.5207939148 65.5019302368
30.8061981201 -49.4479827881 65.3065414429
30.7649784088 -49.3811607361 65.1117324829
30.7290782928 -49.3227081299 64.9177856445
30.7005462646 -49.2758483887 64.7250976563
30.6824874878 -49.2454681396 64.5342636108
30.6774158478 -49.2355194092 64.3457794189
30.6853141785 -49.2459793091 64.1596908569
30.7042846680 -49.2738647461 63.9756851196
30.7325801849 -49.3164176941 63.7934684753
30.7683887482 -49.3707962036 63.6127281189
30.8078861237 -49.4309806824 63.4327621460
30.8457183838 -49.4885444641 63.2525558472
30.8782196045 -49.5377197266 63.0713920593
30.9051246643 -49.5780906677 62.8892021179
30.9279479980 -49.6120414734 62.7062644958
30.9476146698 -49.6410217285 62.5227508545
30.9635791779 -49.6641769409 62.3385353088
30.9740619659 -49.6787071228 62.1532592773
30.9766864777 -49.6808738708 61.9664230347
30.9694271088 -49.6674842834 61.7775955200
30.9513034821 -49.6369972229 61.5865516663
30.9223289490 -49.5894355774 61.3932456970
30.8831806183 -49.5258636475 61.1977920532
30.8353652954 -49.4486503601 61.0004577637
30.7817859650 -49.3623657227 60.8018150330
30.7268886566 -49.2740020752 60.6027679443
30.6758804321 -49.1917610168 60.4043998718
30.6333980560 -49.1229400635 60.2076950073
30.6025485992 -49.0724182129 60.0133361816
30.5846977234 -49.0423545837 59.8216552734
30.5798110962 -49.0326919556 59.6326866150
30.5869674683 -49.0419807434 59.4462738037
30.6047973633 -49.0680732727 59.2621688843
30.6317310333 -49.1084861755 59.0800628662
30.6660308838 -49.1604995728 58.8996086121
30.7057037354 -49.2209663391 58.7203979492
30.7483005524 -49.2860336304 58.5419044495
30.7907657623 -49.3508987427 58.3634681702
30.8294067383 -49.4097442627 58.1842689514
30.8602046967 -49.4562454224 58.0033912659
30.8796463013 -49.4848785400 57.8200225830
30.8855247498 -49.4921569824 57.6336326599
30.8770675659 -49.4768791199 57.4439926147
30.8548088074 -49.4398765564 57.2511787415
30.8207130432 -49.3842430115 57.0555992126
30.7781143188 -49.3152236938 56.8579711914
30.7306308746 -49.2385177612 56.6591110229
30.6807708740 -49.1580657959 56.4595832825
30.6297950745 -49.0758590698 56.2596702576
30.5791149139 -48.9941177368 56.0597000122
30.5314254761 -48.9170799255 55.8603096008
30.4901351929 -48.8501129150 55.6623191833
30.4579544067 -48.7974853516 55.4663887024
30.4364376068 -48.7616424561 55.2729225159
30.4264583588 -48.7439575195 55.0821685791
30.4281597137 -48.7446594238 54.8941993713
30.4402103424 -48.7616539001 54.7087287903
30.4597015381 -48.7903594971 54.5250854492
30.4831314087 -48.8252639771 54.3424377441
30.5074367523 -48.8615455627 54.1600494385
