34.2534980774 -48.3045234680 61.3348007202
34.1911277771 -48.2153587341 61.1352539063
34.1338958740 -48.1333274841 60.9365463257
34.0843620300 -48.0619926453 60.7391967773
34.0461120605 -48.0063400269 60.5439186096
34.0258255005 -47.9756393433 60.3520469666
34.0277175903 -47.9757614136 60.1644668579
34.0454139709 -47.9978446960 59.9799919128
34.0616569519 -48.0179061890 59.7952499390
34.0616416931 -48.0153770447 59.6072998047
34.0493888855 -47.9958419800 59.4168891907
34.0462913513 -47.9890289307 59.2282829285
34.0691184998 -48.0182418823 59.0448951721
34.1133537292 -48.0772018433 58.8658866882
34.1609649658 -48.1408538818 58.6876487732
34.1984329224 -48.1904182434 58.5074195862
34.2227821350 -48.2217483521 58.3245506287
34.2355690002 -48.2370071411 58.1393241882
34.2377929688 -48.2375907898 57.9519119263
34.2308883667 -48.2254905701 57.7625885010
34.2193908691 -48.2070007324 57.5722694397
34.2099990845 -48.1914443970 57.3823623657
34.2078590393 -48.1859626770 57.1939620972
34.2139778137 -48.1919555664 57.0073089600
34.2263526917 -48.2066459656 56.8219947815
34.2423286438 -48.2263412476 56.6374740601
34.2584228516 -48.2461967468 56.4529991150
34.2682876587 -48.2574005127 56.2671928406
34.2640914917 -48.2490653992 56.0783233643
34.2421569824 -48.2160682678 55.8855361938
34.2050666809 -48.1620063782 55.6893501282
34.1565208435 -48.0920219421 55.4905357361
34.0973472595 -48.0072669983 55.2892456055
34.0294952393 -47.9104461670 55.0858802795
33.9619102478 -47.8139953613 54.8824234009
33.9088821411 -47.7377738953 54.6821022034
33.8809432983 -47.6964225769 54.4873466492
33.8778648376 -47.6896324158 54.2981872559
33.8914070129 -47.7059402466 54.1128120422
33.9140701294 -47.7349243164 53.9295539856
33.9438056946 -47.7737426758 53.7479591370
33.9810104370 -47.8229446411 53.5681495667
34.0241279602 -47.8803634644 53.3897819519
34.0704460144 -47.9422340393 53.2122421265
34.1203002930 -48.0090255737 53.0356178284
34.1776275635 -48.0862045288 52.8608512878
34.2446174622 -48.1768112183 52.6884803772
34.3166427612 -48.2744216919 52.5174369812
34.3835067749 -48.3648605347 52.3452949524
34.4349746704 -48.4338989258 52.1695823669
34.4648323059 -48.4728927612 51.9887504578
34.4721794128 -48.4805984497 51.8025131226
34.4607543945 -48.4622116089 51.6117134094
34.4349555969 -48.4238357544 51.4173660278
34.3950271606 -48.3658142090 51.2194862366
34.3382911682 -48.2844276428 51.0173683167
34.2665596008 -48.1821899414 50.8114128113
34.1895599365 -48.0726280212 50.6039886475
34.1184921265 -47.9713134766 50.3978729248
34.0580787659 -47.8848037720 50.1942672729
34.0069160461 -47.8111572266 49.9928512573
33.9636611938 -47.7485008240 49.7933197021
33.9300537109 -47.6992607117 49.5961341858
33.9086952209 -47.6670417786 49.4019813538
33.9007072449 -47.6534233093 49.2112007141
33.9063301086 -47.6587142944 49.0238800049
33.9258537292 -47.6833419800 48.8401489258
33.9589347839 -47.7268180847 48.6599502563
34.0037117004 -47.7865562439 48.4828529358
34.0578651428 -47.8593368530 48.3082809448
34.1195945740 -47.9426460266 48.1357955933
34.1852912903 -48.0314788818 47.9644699097
34.2459716797 -48.1133384705 47.7919425964
34.2880859375 -48.1693801880 47.6146125793
34.3007392883 -48.1844596863 47.4295120239
34.2840652466 -48.1587562561 47.2365951538
34.2519302368 -48.1115608215 47.0394859314
34.2262268066 -48.0733032227 46.8440284729
34.2242736816 -48.0680694580 46.6549263000
34.2453193665 -48.0948181152 46.4720458984
34.2666893005 -48.1220130920 46.2892875671
34.2572593689 -48.1063842773 46.0981445313
34.2006721497 -48.0251808167 45.8940277100
34.1081085205 -47.8939437866 45.6798706055
34.0088119507 -47.7533378601 45.4636497498
33.9286651611 -47.6393623352 45.2525291443
33.8768081665 -47.5647201538 45.0491065979
33.8480148315 -47.5221557617 44.8520164490
33.8325462341 -47.4981231689 44.6585922241
33.8234596252 -47.4829597473 44.4669227600
33.8194808960 -47.4749031067 44.2766647339
33.8249244690 -47.4799499512 44.0890617371
33.8460235596 -47.5067710876 43.9059181213
33.8844833374 -47.5577354431 43.7277679443
33.9343223572 -47.6245231628 43.5529479980
33.9865646362 -47.6946563721 43.3789138794
34.0360298157 -47.7609291077 43.2041702271
34.0809516907 -47.8208885193 43.0282058716
34.1167945862 -47.8682174683 42.8496780396
34.1352462769 -47.8913574219 42.6661338806
34.1319694519 -47.8842773438 42.4762496948
34.1124458313 -47.8546028137 42.2815704346
34.0872879028 -47.8170890808 42.0851707458
34.0633850098 -47.7813186646 41.8890838623
34.0407485962 -47.7473106384 41.6933097839
34.0148010254 -47.7086982727 41.4964904785
33.9791908264 -47.6566429138 41.2967147827
33.9287796021 -47.5839996338 41.0924072266
33.8641929626 -47.4916343689 40.8837089539
33.7944946289 -47.3921585083 40.6733207703
33.7331047058 -47.3042373657 40.4652976990
33.6894645691 -47.2410049438 40.2625427246
33.6646652222 -47.2039794922 40.0654373169
33.6544189453 -47.1871986389 39.8727340698
33.6547851563 -47.1851768494 39.6832580566
33.6658287048 -47.1980094910 39.4970703125
33.6920051575 -47.2318916321 39.3155784607
33.7387771606 -47.2944259644 39.1405296326
33.8062286377 -47.3857307434 38.9720153809
33.8848686218 -47.4925956726 38.8071250916
33.9596366882 -47.5940780640 38.6411743164
34.0191307068 -47.6743164063 38.4705543518
34.0603218079 -47.7290916443 38.2942695618
34.0856170654 -47.7617568970 38.1130180359
34.0984306335 -47.7770576477 37.9278373718
34.1013031006 -47.7785263062 37.7395019531
34.0951347351 -47.7674179077 37.5482635498
34.0782203674 -47.7413635254 37.3535537720
34.0467796326 -47.6950912476 37.1541137695
33.9982528687 -47.6250572205 36.9490814209
33.9350090027 -47.5345382690 36.7391586304
33.8639984131 -47.4332084656 36.5265655518
33.7920112610 -47.3305282593 36.3134994507
33.7214889526 -47.2298736572 36.1007499695
33.6509552002 -47.1292114258 35.8878364563
33.5791511536 -47.0267715454 35.6743469238
33.5098686218 -46.9278411865 35.4615325928
33.4544563293 -46.8482055664 35.2531585693
33.4279251099 -46.8087539673 35.0542602539
33.4394569397 -46.8222618103 34.8679924011
33.4853134155 -46.8835334778 34.6932258606
33.5505561829 -46.9717750549 34.5250473022
33.6166534424 -47.0612068176 34.3572845459
33.6682624817 -47.1304855347 34.1847496033
33.6969299316 -47.1678390503 34.0045433044
33.7029075623 -47.1736221313 33.8166694641
33.6941757202 -47.1589355469 33.6237831116
33.6813735962 -47.1385917664 33.4294776917
33.6716194153 -47.1224822998 33.2361755371
33.6661376953 -47.1123161316 33.0443153381
33.6624603271 -47.1046638489 32.8530502319
33.6576843262 -47.0954780579 32.6613883972
33.6499023438 -47.0821151733 32.4686622620
33.6378631592 -47.0628242493 32.2744216919
33.6199760437 -47.0353965759 32.0781059265
33.5938415527 -46.9964904785 31.8788528442
33.5572395325 -46.9430160522 31.6758556366
33.5102500916 -46.8750877380 31.4691123962
33.4560050964 -46.7970542908 31.2596931458
33.3980979919 -46.7139282227 31.0488510132
33.3380088806 -46.6277656555 30.8371028900
33.2775688171 -46.5411071777 30.6250915527
33.2240180969 -46.4640388489 30.4154071808
33.1885452271 -46.4121246338 30.2120819092
33.1770744324 -46.3936157227 30.0173015594
33.1845207214 -46.4014358521 29.8293075562
33.1998672485 -46.4202499390 29.6441745758
33.2148780823 -46.4385948181 29.4589405060
33.2269821167 -46.4528999329 29.2726707458
33.2366333008 -46.4637832642 29.0855159760
33.2443962097 -46.4720420837 28.8976802826
33.2502021790 -46.4775772095 28.7091312408
33.2537040710 -46.4799079895 28.5197353363
33.2546386719 -46.4786682129 28.3293876648
33.2528953552 -46.4736938477 28.1380386353
33.2483673096 -46.4648475647 27.9456405640
33.2409553528 -46.4519805908 27.7521495819
33.2305107117 -46.4348983765 27.5574970245
33.2166481018 -46.4130592346 27.3615360260
33.1983413696 -46.3850288391 27.1638641357
33.1737785339 -46.3482894897 26.9637870789
33.1415443420 -46.3008766174 26.7607536316
33.1030654907 -46.2447662354 26.5552787781
33.0640068054 -46.1878509521 26.3494930267
33.0323600769 -46.1412429810 26.1464309692
33.0145874023 -46.1139526367 25.9485855103
33.0135955811 -46.1100234985 25.7571105957
33.0290451050 -46.1289787292 25.5719299316
33.0576248169 -46.1662139893 25.3918190002
33.0931968689 -46.2131843567 25.2144527435
33.1290435791 -46.2605323792 25.0372543335
33.1616897583 -46.3034324646 24.8588790894
33.1925697327 -46.3438720703 24.6798744202
33.2254028320 -46.3870315552 24.5016822815
33.2616691589 -46.4349746704 24.3248901367
33.2982864380 -46.4834022522 24.1482982635
33.3296051025 -46.5244560242 23.9696903229
33.3515052795 -46.5523910522 23.7874221802
33.3633995056 -46.5664100647 23.6012382507
33.3670501709 -46.5689430237 23.4117984772
33.3644027710 -46.5627059937 23.2198543549
33.3565559387 -46.5492362976 23.0258235931
33.3435554504 -46.5285873413 22.8297080994
33.3238410950 -46.4985923767 22.6308631897
33.2933959961 -46.4536552429 22.4276618958
33.2461853027 -46.3853721619 22.2176361084
33.1776275635 -46.2873687744 21.9988899231
33.0899848938 -46.1627845764 21.7722682953
32.9947547913 -46.0276374817 21.5423736572
32.9082794189 -45.9046783447 21.3158302307
32.8431587219 -45.8114547729 21.0977973938
32.8027725220 -45.7526626587 20.8897266388
32.7826995850 -45.7221527100 20.6898784637
32.7759246826 -45.7101631165 20.4954395294
32.7767410278 -45.7087402344 20.3041019440
32.7815780640 -45.7129173279 20.1144123077
32.7883224487 -45.7197494507 19.9255123138
32.7956390381 -45.7273864746 19.7368526459
32.8027420044 -45.7347145081 19.5481052399
32.8092498779 -45.7412185669 19.3591136932
32.8150405884 -45.7467269897 19.1698246002
32.8199424744 -45.7509918213 18.9801616669
32.8234901428 -45.7533721924 18.7899303436
32.8249206543 -45.7528076172 18.5988006592
32.8234291077 -45.7481651306 18.4064292908
32.8184776306 -45.7387123108 18.2125778198
32.8098716736 -45.7241706848 18.0171546936
32.7973442078 -45.7041625977 17.8200321198
32.7797126770 -45.6770515442 17.6206970215
32.7543067932 -45.6391067505 17.4179878235
32.7177619934 -45.5856513977 17.2104434967
32.6686973572 -45.5147590637 16.9974288940
32.6104125977 -45.4310264587 16.7803325653
32.5510787964 -45.3458251953 16.5626487732
32.5005531311 -45.2728958130 16.3486404419
32.4659271240 -45.2221031189 16.1414108276
32.4488868713 -45.1958084106 15.9417428970
32.4470596313 -45.1906929016 15.7486572266
32.4581756592 -45.2036094666 15.5612106323
32.4833030701 -45.2360420227 15.3799133301
32.5252151489 -45.2918472290 15.2060222626
32.5821342468 -45.3685646057 15.0388126373
32.6433906555 -45.4513130188 14.8736219406
32.6938743591 -45.5190658569 14.7037858963
32.7245292664 -45.5592041016 14.5252561569
32.7371330261 -45.5741920471 14.3387594223
32.7380218506 -45.5728645325 14.1470613480
32.7289085388 -45.5576095581 13.9508895874
32.7052803040 -45.5221328735 13.7481927872
32.6628150940 -45.4604187012 13.5369901657
32.6035156250 -45.3752555847 13.3181190491
32.5351524353 -45.2774581909 13.0950279236
32.4661026001 -45.1787071228 12.8714723587
32.4017868042 -45.0865478516 12.6499032974
32.3455619812 -45.0056610107 12.4318580627
32.3017349243 -44.9420356750 12.2193193436
32.2762832642 -44.9040069580 12.0150508881
32.2737655640 -44.8979301453 11.8211946487
32.2935523987 -44.9229202271 11.6375322342
32.3292045593 -44.9700202942 11.4611806870
32.3714904785 -45.0263481140 11.2879400253
32.4120597839 -45.0802955627 11.1139869690
32.4455108643 -45.1243247986 10.9368181229
32.4699249268 -45.1557693481 10.7555236816
32.4868202209 -45.1767349243 10.5707778931
32.5004882813 -45.1932067871 10.3845539093
32.5163078308 -45.2126770020 10.1993503571
32.5373382568 -45.2394027710 10.0166015625
32.5604743958 -45.2690658569 9.8348731995
32.5770874023 -45.2896423340 9.6501188278
32.5812530518 -45.2928771973 9.4595327377
32.5787162781 -45.2867736816 9.2657833099
32.5852241516 -45.2932701111 9.0762891769
32.6142387390 -45.3311271667 8.8974561691
32.6673355103 -45.4025306702 8.7301006317
32.7365684509 -45.4964256287 8.5705213547
32.8140487671 -45.6018104553 8.4150056839
32.8981170654 -45.7163734436 8.2627878189
32.9914970398 -45.8439178467 8.1151943207
33.0943832397 -45.9847068787 7.9723453522
33.1999092102 -46.1291809082 7.8309712410
33.2973747253 -46.2624244690 7.6859216690
33.3802566528 -46.3753471375 7.5340199471
33.4506607056 -46.4708862305 7.3762402534
33.5161094666 -46.5595245361 7.2161931992
33.5827369690 -46.6498031616 7.0568442345
33.6510734558 -46.7424697876 6.8984575272
33.7163085938 -46.8308143616 6.7386865616
33.7711029053 -46.9046134949 6.5739340782
33.8088760376 -46.9546890259 6.4009361267
33.8263359070 -46.9764671326 6.2180256844
33.8248939514 -46.9719047546 6.0258312225
33.8101196289 -46.9487571716 5.8270411491
33.7886161804 -46.9162368774 5.6248826981
33.7637825012 -46.8790740967 5.4210152626
33.7339477539 -46.8349418640 5.2146010399
33.6951599121 -46.7783279419 5.0036554337
33.6468582153 -46.7084579468 4.7878723145
33.5955276489 -46.6343612671 4.5704617500
33.5518455505 -46.5709228516 4.3567605019
33.5231437683 -46.5283622742 4.1504759789
33.5089874268 -46.5060729980 3.9514355659
33.5039329529 -46.4964675903 3.7569396496
33.5032539368 -46.4929580688 3.5646319389
33.5063629150 -46.4947319031 3.3742280006
33.5171623230 -46.5072212219 3.1877181530
33.5419807434 -46.5392456055 3.0083436966
33.5852203369 -46.5969505310 2.8383913040
33.6449356079 -46.6776161194 2.6769247055
33.7120094299 -46.7685356140 2.5193345547
33.7741470337 -46.8525848389 2.3593454361
33.8219299316 -46.9166259766 2.1921038628
33.8525161743 -46.9566955566 2.0161032677
33.8685646057 -46.9765052795 1.8326588869
33.8741455078 -46.9817276001 1.6438307762
33.8713798523 -46.9753150940 1.4506808519
33.8596649170 -46.9564285278 1.2528710365
33.8372001648 -46.9225540161 1.0494368076
33.8033218384 -46.8727722168 0.8399997354
33.7599525452 -46.8097534180 0.6255249977
33.7110862732 -46.7390785217 0.4080745876
33.6613922119 -46.6672477722 0.1900748312
-24.0877723694 -20.2906398773 90.3092041016
-24.1052513123 -20.3040351868 90.1083984375
-24.1339473724 -20.3257522583 89.9080276489
-24.1694183350 -20.3524990082 89.7079391479
-24.2068939209 -20.3807315826 89.5079727173
-24.2429847717 -20.4079380035 89.3079986572
-24.2762336731 -20.4330329895 89.1079635620
-24.3068046570 -20.4561424255 88.9078674316
-24.3356952667 -20.4780044556 88.7077407837
-24.3626441956 -20.4984264374 88.5075759888
-24.3836975098 -20.5144748688 88.3071899414
-24.3915519714 -20.5207290649 88.1062622070
-24.3795776367 -20.5122699738 87.9044647217
-24.3463268280 -20.4880237579 87.7016906738
-24.2970294952 -20.4518737793 87.4981307983
-24.2413234711 -20.4109668732 87.2941894531
-24.1885890961 -20.3722667694 87.0902938843
-24.1442375183 -20.3397846222 86.8867034912
-24.1105556488 -20.3152198792 86.6835632324
-24.0910148621 -20.3011493683 86.4810562134
-24.0921840668 -20.3024425507 86.2795486450
-24.1203460693 -20.3237648010 86.0794067383
-24.1770648956 -20.3662757874 85.8807754517
-24.2585792542 -20.4271831512 85.6835250854
-24.3586711884 -20.5018730164 85.4873733521
-24.4719810486 -20.5863685608 85.2920913696
-24.5952663422 -20.6782665253 85.0975189209
-24.7258033752 -20.7755451202 84.9035339355
-24.8590106964 -20.8748054504 84.7098922729
-24.9879589081 -20.9709033966 84.5162048340
-25.1047706604 -21.0579967499 84.3220062256
-25.2026405334 -21.1310367584 84.1268768311
-25.2779026031 -21.1873016357 83.9305419922
-25.3312244415 -21.2272872925 83.7330017090
-25.3664722443 -21.2538661957 83.5344314575
-25.3877029419 -21.2700424194 83.3350448608
-25.3967208862 -21.2771587372 83.1349182129
-25.3927021027 -21.2746009827 82.9339752197
-25.3735160828 -21.2607917786 82.7320480347
-25.3385009766 -21.2352371216 82.5290527344
-25.2920532227 -21.2012004852 82.3252487183
-25.2455959320 -21.1671581268 82.1213607788
-25.2146625519 -21.1446323395 81.9184417725
-25.2119255066 -21.1430282593 81.7173767090
-25.2414245605 -21.1653385162 81.5185165405
-25.2989788055 -21.2084655762 81.3216400146
-25.3784580231 -21.2678565979 81.1263809204
-25.4772281647 -21.3415622711 80.9326095581
-25.5940570831 -21.4286651611 80.7402877808
-25.7221298218 -21.5241088867 80.5489425659
-25.8477001190 -21.6176948547 80.3576126099
-25.9583759308 -21.7002315521 80.1653671265
-26.0522499084 -21.7703018188 79.9720230103
-26.1372890472 -21.8338165283 79.7781448364
-26.2216796875 -21.8968505859 79.5843505859
-26.3055496216 -21.9594993591 79.3906326294
-26.3819599152 -22.0166110992 79.1964569092
-26.4437580109 -22.0628833771 79.0012435913
-26.4870681763 -22.0954380035 78.8046417236
-26.5094299316 -22.1124515533 78.6064224243
-26.5088024139 -22.1124095917 78.4063568115
-26.4861145020 -22.0960006714 78.2044830322
-26.4465770721 -22.0670909882 78.0011749268
-26.3960781097 -22.0300502777 77.7968826294
-26.3366680145 -21.9863986969 77.5917510986
-26.2677421570 -21.9356861115 77.3857116699
-26.1924571991 -21.8802566528 77.1790084839
-26.1219062805 -21.8283424377 76.9725952148
-26.0721817017 -21.7918758392 76.7678833008
-26.0571517944 -21.7811489105 76.5661392212
-26.0825901031 -21.8004455566 76.3679656982
-26.1443386078 -21.8466796875 76.1730728149
-26.2307929993 -21.9112434387 75.9804992676
-26.3289604187 -21.9844951630 75.7891235352
-26.4313926697 -22.0609111786 75.5982818604
-26.5388221741 -22.1410331726 75.4080581665
-26.6548213959 -22.2275142670 75.2187957764
-26.7769298553 -22.3185253143 75.0302734375
-26.8942356110 -22.4059753418 74.8414840698
-26.9948482513 -22.4810390472 74.6512680054
-27.0745334625 -22.5405769348 74.4591751099
-27.1370830536 -22.5874042511 74.2655334473
-27.1876354218 -22.6253299713 74.0708007813
-27.2275867462 -22.6553916931 73.8750915527
-27.2552547455 -22.6763381958 73.6782073975
-27.2689571381 -22.6869258881 73.4799575806
-27.2684993744 -22.6870098114 73.2802886963
-27.2556991577 -22.6779365540 73.0793533325
-27.2355594635 -22.6634197235 72.8776321411
-27.2167453766 -22.6498851776 72.6760025024
-27.2094802856 -22.6449165344 72.4755477905
-27.2217864990 -22.6544685364 72.2771377563
-27.2567615509 -22.6808376312 72.0811309814
-27.3130798340 -22.7230396271 71.8874511719
-27.3889884949 -22.7797756195 71.6959609985
-27.4857921600 -22.8520107269 71.5068359375
-27.6054992676 -22.9412364960 71.3203582764
-27.7442417145 -23.0445823669 71.1361465454
-27.8894844055 -23.1527519226 70.9528579712
-28.0248584747 -23.2535972595 70.7686920166
-28.1375198364 -23.3375949860 70.5821838379
-28.2221488953 -23.4007968903 70.3926696777
-28.2806034088 -23.4445819855 70.2003097534
-28.3188896179 -23.4734039307 70.0057220459
-28.3434238434 -23.4920253754 69.8096008301
-28.3586883545 -23.5037708282 69.6124267578
-28.3671913147 -23.5104980469 69.4144897461
-28.3706607819 -23.5134925842 69.2159576416
-28.3710079193 -23.5141735077 69.0170593262
-28.3706607819 -23.5143356323 68.8180694580
-28.3727550507 -23.5163116455 68.6193618774
-28.3817844391 -23.5234298706 68.4214935303
-28.4043254852 -23.5405731201 68.2252655029
-28.4483585358 -23.5736579895 68.0316925049
-28.5200748444 -23.6272792816 67.8415908813
-28.6198863983 -23.7017402649 67.6550674438
-28.7409820557 -23.7919921875 67.4713439941
-28.8713550568 -23.8891220093 67.2889633179
-28.9972114563 -23.9829044342 67.1062088013
-29.1066436768 -24.0645027161 66.9215621948
-29.1936225891 -24.1294422150 66.7342071533
-29.2608280182 -24.1797161102 66.5444335938
-29.3183116913 -24.2227764130 66.3535079956
-29.3772125244 -24.2668895721 66.1628417969
-29.4420356750 -24.3153934479 65.9730377197
-29.5075283051 -24.3643951416 65.7834167480
-29.5634860992 -24.4063243866 65.5926284790
-29.6033363342 -24.4363040924 65.3997726440
-29.6283817291 -24.4553012848 65.2049865723
-29.6453762054 -24.4683265686 65.0091476440
-29.6619091034 -24.4810104370 64.8132629395
-29.6835803986 -24.4975051880 64.6180953979
-29.7130527496 -24.5197868347 64.4240264893
-29.7503547668 -24.5478763580 64.2310791016
-29.7947368622 -24.5812168121 64.0391540527
-29.8475914001 -24.6208419800 63.8484764099
-29.9142684937 -24.6707210541 63.6598091125
-30.0023612976 -24.7364845276 63.4742546082
-30.1162948608 -24.8214168549 63.2924919128
-30.2520561218 -24.9225368500 63.1140098572
-30.3973178864 -25.0307064056 62.9370918274
-30.5376644135 -25.1352291107 62.7596855164
-30.6632957458 -25.2288360596 62.5803565979
-30.7709350586 -25.3090972900 62.3985977173
-30.8607635498 -25.3761444092 62.2143898010
-30.9328212738 -25.4300136566 62.0277023315
-30.9873466492 -25.4708747864 61.8385200500
-31.0280723572 -25.5015010834 61.6473693848
-31.0623779297 -25.5273647308 61.4553108215
-31.0961494446 -25.5528316498 61.2632141113
-31.1295394897 -25.5780162811 61.0711097717
-31.1588134766 -25.6001472473 60.8784217834
-31.1812534332 -25.6172103882 60.6847305298
-31.1976337433 -25.6297760010 60.4901351929
-31.2116489410 -25.6405906677 60.2951965332
-31.2290573120 -25.6539192200 60.1007957458
-31.2577095032 -25.6755905151 59.9081649780
-31.3076686859 -25.7130622864 59.7189025879
-31.3902549744 -25.7747364044 59.5348472595
-31.5158348083 -25.8683013916 59.3577041626
-31.6894741058 -25.9975128174 59.1883850098
-31.9045810699 -26.1574802399 59.0259475708
-32.1398315430 -26.3323898315 58.8670654297
-32.3661117554 -26.5006427765 58.7070999146
-32.5604171753 -26.6451797485 58.5422973633
-32.7151069641 -26.7603321075 58.3713455200
-32.8367156982 -26.8509483337 58.1952171326
-32.9382858276 -26.9267005920 58.0159797668
-33.0310363770 -26.9959087372 57.8354339600
-33.1196250916 -27.0620307922 57.6543388367
-33.2035102844 -27.1246643066 57.4725875854
-33.2814064026 -27.1828575134 57.2899551392
-33.3529472351 -27.2363319397 57.1063690186
-33.4170074463 -27.2842617035 56.9216270447
-33.4717292786 -27.3252620697 56.7353858948
-33.5176696777 -27.3597507477 56.5477256775
-33.5600166321 -27.3915729523 56.3595161438
-33.6065216064 -27.4264793396 56.1720809937
-33.6631278992 -27.4688796997 55.9864540100
-33.7315711975 -27.5200576782 55.8029632568
-33.8107872009 -27.5792255402 55.6214523315
-33.8997001648 -27.6455860138 55.4417533875
-33.9983253479 -27.7191467285 55.2638969421
-34.1073799133 -27.8004474640 55.0880317688
-34.2277603149 -27.8901443481 54.9143371582
-34.3599395752 -27.9885940552 54.7429275513
-34.5034217834 -28.0954265594 54.5737380981
-34.6558456421 -28.2088890076 54.4063758850
-34.8109703064 -28.3243560791 54.2397308350
-34.9575691223 -28.4334983826 54.0717735291
-35.0829887390 -28.5269298553 53.9001770020
-35.1805458069 -28.5996971130 53.7236709595
-35.2537193298 -28.6543807983 53.5428276062
-35.3120765686 -28.6980762482 53.3593559265
-35.3619003296 -28.7354393005 53.1743850708
-35.4002265930 -28.7642765045 52.9873466492
-35.4190940857 -28.7786808014 52.7967224121
-35.4181327820 -28.7783794403 52.6023979187
-35.4134635925 -28.7753276825 52.4073638916
-35.4308204651 -28.7886104584 52.2164840698
-35.4863395691 -28.8302001953 52.0328750610
-35.5744361877 -28.8959465027 51.8555641174
-35.6759109497 -28.9716186523 51.6809425354
-35.7764396667 -29.0465888977 51.5062904358
-35.8753471375 -29.1203536987 51.3314743042
-35.9794883728 -29.1980018616 51.1578216553
-36.0937805176 -29.2831783295 50.9862976074
-36.2182388306 -29.3758926392 50.8169326782
-36.3492050171 -29.4734344482 50.6490325928
-36.4794082642 -29.5704078674 50.4811782837
-36.5984230042 -29.6590843201 50.3113059998
-36.6973762512 -29.7328853607 50.1376304626
-36.7744178772 -29.7904300690 49.9597282410
-36.8347358704 -29.8355751038 49.7785949707
-36.8855171204 -29.8736438751 49.5956268311
-36.9316329956 -29.9082546234 49.4117927551
-36.9749565125 -29.9407958984 49.2274589539
-37.0144844055 -29.9705181122 49.0424079895
-37.0455970764 -29.9940013885 48.8556976318
-37.0618858337 -30.0064907074 48.6659927368
-37.0609741211 -30.0062236786 48.4727668762
-37.0481224060 -29.9971027374 48.2770690918
-37.0326805115 -29.9860572815 48.0808029175
-37.0226478577 -29.9790248871 47.8856315613
-37.0245704651 -29.9808597565 47.6929359436
-37.0464172363 -29.9974727631 47.5044059753
-37.0965805054 -30.0350837708 47.3218612671
-37.1785659790 -30.0962944031 47.1461029053
-37.2882919312 -30.1780757904 46.9763450623
-37.4177665710 -30.2745056152 46.8109474182
-37.5602684021 -30.3805961609 46.6485290527
-37.7107315063 -30.4925899506 46.4880294800
-37.8625717163 -30.6056041718 46.3280525208
-38.0069999695 -30.7131214142 46.1667060852
-38.1365928650 -30.8096370697 46.0023651123
-38.2484016418 -30.8929615021 45.8343544006
-38.3430671692 -30.9635753632 45.6627693176
-38.4225425720 -31.0229206085 45.4879989624
-38.4892578125 -31.0728034973 45.3105430603
-38.5454406738 -31.1148757935 45.1308631897
-38.5915641785 -31.1494865417 44.9490356445
-38.6258087158 -31.1752891541 44.7646369934
-38.6458740234 -31.1905784607 44.5771255493
-38.6514587402 -31.1951236725 44.3863945007
-38.6456756592 -31.1912422180 44.1931190491
-38.6344795227 -31.1833477020 43.9986076355
-38.6236381531 -31.1757106781 43.8041496277
-38.6152191162 -31.1698741913 43.6102142334
-38.6079139709 -31.1648635864 43.4165153503
-38.6019058228 -31.1608161926 43.2230911255
-38.6027450562 -31.1618442535 43.0312194824
-38.6189880371 -31.1742973328 42.8428840637
-38.6564445496 -31.2024784088 42.6594581604
-38.7156791687 -31.2468147278 42.4811210632
-38.7947311401 -31.3058433533 42.3074722290
-38.8924407959 -31.3787117004 42.1382865906
-39.0083427429 -31.4650669098 41.9734954834
-39.1403045654 -31.5633316040 41.8126487732
-39.2831115723 -31.6696395874 41.6545524597
-39.4281234741 -31.7775783539 41.4971923828
-39.5633697510 -31.8782787323 41.3377342224
-39.6756210327 -31.9619274139 41.1730194092
-39.7554550171 -32.0215339661 41.0007400513
-39.8022346497 -32.0566291809 40.8206710815
-39.8245201111 -32.0735588074 40.6347885132
-39.8351325989 -32.0818367004 40.4461250305
-39.8444786072 -32.0891685486 40.2571601868
-39.8568344116 -32.0987396240 40.0689353943
-39.8716468811 -32.1101264954 39.8813171387
-39.8868103027 -32.1217765808 39.6938018799
-39.9001884460 -32.1320991516 39.5058631897
-39.9092369080 -32.1392173767 39.3168754578
-39.9115562439 -32.1413421631 39.1262397766
-39.9066047668 -32.1380729675 38.9337997437
-39.8965759277 -32.1310424805 38.7400894165
-39.8854026794 -32.1231613159 38.5460700989
-39.8772087097 -32.1174888611 38.3527717590
-39.8754005432 -32.1165542603 38.1610450745
-39.8824920654 -32.1222152710 37.9715461731
-39.9003448486 -32.1358604431 37.7847557068
-39.9308090210 -32.1588554382 37.6011734009
-39.9763679504 -32.1930427551 37.4214553833
-40.0397109985 -32.2404174805 37.2463188171
-40.1214714050 -32.3014526367 37.0759696960
-40.2178955078 -32.3733596802 36.9094886780
-40.3212966919 -32.4504394531 36.7449417114
-40.4236526489 -32.5267410278 36.5802803040
-40.5199661255 -32.5985641479 36.4142112732
-40.6082572937 -32.6644363403 36.2462081909
-40.6872100830 -32.7233886719 36.0759162903
-40.7555084229 -32.7744369507 35.9029617310
-40.8137741089 -32.8180465698 35.7274894714
-40.8651351929 -32.8565330505 35.5502891541
-40.9119834900 -32.8916740417 35.3719787598
-40.9524078369 -32.9220542908 35.1920394897
-40.9805564880 -32.9433288574 35.0089149475
-40.9903678894 -32.9510078430 34.8209648132
-40.9789772034 -32.9429626465 34.6273841858
-40.9479866028 -32.9203872681 34.4285507202
-40.9027137756 -32.8872222900 34.2258453369
-40.8493881226 -32.8480873108 34.0209007263
-40.7925796509 -32.8063659668 33.8149299622
-40.7359580994 -32.7647819519 33.6089096069
-40.6852073669 -32.7275543213 33.4043807983
-40.6483535767 -32.7006340027 33.2035408020
-40.6328010559 -32.6895065308 33.0084266663
-40.6427574158 -32.6972923279 32.8202438354
-40.6785812378 -32.7242584229 32.6391487122
-40.7363624573 -32.7675056458 32.4641304016
-40.8084259033 -32.8213462830 32.2931251526
-40.8867950439 -32.8798599243 32.1239662170
-40.9675216675 -32.9401206970 31.9555740356
-41.0508575439 -33.0023155212 31.7880249023
-41.1367874146 -33.0664367676 31.6213226318
-41.2212333679 -33.1294517517 31.4543323517
-41.2968788147 -33.1859474182 31.2850036621
-41.3573188782 -33.2311630249 31.1115150452
-41.4003639221 -33.2634849548 30.9332199097
-41.4280662537 -33.2844276428 30.7506523132
-41.4441757202 -33.2967720032 30.5648365021
-41.4515991211 -33.3026847839 30.3765754700
-41.4513397217 -33.3028907776 30.1861286163
-41.4422988892 -33.2965927124 29.9931697845
-41.4216079712 -33.2816543579 29.7968540192
-41.3857650757 -33.2554817200 29.5961494446
-41.3332138062 -33.2169189453 29.3905715942
-41.2671699524 -33.1683540344 29.1810112000
-41.1965370178 -33.1163864136 28.9700107574
-41.1336860657 -33.0701866150 28.7611503601
-41.0899238586 -33.0381431580 28.5577373505
-41.0707511902 -33.0243339539 28.3614215851
-41.0735588074 -33.0268211365 28.1714973450
-41.0902252197 -33.0395774841 27.9856338501
-41.1135978699 -33.0573120117 27.8017616272
-41.1421279907 -33.0788688660 27.6194400787
-41.1782836914 -33.1060829163 27.4394092560
-41.2240066528 -33.1403846741 27.2622642517
-41.2785453796 -33.1812286377 27.0878009796
-41.3384246826 -33.2260246277 26.9150085449
-41.3975906372 -33.2702980042 26.7420902252
-41.4491195679 -33.3089065552 26.5669689178
-41.4886779785 -33.3386421204 26.3883266449
-41.5164947510 -33.3596649170 26.2062015533
-41.5357284546 -33.3743324280 26.0215225220
-41.5492095947 -33.3847312927 25.8351230621
-41.5573577881 -33.3911743164 25.6471214294
-41.5586090088 -33.3925056458 25.4570236206
-41.5513763428 -33.3875465393 25.2643337250
-41.5349044800 -33.3757362366 25.0687980652
-41.5079994202 -33.3561897278 24.8700313568
-41.4679641724 -33.3269119263 24.6671772003
-41.4126777649 -33.2863273621 24.4595546722
-41.3446388245 -33.2362861633 24.2478942871
-41.2732276917 -33.1837463379 24.0350780487
-41.2126922607 -33.1392669678 23.8255176544
-41.1760559082 -33.1125068665 23.6232948303
-41.1682281494 -33.1071090698 23.4300003052
-41.1837005615 -33.1189842224 23.2439746857
-41.2115554810 -33.1400375366 23.0618515015
-41.2434577942 -33.1640968323 22.8810367584
-41.2777252197 -33.1899032593 22.7010097504
-41.3176116943 -33.2198829651 22.5228061676
-41.3670234680 -33.2569160461 22.3476734161
-41.4269180298 -33.3017272949 22.1759414673
-41.4943008423 -33.3520889282 22.0066795349
-41.5641021729 -33.4042434692 21.8382892609
-41.6316261292 -33.4547080994 21.6692714691
-41.6929016113 -33.5005416870 21.4983482361
-41.7439346313 -33.5387802124 21.3242206573
-41.7812957764 -33.5668830872 21.1457576752
-41.8033256531 -33.5836143494 20.9623928070
-41.8098831177 -33.5888824463 20.7740440369
-41.8012542725 -33.5828895569 20.5807666779
-41.7784957886 -33.5664176941 20.3828678131
-41.7449455261 -33.5419502258 20.1814079285
-41.7061195374 -33.5135688782 19.9781608582
-41.6665420532 -33.4846267700 19.7745971680
-41.6263008118 -33.4552001953 19.5707473755
-41.5811920166 -33.4221611023 19.3652229309
-41.5269508362 -33.3823509216 19.1566066742
-41.4641571045 -33.3362045288 18.9450645447
-41.3998184204 -33.2889060974 18.7329044342
-41.3446998596 -33.2484474182 18.5237026215
-41.3090515137 -33.2224235535 18.3208942413
-41.2998161316 -33.2159805298 18.1268482208
-41.3201332092 -33.2314491272 17.9426784515
-41.3692474365 -33.2682647705 17.7681980133
-41.4417343140 -33.3224067688 17.6016521454
-41.5279846191 -33.3867530823 17.4398536682
-41.6174011230 -33.4534454346 17.2792549133
-41.7021560669 -33.5166854858 17.1172103882
-41.7781600952 -33.5734329224 16.9523162842
-41.8433685303 -33.6221771240 16.7838611603
-41.8967132568 -33.6621284485 16.6114540100
-41.9389381409 -33.6938323975 16.4353199005
-41.9730415344 -33.7195205688 16.2564601898
-42.0028457642 -33.7420196533 16.0761699677
-42.0307731628 -33.7631263733 15.8952741623
-42.0564155579 -33.7825393677 15.7136240005
-42.0763092041 -33.7976875305 15.5300188065
-42.0851478577 -33.8046455383 15.3426055908
-42.0781860352 -33.7998886108 15.1497077942
-42.0539779663 -33.7823448181 14.9507846832
-42.0159263611 -33.7545394897 14.7469835281
-41.9711647034 -33.7217597961 14.5407686234
-41.9270477295 -33.6894607544 14.3347024918
-41.8883476257 -33.6611747742 14.1304616928
-41.8577003479 -33.6388587952 13.9289884567
-41.8378639221 -33.6245574951 13.7312755585
-41.8326148987 -33.6210708618 13.5386848450
-41.8456268311 -33.6311187744 13.3525533676
-41.8787994385 -33.6561126709 13.1735973358
-41.9310607910 -33.6952590942 13.0014839172
-41.9983367920 -33.7455329895 12.8348045349
-42.0750999451 -33.8028450012 12.6716184616
-42.1563529968 -33.8634834290 12.5101547241
-42.2382812500 -33.9246215820 12.3490533829
-42.3176879883 -33.9838867188 12.1871643066
-42.3911361694 -34.0387382507 12.0232439041
-42.4545326233 -34.0861358643 11.8557968140
-42.5041542053 -34.1233253479 11.6834487915
-42.5388107300 -34.1494178772 11.5057363510
-42.5606727600 -34.1660270691 11.3234128952
-42.5735130310 -34.1759490967 11.1378259659
-42.5802879333 -34.1813735962 10.9500331879
-42.5818443298 -34.1829299927 10.7603321075
-42.5767211914 -34.1795349121 10.5681753159
-42.5615425110 -34.1686859131 10.3723011017
-42.5324897766 -34.1475524902 10.1712808609
-42.4879035950 -34.1149063110 9.9644670486
-42.4301338196 -34.0724830627 9.7526931763
-42.3652496338 -34.0247917175 9.5381813049
-42.3018722534 -33.9782142639 9.3241195679
-42.2506675720 -33.9406585693 9.1144866943
-42.2228507996 -33.9204406738 8.9134998322
-42.2259140015 -33.9231185913 8.7240190506
-42.2591323853 -33.9481430054 8.5458431244
-42.3133850098 -33.9887657166 8.3756170273
-42.3767242432 -34.0361213684 8.2088918686
-42.4413337708 -34.0844154358 8.0427360535
-42.5057411194 -34.1325607300 7.8766002655
-42.5710678101 -34.1813888550 7.7109050751
-42.6365699768 -34.2303466797 7.5453734398
-42.6997108459 -34.2775535583 7.3790369034
-42.7588920593 -34.3218231201 7.2112836838
-42.8138160706 -34.3629379272 7.0419893265
-42.8631477356 -34.3999137878 6.8706336021
-42.9037094116 -34.4303817749 6.6959815025
-42.9322700500 -34.4519538879 6.5167732239
-42.9469223022 -34.4632186890 6.3322424889
-42.9465026855 -34.4633102417 6.1419091225
-42.9304847717 -34.4518394470 5.9455342293
-42.9007911682 -34.4302291870 5.7438235283
-42.8631744385 -34.4027481079 5.5389819145
-42.8254470825 -34.3751869202 5.3340306282
-42.7936973572 -34.3520584106 5.1313447952
-42.7704429626 -34.3352203369 4.9319195747
-42.7560615540 -34.3249664307 4.7359251976
-42.7514457703 -34.3219490051 4.5437321663
-42.7595062256 -34.3283233643 4.3565068245
-42.7848663330 -34.3475265503 4.1761031151
-42.8319740295 -34.3828468323 4.0043144226
-42.9021034241 -34.4352302551 3.8416986465
-42.9911041260 -34.5016059875 3.6866648197
-43.0900077820 -34.5753173828 3.5356957912
-43.1887512207 -34.6489105225 3.3848123550
-43.2803916931 -34.7172393799 3.2312433720
-43.3623542786 -34.7783966064 3.0739476681
-43.4342727661 -34.8321037292 2.9127523899
-43.4955177307 -34.8779029846 2.7473826408
-43.5455474854 -34.9153862000 2.5775947571
-43.5857772827 -34.9456100464 2.4039340019
-43.6196174622 -34.9710922241 2.2277507782
-43.6499519348 -34.9939765930 2.0501964092
-43.6767120361 -35.0142173767 1.8712364435
-43.6968879700 -35.0295715332 1.6896369457
-43.7061996460 -35.0368766785 1.5036464930
-43.7006301880 -35.0331497192 1.3116018772
-43.6774635315 -35.0163803101 1.1123580933
-43.6369094849 -34.9867210388 0.9059592485
-43.5837287903 -34.9477081299 0.6943168044
-43.5268173218 -34.9059295654 0.4810520113
-43.4763031006 -34.8688888550 0.2703200579
-43.4402427673 -34.8425636292 0.0654571727
5.9287176132 -54.2989158630 94.5356597900
5.9378776550 -54.3615264893 94.3473815918
5.9537167549 -54.4786262512 94.1594543457
5.9738817215 -54.6310157776 93.9718704224
5.9959259033 -54.7987480164 93.7845687866
6.0176215172 -54.9636459351 93.5974273682
6.0371809006 -55.1111297607 93.4103469849
6.0537877083 -55.2345390320 93.2232360840
6.0678915977 -55.3375358582 93.0360794067
6.0805835724 -55.4290237427 92.8489303589
6.0924973488 -55.5141639709 92.6618194580
6.1033844948 -55.5909347534 92.4747085571
6.1127018929 -55.6549072266 92.2875366211
6.1206660271 -55.7078361511 92.1003036499
6.1289143562 -55.7630882263 91.9131469727
6.1397428513 -55.8394012451 91.7263336182
6.1537966728 -55.9420394897 91.5399627686
6.1681981087 -56.0475273132 91.3537445068
6.1775026321 -56.1114196777 91.1670227051
6.1770977974 -56.0960731506 90.9791412354
6.1661076546 -55.9943237305 90.7898254395
6.1474785805 -55.8302154541 90.5993423462
6.1256623268 -55.6400756836 90.4081954956
6.1042828560 -55.4534873962 90.2168807983
6.0854463577 -55.2876434326 90.0257110596
6.0700421333 -55.1498069763 89.8348770142
6.0580468178 -55.0397872925 89.6444091797
6.0495309830 -54.9581680298 89.4543914795
6.0464501381 -54.9209175110 89.2651824951
6.0526375771 -54.9593353271 89.0775680542
6.0702185631 -55.0907897949 88.8920440674
6.0958914757 -55.2883262634 88.7081756592
6.1222810745 -55.4917297363 88.5246810913
6.1434845924 -55.6528015137 88.3404006958
6.1586670876 -55.7647132874 88.1550979614
6.1707329750 -55.8511810303 87.9692764282
6.1828389168 -55.9379768372 87.7835693359
6.1962208748 -56.0352058411 87.5982208252
6.2100973129 -56.1364784241 87.4131011963
6.2226705551 -56.2271156311 87.2277908325
6.2322182655 -56.2930450439 87.0418930054
6.2377433777 -56.3261184692 86.8551101685
6.2391428947 -56.3254928589 86.6673736572
6.2372002602 -56.2975578308 86.4788055420
6.2334570885 -56.2549171448 86.2897491455
6.2297468185 -56.2125396729 86.1006317139
6.2274012566 -56.1813087463 85.9118194580
6.2266244888 -56.1628913879 85.7233734131
6.2264137268 -56.1490936279 85.5350418091
6.2250752449 -56.1260871887 85.3463821411
6.2209348679 -56.0801734924 85.1568984985
6.2127876282 -56.0015182495 84.9662170410
6.2004046440 -55.8882408142 84.7741928101
6.1857542992 -55.7564239502 84.5813674927
6.1738338470 -55.6469039917 84.3891830444
6.1706843376 -55.6090660095 84.1995315552
6.1790075302 -55.6649932861 84.0133743286
6.1957850456 -55.7900238037 83.8299331665
6.2149639130 -55.9347000122 83.6473922729
6.2324466705 -56.0655174255 83.4644775391
6.2481274605 -56.1816177368 83.2811126709
6.2638216019 -56.2978363037 83.0978927612
6.2804203033 -56.4214515686 82.9151000977
6.2970113754 -56.5450172424 82.7324523926
6.3116321564 -56.6524848938 82.5492553711
6.3224020004 -56.7284736633 82.3648223877
6.3285422325 -56.7666091919 82.1788024902
6.3309011459 -56.7738304138 81.9914474487
6.3314914703 -56.7665863037 81.8034439087
6.3323287964 -56.7613677979 81.6155166626
6.3346095085 -56.7679443359 81.4281158447
6.3387651443 -56.7898559570 81.2414321899
6.3449449539 -56.8283271790 81.0555572510
6.3529729843 -56.8819198608 80.8704452515
6.3614411354 -56.9391098022 80.6855621338
6.3670802116 -56.9731597900 80.4996032715
6.3659820557 -56.9521102905 80.3109207153
6.3562750816 -56.8606338501 80.1186523438
6.3397989273 -56.7137756348 79.9234313965
6.3210701942 -56.5484771729 79.7270736694
6.3044714928 -56.4005928040 79.5314178467
6.2923312187 -56.2891731262 79.3375015259
6.2854166031 -56.2204971313 79.1457290649
6.2844190598 -56.2002258301 78.9564895630
6.2899918556 -56.2337188721 78.7701568604
6.3014006615 -56.3149642944 78.5864944458
6.3161458969 -56.4235191345 78.4044570923
6.3315453529 -56.5374374390 78.2228393555
6.3464131355 -56.6470108032 78.0410995483
6.3609347343 -56.7537612915 77.8593215942
6.3752579689 -56.8588905334 77.6775741577
6.3885359764 -56.9554748535 77.4954376221
6.3992266655 -57.0308914185 77.3121490479
6.4061245918 -57.0752677917 77.1270751953
6.4091777802 -57.0881729126 76.9401321411
6.4094338417 -57.0781860352 76.7517929077
6.4082069397 -57.0560569763 76.5626831055
6.4061551094 -57.0271720886 76.3731079102
6.4029002190 -56.9884338379 76.1828689575
6.3975520134 -56.9325561523 75.9914855957
6.3900842667 -56.8593177795 75.7989044189
6.3825125694 -56.7852210999 75.6061706543
6.3785343170 -56.7405471802 75.4152679443
6.3815560341 -56.7531814575 75.2280960083
6.3923797607 -56.8297042847 75.0452041626
6.4081463814 -56.9467124939 74.8651199341
6.4235243797 -57.0605468750 74.6849517822
6.4336037636 -57.1309967041 74.5019378662
6.4364943504 -57.1425743103 74.3149185181
6.4339456558 -57.1096038818 74.1248016357
6.4298748970 -57.0641632080 73.9337539673
6.4279274940 -57.0361061096 73.7438812256
6.4298720360 -57.0399322510 73.5562438965
6.4359054565 -57.0772514343 73.3710250854
6.4457993507 -57.1461944580 73.1881484985
6.4591035843 -57.2430839539 73.0074005127
6.4744691849 -57.3568649292 72.8280029297
6.4897212982 -57.4697265625 72.6486740112
6.5032558441 -57.5685234070 72.4684066772
6.5152397156 -57.6546249390 72.2872924805
6.5268316269 -57.7375183105 72.1060256958
6.5379543304 -57.8165702820 71.9245605469
6.5463209152 -57.8730468750 71.7414169312
6.5493607521 -57.8858718872 71.5549240112
6.5468773842 -57.8534393311 71.3648681641
6.5409307480 -57.7926177979 71.1725006104
6.5331778526 -57.7169876099 70.9788665771
6.5233840942 -57.6246223450 70.7837829590
6.5109763145 -57.5108261108 70.5868377686
6.4972219467 -57.3859825134 70.3888397217
6.4849681854 -57.2734298706 70.1916961670
6.4763731956 -57.1908569336 69.9969024658
6.4714589119 -57.1384544373 69.8045272827
6.4687495232 -57.1041183472 69.6135940552
6.4668574333 -57.0764846802 69.4231872559
6.4656062126 -57.0541000366 69.2331848145
6.4661812782 -57.0466804504 69.0444412231
6.4704174995 -57.0692863464 68.8582763672
6.4795775414 -57.1322631836 68.6756591797
6.4931855202 -57.2317199707 68.4963226318
6.5087814331 -57.3474845886 68.3185348511
6.5231556892 -57.4532394409 68.1399917603
6.5342359543 -57.5319862366 67.9591369629
6.5418734550 -57.5825080872 67.7758255005
6.5470972061 -57.6132316589 67.5907592773
6.5510044098 -57.6331634521 67.4047317505
6.5543541908 -57.6485214233 67.2182998657
6.5577216148 -57.6640243530 67.0318984985
6.5615649223 -57.6834335327 66.8458633423
6.5659303665 -57.7071228027 66.6602478027
6.5701732635 -57.7298126221 66.4745559692
6.5731444359 -57.7420730591 66.2878875732
6.5736217499 -57.7338676453 66.0992660522
6.5703473091 -57.6948814392 65.9076614380
6.5618281364 -57.6128616333 65.7118225098
6.5468587875 -57.4779129028 65.5107040405
6.5260229111 -57.2948150635 65.3046875000
6.5029940605 -57.0937080383 65.0966567993
6.4841651917 -56.9270477295 64.8917999268
6.4761672020 -56.8492546082 64.6956253052
6.4822702408 -56.8871765137 64.5109939575
6.5002365112 -57.0224647522 64.3362655640
6.5240736008 -57.2059440613 64.1666030884
6.5484461784 -57.3938331604 63.9976043701
6.5713438988 -57.5696334839 63.8275756836
6.5930061340 -57.7353019714 63.6567039490
6.6136174202 -57.8923568726 63.4851226807
6.6326007843 -58.0360603333 63.3123245239
6.6493406296 -58.1613578796 63.1377487183
6.6637158394 -58.2672500610 62.9612541199
6.6757559776 -58.3539810181 62.7828369141
6.6849374771 -58.4172477722 62.6019973755
6.6900348663 -58.4469871521 62.4176063538
6.6899542809 -58.4342155457 62.2286262512
6.6849536896 -58.3810386658 62.0352134705
6.6770405769 -58.3039436340 61.8390998840
6.6689052582 -58.2250175476 61.6426849365
6.6621093750 -58.1570816040 61.4473800659
6.6560263634 -58.0949974060 61.2526435852
6.6484088898 -58.0203018188 61.0564041138
6.6373777390 -57.9175682068 60.8569030762
6.6235580444 -57.7919197083 60.6546707153
6.6103701591 -57.6714515686 60.4528656006
6.6017732620 -57.5886802673 60.2552299500
6.5994119644 -57.5571289063 60.0633850098
6.6017861366 -57.5644683838 59.8759956360
6.6058053970 -57.5853271484 59.6901817322
6.6089825630 -57.5992660522 59.5035743713
6.6107330322 -57.6014862061 59.3155975342
6.6124968529 -57.6038169861 59.1276245117
6.6167516708 -57.6266098022 58.9420814514
6.6250901222 -57.6829605103 58.7605628967
6.6366910934 -57.7661170959 58.5823249817
6.6488542557 -57.8539085388 58.4047355652
6.6591382027 -57.9262580872 58.2253723145
6.6667771339 -57.9768791199 58.0434417725
6.6723341942 -58.0103912354 57.8594627380
6.6766996384 -58.0341110229 57.6743164063
6.6807036400 -58.0548667908 57.4888191223
6.6854033470 -58.0813369751 57.3040504456
6.6922779083 -58.1256866455 57.1215362549
6.7025222778 -58.1977386475 56.9425468445
6.7155427933 -58.2926177979 56.7665138245
6.7282714844 -58.3851013184 56.5902862549
6.7367405891 -58.4425773621 56.4097023010
6.7386913300 -58.4464721680 56.2223205566
6.7345099449 -58.3999443054 56.0284538269
6.7259855270 -58.3177070618 55.8299102783
6.7148370743 -58.2138900757 55.6284561157
6.7024097443 -58.0995483398 55.4254951477
6.6901769638 -57.9867973328 55.2225952148
6.6799788475 -57.8907661438 55.0217514038
6.6735601425 -57.8258056641 54.8248901367
6.6719717979 -57.8005638123 54.6332130432
6.6753249168 -57.8159637451 54.4469184875
6.6826267242 -57.8638305664 54.2649879456
6.6917872429 -57.9269905090 54.0851669312
6.7004952431 -57.9864349365 53.9049072266
6.7075576782 -58.0323486328 53.7228736877
6.7133231163 -58.0675964355 53.5394325256
6.7187514305 -58.1000747681 53.3556480408
6.7241106033 -58.1319808960 53.1718139648
6.7285585403 -58.1563987732 52.9869728088
6.7309503555 -58.1638984680 52.7998008728
6.7309384346 -58.1516189575 52.6098747253
6.7291402817 -58.1246490479 52.4178619385
6.7264275551 -58.0901451111 52.2247505188
6.7232723236 -58.0520019531 52.0310745239
6.7194509506 -58.0083694458 51.8365631104
6.7138280869 -57.9499130249 51.6398773193
6.7046313286 -57.8620414734 51.4388999939
6.6906027794 -57.7343940735 51.2320938110
6.6723060608 -57.5716133118 51.0200462341
6.6524014473 -57.3955841064 50.8058738708
6.6346545219 -57.2373008728 50.5940628052
6.6224584579 -57.1246910095 50.3887252808
6.6177377701 -57.0736045837 50.1922721863
6.6206579208 -57.0854072571 50.0050201416
6.6300892830 -57.1508102417 49.8257026672
6.6443409920 -57.2558975220 49.6523590088
6.6614165306 -57.3842391968 49.4825973511
6.6788644791 -57.5156593323 49.3134498596
6.6941876411 -57.6295928955 49.1418190002
6.7059082985 -57.7138748169 48.9658393860
6.7141003609 -57.7691078186 48.7855491638
6.7197604179 -57.8035011292 48.6021461487
6.7238564491 -57.8250160217 48.4168052673
6.7269177437 -57.8380088806 48.2301712036
6.7291517258 -57.8441886902 48.0424995422
6.7306842804 -57.8445930481 47.8539276123
6.7317590714 -57.8412284851 47.6647682190
6.7329277992 -57.8386344910 47.4757118225
6.7351861000 -57.8450164795 47.2880477905
6.7397327423 -57.8702430725 47.1033439636
6.7471113205 -57.9188003540 46.9223442078
6.7562327385 -57.9817161560 46.7436676025
6.7644166946 -58.0369148254 46.5638313293
6.7689266205 -58.0618476868 46.3792228699
6.7687478065 -58.0481567383 46.1884498596
6.7648777962 -58.0040550232 45.9927635193
6.7588543892 -57.9422111511 45.7941513062
6.7512202263 -57.8670845032 45.5933036804
6.7418522835 -57.7776679993 45.3900337219
6.7319326401 -57.6836967468 45.1858978271
6.7249240875 -57.6137084961 44.9855728149
6.7247190475 -57.5997734070 44.7943649292
6.7327194214 -57.6534576416 44.6142959595
6.7469563484 -57.7585449219 44.4427947998
6.7635893822 -57.8833885193 44.2746963501
6.7788567543 -57.9969825745 44.1048660278
6.7903060913 -58.0791168213 43.9298934937
6.7972092628 -58.1237831116 43.7487182617
6.8002738953 -58.1368179321 43.5622482300
6.8008604050 -58.1294212341 43.3723297119
6.8000760078 -58.1107254028 43.1804733276
6.7981991768 -58.0830192566 42.9870491028
6.7948746681 -58.0433731079 42.7915382385
6.7898616791 -57.9898071289 42.5935821533
6.7833251953 -57.9236755371 42.3933830261
6.7753834724 -57.8459472656 42.1910896301
6.7657561302 -57.7543182373 41.9862823486
6.7540102005 -57.6452102661 41.7783088684
6.7400708199 -57.5180091858 41.5670318604
6.7248005867 -57.3798179626 41.3536605835
6.7103891373 -57.2486991882 41.1413612366
6.6999187469 -57.1500701904 40.9346275330
6.6960616112 -57.1059761047 40.7374305725
6.6998305321 -57.1247749329 40.5513534546
6.7100319862 -57.1966285706 40.3747558594
6.7236032486 -57.2962875366 40.2032165527
6.7370038033 -57.3945426941 40.0315399170
6.7480354309 -57.4732627869 39.8564491272
6.7567076683 -57.5325279236 39.6779289246
6.7647318840 -57.5864486694 39.4985008240
6.7744522095 -57.6543655396 39.3216781616
6.7876667976 -57.7511177063 39.1501998901
6.8043251038 -57.8762893677 38.9840354919
6.8219790459 -58.0096855164 38.8195304871
6.8371028900 -58.1222152710 38.6513290405
6.8473882675 -58.1948280334 38.4758644104
6.8526902199 -58.2263221741 38.2928390503
6.8539309502 -58.2243041992 38.1036033630
6.8515939713 -58.1927604675 37.9088363647
6.8454895020 -58.1301231384 37.7081871033
6.8357400894 -58.0373916626 37.5017890930
6.8234810829 -57.9239425659 37.2913589478
6.8101210594 -57.8013992310 37.0790596008
6.7959866524 -57.6724510193 36.8653831482
