-3.4230821133 62.6389656067 33.7648468018
-3.4222424030 62.6150016785 33.5760421753
-3.4217669964 62.6006431580 33.3892517090
-3.4215021133 62.5918426514 33.2036285400
-3.4212749004 62.5840339661 33.0181999207
-3.4209663868 62.5740737915 32.8322944641
-3.4205296040 62.5607414246 32.6456451416
-3.4199762344 62.5443229675 32.4583053589
-3.4193515778 62.5260276794 32.2705307007
-3.4187164307 62.5074539185 32.0826683044
-3.4181311131 62.4901962280 31.8950672150
-3.4176461697 62.4755897522 31.7080173492
-3.4172971249 62.4645614624 31.5217323303
-3.4171006680 62.4575614929 31.3363151550
-3.4170520306 62.4544639587 31.1517486572
-3.4171197414 62.4544372559 30.9678516388
-3.4172427654 62.4558677673 30.7842750549
-3.4173326492 62.4564285278 30.6005001068
-3.4172859192 62.4533767700 30.4159145355
-3.4170095921 62.4442710876 30.2299633026
-3.4164521694 62.4277496338 30.0423297882
-3.4156162739 62.4038734436 29.8530120850
-3.4145474434 62.3738555908 29.6622714996
-3.4133121967 62.3394432068 29.4704933167
-3.4119794369 62.3024559021 29.2780818939
-3.4106149673 62.2646331787 29.0854263306
-3.4092881680 62.2278060913 28.8929481506
-3.4080808163 62.1941299438 28.7011394501
-3.4070801735 62.1659049988 28.5105381012
-3.4063439369 62.1446609497 28.3215026855
-3.4058580399 62.1300201416 28.1339626312
-3.4055209160 62.1193046570 27.9473075867
-3.4051668644 62.1081390381 27.7605304718
-3.4046080112 62.0915756226 27.5724773407
-3.4036817551 62.0653114319 27.3821315765
-3.4023044109 62.0271492004 27.1889610291
-3.4005224705 61.9783020020 26.9932308197
-3.3985252380 61.9237785339 26.7960948944
-3.3965954781 61.8710365295 26.5993080139
-3.3950123787 61.8274307251 26.4046134949
-3.3939480782 61.7975234985 26.2131080627
-3.3934121132 61.7815589905 26.0248794556
-3.3932645321 61.7758445740 25.8390712738
-3.3932871819 61.7746238708 25.6543254852
-3.3932611942 61.7721138000 25.4692649841
-3.3930101395 61.7636642456 25.2827682495
-3.3924183846 61.7462272644 25.0940876007
-3.3914468288 61.7187652588 24.9029579163
-3.3901431561 61.6825370789 24.7096633911
-3.3886263371 61.6406860352 24.5149497986
-3.3870480061 61.5972061157 24.3197860718
-3.3855528831 61.5559234619 24.1250953674
-3.3842549324 61.5198478699 23.9316253662
-3.3832242489 61.4908180237 23.7398357391
-3.3824694157 61.4690704346 23.5497951508
-3.3819329739 61.4530906677 23.3611469269
-3.3815193176 61.4403495789 23.1732730865
-3.3811426163 61.4285850525 22.9856224060
-3.3807599545 61.4166641235 22.7979145050
-3.3803641796 61.4043884277 22.6100959778
-3.3799555302 61.3917808533 22.4221744537
-3.3795275688 61.3786582947 22.2341041565
-3.3790702820 61.3647689819 22.0458183289
-3.3785822392 61.3500633240 21.8573055267
-3.3780705929 61.3347320557 21.6686115265
-3.3775417805 61.3189468384 21.4797782898
-3.3769874573 61.3024940491 21.2907505035
-3.3763797283 61.2846260071 21.1013393402
-3.3756711483 61.2640953064 20.9112186432
-3.3748054504 61.2394180298 20.7200088501
-3.3737382889 61.2094306946 20.5274009705
-3.3724610806 61.1738891602 20.3333244324
-3.3710024357 61.1335601807 20.1379680634
-3.3694119453 61.0897483826 19.9416542053
-3.3677439690 61.0438957214 19.7447509766
-3.3660604954 60.9976272583 19.5476799011
-3.3644258976 60.9526519775 19.3508815765
-3.3628888130 60.9102554321 19.1546916962
-3.3614737988 60.8710746765 18.9592857361
-3.3601818085 60.8351402283 18.7646751404
-3.3589842319 60.8016967773 18.5706691742
-3.3578164577 60.7690429688 18.3768215179
-3.3565952778 60.7349777222 18.1825580597
-3.3552582264 60.6978492737 17.9874362946
-3.3538002968 60.6575317383 17.7914161682
-3.3522875309 60.6157722473 17.5949573517
-3.3508369923 60.5756454468 17.3988761902
-3.3495633602 60.5401954651 17.2039890289
-3.3485288620 60.5110549927 17.0107402802
-3.3477337360 60.4882354736 16.8191432953
-3.3471512794 60.4710235596 16.6290225983
-3.3467695713 60.4591140747 16.4403038025
-3.3466022015 60.4528617859 16.2530937195
-3.3466556072 60.4524459839 16.0674495697
-3.3468780518 60.4564857483 15.8830108643
-3.3471257687 60.4611930847 15.6987524033
-3.3471882343 60.4610099792 15.5131626129
-3.3468677998 60.4507141113 15.3248043060
-3.3460609913 60.4275856018 15.1329126358
-3.3447878361 60.3921394348 14.9376049042
-3.3431494236 60.3470535278 14.7395954132
-3.3412771225 60.2957878113 14.5398197174
-3.3393158913 60.2421798706 14.3393278122
-3.3374218941 60.1903381348 14.1392526627
-3.3357167244 60.1434860229 13.9404916763
-3.3342351913 60.1025390625 13.7433109283
-3.3329277039 60.0661849976 13.5473537445
-3.3317146301 60.0323219299 13.3520441055
-3.3305280209 59.9991531372 13.1568794250
-3.3292992115 59.9648742676 12.9613580704
-3.3279492855 59.9274024963 12.7648887634
-3.3264410496 59.8857421875 12.5671854019
-3.3248600960 59.8421630859 12.3688821793
-3.3234212399 59.8023414612 12.1715831757
-3.3223652840 59.7726211548 11.9771003723
-3.3218407631 59.7569351196 11.7865676880
-3.3218581676 59.7555580139 11.6000919342
-3.3223085403 59.7656135559 11.4168787003
-3.3230054379 59.7821693420 11.2355356216
-3.3237314224 59.7995071411 11.0544328690
-3.3242824078 59.8122138977 10.8720149994
-3.3244946003 59.8159751892 10.6870279312
-3.3242776394 59.8084106445 10.4987659454
-3.3236520290 59.7900543213 10.3073654175
-3.3227574825 59.7645988464 10.1138734818
-3.3218166828 59.7379150391 9.9199895859
-3.3210768700 59.7165412903 9.7276144028
-3.3207435608 59.7059020996 9.5383434296
-3.3209125996 59.7085266113 9.3529386520
-3.3215303421 59.7230033875 9.1710100174
-3.3224189281 59.7446250916 8.9911966324
-3.3233540058 59.7674827576 8.8117694855
-3.3241448402 59.7865219116 8.6312389374
-3.3246591091 59.7982673645 8.4485683441
-3.3248097897 59.8004035950 8.2630586624
-3.3245437145 59.7915382385 8.0742740631
-3.3238606453 59.7716674805 7.8821964264
-3.3228309155 59.7426300049 7.6873526573
-3.3215672970 59.7074279785 7.4906220436
-3.3201768398 59.6688690186 7.2928371429
-3.3187394142 59.6290702820 7.0946245193
-3.3173334599 59.5900993347 6.8966073990
-3.3160603046 59.5546417236 6.6995954514
-3.3150191307 59.5253067017 6.5043840408
-3.3142373562 59.5028190613 6.3112049103
-3.3136241436 59.4847831726 6.1193451881
-3.3130135536 59.4668159485 5.9274787903
-3.3122775555 59.4455413818 5.7345747948
-3.3114175797 59.4209899902 5.5406394005
-3.3105745316 59.3968849182 5.3468050957
-3.3099787235 59.3793106079 5.1549367905
-3.3098688126 59.3745613098 4.9669842720
-3.3104016781 59.3867912292 4.7842512131
-3.3115906715 59.4163513184 4.6068768501
-3.3132998943 59.4596519470 4.4337835312
-3.3152930737 59.5104446411 4.2630629539
-3.3173110485 59.5618972778 4.0926055908
-3.3191454411 59.6085014343 3.9207003117
-3.3206744194 59.6470413208 3.7463343143
-3.3218607903 59.6765327454 3.5691852570
-3.3227458000 59.6980628967 3.3895764351
-3.3234539032 59.7149200439 3.2085244656
-3.3241817951 59.7323074341 3.0276544094
-3.3251469135 59.7559585571 2.8487746716
-3.3265120983 59.7901725769 2.6732542515
-3.3283278942 59.8362884521 2.5015342236
-3.3305225372 59.8924102783 2.3330390453
-3.3329432011 59.9545059204 2.1665062904
-3.3354237080 60.0181808472 2.0005490780
-3.3378465176 60.0803298950 1.8341811895
-3.3401830196 60.1402015686 1.6671588421
-3.3425061703 60.1997261047 1.5000972748
-3.3449676037 60.2628974915 1.3342750072
-3.3477282524 60.3339767456 1.1710690260
-3.3508870602 60.4155654907 1.0113304853
-3.3544578552 60.5080490112 0.8552035093
-3.3584091663 60.6105766296 0.7024351954
-3.3626925945 60.7218818665 0.5526331663
-3.3672163486 60.8395309448 0.4050249755
-3.3717916012 60.9585456848 0.2580050826
-3.3761410713 61.0715980530 0.1091893762
-47.9176368713 24.0958175659 80.7125930786
-47.9240760803 24.0988445282 80.5225524902
-47.9391212463 24.1063976288 80.3328933716
-47.9616165161 24.1178684235 80.1435852051
-47.9882469177 24.1315155029 79.9544906616
-48.0151252747 24.1452922821 79.7654342651
-48.0410156250 24.1585502625 79.5763626099
-48.0689353943 24.1728744507 79.3874206543
-48.1044158936 24.1911754608 79.1988754272
-48.1519546509 24.2158203125 79.0109634399
-48.2122764587 24.2471885681 78.8237380981
-48.2815933228 24.2832851410 78.6370468140
-48.3531341553 24.3205528259 78.4505462646
-48.4203872681 24.3555641174 78.2639236450
-48.4798431396 24.3864765167 78.0769805908
-48.5314903259 24.4132843018 77.8896942139
-48.5776023865 24.4371776581 77.7021789551
-48.6205291748 24.4593944550 77.5145492554
-48.6596870422 24.4796333313 77.3267593384
-48.6900444031 24.4952411652 77.1385269165
-48.7045822144 24.5025291443 76.9494476318
-48.6987228394 24.4990882874 76.7592163086
-48.6722793579 24.4848232269 76.5677795410
-48.6288642883 24.4616279602 76.3753128052
-48.5755691528 24.4332370758 76.1822052002
-48.5234260559 24.4054546356 75.9890899658
-48.4861640930 24.3854961395 75.7967910767
-48.4757919312 24.3796806335 75.6060791016
-48.4978446960 24.3909225464 75.4173431396
-48.5504264832 24.4182205200 75.2305450439
-48.6259689331 24.4575939178 75.0452575684
-48.7115783691 24.5022640228 74.8607025146
-48.7896461487 24.5429668427 74.6757812500
-48.8438796997 24.5711345673 74.4894027710
-48.8683586121 24.5836505890 74.3011322021
-48.8704986572 24.5844173431 74.1114120483
-48.8646850586 24.5809993744 73.9211502075
-48.8626937866 24.5795955658 73.7311401367
-48.8688049316 24.5824489594 73.5416717529
-48.8815841675 24.5888156891 73.3526687622
-48.8987846375 24.5975017548 73.1639862061
-48.9205131531 24.6085739136 72.9756393433
-48.9490966797 24.6232490540 72.7878112793
-48.9863433838 24.6424827576 72.6006317139
-49.0302963257 24.6652431488 72.4139862061
-49.0742759705 24.6880168915 72.2273941040
-49.1103401184 24.7066268921 72.0402679443
-49.1347351074 24.7191009521 71.8523254395
-49.1500282288 24.7267875671 71.6637191772
-49.1623535156 24.7329120636 71.4748992920
-49.1776885986 24.7406196594 71.2863235474
-49.2004470825 24.7522315979 71.0983428955
-49.2329788208 24.7689857483 70.9111404419
-49.2740974426 24.7902545929 70.7246551514
-49.3183250427 24.8131618500 70.5384674072
-49.3584899902 24.8339309692 70.3520126343
-49.3900451660 24.8501720428 70.1649093628
-49.4130935669 24.8619365692 69.9771499634
-49.4309768677 24.8709850311 69.7889938354
-49.4479598999 24.8795604706 69.6007766724
-49.4679260254 24.8897037506 69.4128341675
-49.4937324524 24.9029197693 69.2253952026
-49.5263061523 24.9196968079 69.0385665894
-49.5637626648 24.9390430450 68.8521881104
-49.6017265320 24.9586544037 68.6659011841
-49.6351356506 24.9758701324 68.4792709351
-49.6607284546 24.9889736176 68.2919845581
-49.6786766052 24.9980564117 68.1040649414
-49.6923065186 25.0048694611 67.9157791138
-49.7060432434 25.0117359161 67.7275085449
-49.7226829529 25.0201320648 67.5395202637
-49.7413711548 25.0296058655 67.3517303467
-49.7575378418 25.0377521515 67.1637344360
-49.7655601501 25.0416145325 66.9749984741
-49.7627639771 25.0397853851 66.7852706909
-49.7516365051 25.0335731506 66.5947494507
-49.7385406494 25.0263252258 66.4040298462
-49.7305297852 25.0217552185 66.2137603760
-49.7328224182 25.0226020813 66.0244598389
-49.7480354309 25.0302486420 65.8364028931
-49.7766532898 25.0449428558 65.6496582031
-49.8174629211 25.0660514832 65.4641418457
-49.8667449951 25.0916213989 65.2794952393
-49.9167823792 25.1175842285 65.0949935913
-49.9566955566 25.1382217407 64.9095458984
-49.9769859314 25.1485385895 64.7221755981
-49.9738082886 25.1465091705 64.5324630737
-49.9487876892 25.1329879761 64.3405151367
-49.9063529968 25.1103076935 64.1467514038
-49.8533325195 25.0820598602 63.9518394470
-49.8001976013 25.0537509918 63.7568321228
-49.7590103149 25.0317249298 63.5629959106
-49.7375831604 25.0200958252 63.3711738586
-49.7353134155 25.0185432434 63.1813392639
-49.7448387146 25.0231971741 62.9927520752
-49.7583389282 25.0299396515 62.8045959473
-49.7734680176 25.0375404358 62.6166305542
-49.7943725586 25.0481796265 62.4293022156
-49.8272666931 25.0651264191 62.2433052063
-49.8748130798 25.0897808075 62.0589561462
-49.9341506958 25.1206378937 61.8759651184
-49.9995880127 25.1547050476 61.6937255859
-50.0668220520 25.1897163391 61.5117721558
-50.1344528198 25.2249374390 61.3299484253
-50.2018241882 25.2600212097 61.1481819153
-50.2668762207 25.2938861847 60.9662361145
-50.3271827698 25.3252544403 60.7838325500
-50.3820724487 25.3537712097 60.6008796692
-50.4323501587 25.3798656464 60.4174613953
-50.4783363342 25.4036998749 60.2336044312
-50.5191841125 25.4248313904 60.0492057800
-50.5540962219 25.4428405762 59.8641548157
-50.5831298828 25.4577560425 59.6784515381
-50.6061286926 25.4694995880 59.4920578003
-50.6213073730 25.4771270752 59.3047599792
-50.6261215210 25.4793033600 59.1162223816
-50.6200714111 25.4757633209 58.9263725281
-50.6061210632 25.4680671692 58.7355422974
-50.5886802673 25.4585342407 58.5442619324
-50.5702857971 25.4484996796 58.3528366089
-50.5504608154 25.4377136230 58.1612014771
-50.5272407532 25.4251403809 57.9691123962
-50.4988975525 25.4098720551 57.7763442993
-50.4644660950 25.3913993835 57.5827636719
-50.4243087769 25.3699150085 57.3884086609
-50.3813018799 25.3469314575 57.1936302185
-50.3406295776 25.3251762390 56.9990844727
-50.3071861267 25.3072261810 56.8054122925
-50.2833633423 25.2943344116 56.6129302979
-50.2701416016 25.2870197296 56.4217910767
-50.2700958252 25.2866401672 56.2323493958
-50.2878456116 25.2956180573 56.0452384949
-50.3273658752 25.3160533905 55.8610229492
-50.3900642395 25.3486804962 55.6799316406
-50.4748039246 25.3929061890 55.5018577576
-50.5775985718 25.4466285706 55.3263168335
-50.6906127930 25.5057296753 55.1522827148
-50.8035202026 25.5647735596 54.9783859253
-50.9071311951 25.6189289093 54.8033714294
-50.9956130981 25.6651229858 54.6264190674
-51.0654144287 25.7014884949 54.4470138550
-51.1136665344 25.7265186310 54.2647247314
-51.1394309998 25.7397174835 54.0793724060
-51.1470069885 25.7433452606 53.8915100098
-51.1471900940 25.7430858612 53.7026176453
-51.1535987854 25.7461013794 53.5145950317
-51.1759414673 25.7574996948 53.3288345337
-51.2154083252 25.7779064178 53.1455307007
-51.2656745911 25.8039970398 52.9638214111
-51.3180122375 25.8311748505 52.7824668884
-51.3658142090 25.8559684753 52.6005287170
-51.4055976868 25.8765449524 52.4174842834
-51.4355049133 25.8919239044 52.2330551147
-51.4541473389 25.9013748169 52.0470085144
-51.4609184265 25.9045810699 51.8592414856
-51.4568824768 25.9021015167 51.6698799133
-51.4450683594 25.8955287933 51.4793510437
-51.4299507141 25.8872184753 51.2883148193
-51.4160575867 25.8795509338 51.0974311829
-51.4064445496 25.8741359711 50.9071693420
-51.4024353027 25.8716716766 50.7177352905
-51.4049415588 25.8726329803 50.5292778015
-51.4158134460 25.8779964447 50.3420906067
-51.4375228882 25.8890609741 50.1565742493
-51.4711380005 25.9063911438 49.9729118347
-51.5147895813 25.9290027618 49.7908401489
-51.5645217896 25.9548110962 49.6097640991
-51.6164016724 25.9817543030 49.4290847778
-51.6674613953 26.0082626343 49.2483406067
-51.7150268555 26.0329322815 49.0671119690
-51.7564163208 26.0543537140 48.8849716187
-51.7899017334 26.0716152191 48.7016258240
-51.8158721924 26.0849227905 48.5171241760
-51.8368453979 26.0956020355 48.3318519592
-51.8561515808 26.1054039001 48.1463356018
-51.8760681152 26.1155261993 47.9609413147
-51.8963088989 26.1258201599 47.7756195068
-51.9138298035 26.1346836090 47.5898780823
-51.9244079590 26.1398925781 47.4030189514
-51.9250717163 26.1398868561 47.2145462036
-51.9158401489 26.1346721649 47.0244407654
-51.9001121521 26.1260414124 46.8332443237
-51.8839416504 26.1171779633 46.6419487000
-51.8740310669 26.1116065979 46.4516639709
-51.8751564026 26.1118412018 46.2632102966
-51.8886222839 26.1185703278 46.0768241882
-51.9129753113 26.1310272217 45.8922882080
-51.9463500977 26.1482334137 45.7093048096
-51.9883766174 26.1699905396 45.5278358459
-52.0394477844 26.1965065002 45.3479576111
-52.0979080200 26.2269096375 45.1694107056
-52.1580657959 26.2582073212 44.9912338257
-52.2112579346 26.2858428955 44.8119277954
-52.2492904663 26.3054981232 44.6300582886
-52.2680511475 26.3150138855 44.4448814392
-52.2692184448 26.3152713776 44.2566490173
-52.2588424683 26.3094558716 44.0663871765
-52.2471580505 26.3029518127 43.8758773804
-52.2538604736 26.3061218262 43.6885986328
-52.3481788635 26.3553962708 43.5168685913
-52.7549896240 26.5691013336 43.4009323120
-54.0179939270 27.2333297729 43.4386482239
-57.0148811340 28.8099193573 43.7893142700
-62.4668235779 31.6783561707 44.5863952637
-70.0668563843 35.6771240234 45.7793769836
-78.2430877686 39.9790992737 47.0872688293
-79.0754089355 40.4144935608 45.8758392334
-70.8605041504 36.0914154053 44.1639862061
-63.1544265747 32.0360641479 42.5367965698
-57.6034431458 29.1147270203 41.3064651489
-54.5590286255 27.5123691559 40.5440521240
-53.2940025330 26.8463401794 40.1162300110
-52.9025573730 26.6400012970 39.8535804749
-52.8189239502 26.5956363678 39.6494026184
-52.8085823059 26.5898399353 39.4592094421
-52.8016700745 26.5858478546 39.2696609497
-52.7840194702 26.5762023926 39.0780143738
-52.7550277710 26.5605907440 38.8841362000
-52.7197761536 26.5416870117 38.6889877319
-52.6856231689 26.5233592987 38.4940032959
-52.6613235474 26.5102138519 38.3009033203
-52.6551628113 26.5066184998 38.1113433838
-52.6724128723 26.5153408051 37.9263954163
-52.7133064270 26.5365047455 37.7461624146
-52.7728424072 26.5674781799 37.5696945190
-52.8425674438 26.6038131714 37.3953361511
-52.9133911133 26.6407260895 37.2212867737
-52.9781265259 26.6744384766 37.0461044312
-53.0325584412 26.7027263641 36.8689231873
-53.0745201111 26.7244529724 36.6892852783
-53.1020317078 26.7385768890 36.5067634583
-53.1125030518 26.7437305450 36.3207931519
-53.1043586731 26.7390899658 36.1310272217
-53.0797462463 26.7257823944 35.9378623962
-53.0455207825 26.7074165344 35.7426757813
-53.0114021301 26.6891059875 35.5474624634
-52.9865303040 26.6756629944 35.3541145325
-52.9763984680 26.6699752808 35.1637916565
-52.9813003540 26.6721992493 34.9765892029
-52.9968833923 26.6800441742 34.7916221619
-53.0164566040 26.6899890900 34.6075096130
-53.0336380005 26.6986751556 34.4229164124
-53.0440139771 26.7037792206 34.2369003296
-53.0459022522 26.7044181824 34.0490951538
-53.0409278870 26.7014446259 33.8598251343
-53.0338325500 26.6973552704 33.6700897217
-53.0308609009 26.6954364777 33.4812202454
-53.0374679565 26.6985588074 33.2944030762
-53.0564804077 26.7082080841 33.1102600098
-53.0873184204 26.7240810394 32.9286956787
-53.1266517639 26.7444267273 32.7490081787
-53.1704978943 26.7671451569 32.5703506470
-53.2163467407 26.7909202576 32.3921890259
-53.2634239197 26.8153381348 32.2143478394
-53.3108940125 26.8399658203 32.0366516113
-53.3563499451 26.8635311127 31.8585739136
-53.3961296082 26.8841133118 31.6792964935
-53.4268188477 26.8999080658 31.4980525970
-53.4458885193 26.9095897675 31.3142642975
-53.4512214661 26.9120388031 31.1274318695
-53.4406242371 26.9061088562 30.9370384216
-53.4127388000 26.8910789490 30.7427463531
-53.3691101074 26.8677616119 30.5448684692
-53.3158645630 26.8393840790 30.3447551727
-53.2632064819 26.8113174438 30.1446990967
-53.2225532532 26.7895660400 29.9472885132
-53.2027626038 26.7787933350 29.7545700073
-53.2073364258 26.7808475494 29.5673866272
-53.2336692810 26.7943496704 29.3851852417
-53.2742462158 26.8153495789 29.2062892914
-53.3189811707 26.8385372162 29.0284023285
-53.3579597473 26.8586959839 28.8492374420
-53.3840789795 26.8720874786 28.6671409607
-53.3944778442 26.8772048950 28.4814186096
-53.3900451660 26.8745155334 28.2922477722
-53.3742637634 26.8658542633 28.1004104614
-53.3527221680 26.8541622162 27.9071960449
-53.3325386047 26.8431854248 27.7142658234
-53.3203582764 26.8364200592 27.5231914520
-53.3201103210 26.8359336853 27.3349170685
-53.3327980042 26.8422565460 27.1497058868
-53.3576431274 26.8549766541 26.9673995972
-53.3920898438 26.8727493286 26.7874126434
-53.4311447144 26.8929500580 26.6085700989
-53.4683532715 26.9121761322 26.4293327332
-53.4981269836 26.9274921417 26.2483520508
-53.5168724060 26.9370040894 26.0647430420
-53.5224494934 26.9395828247 25.8779678345
-53.5139541626 26.9347572327 25.6877784729
-53.4929428101 26.9233436584 25.4945278168
-53.4648857117 26.9082202911 25.2995204926
-53.4388198853 26.8941459656 25.1049594879
-53.4248466492 26.8864364624 24.9133243561
-53.4308967590 26.8892650604 24.7265930176
-53.4601783752 26.9043216705 24.5455970764
-53.5096931458 26.9300251007 24.3696422577
-53.5705757141 26.9617156982 24.1965732574
-53.6311607361 26.9932460785 24.0235042572
-53.6812515259 27.0192565918 23.8478965759
-53.7147903442 27.0365524292 23.6682071686
-53.7296142578 27.0439987183 23.4838657379
-53.7259712219 27.0417270660 23.2948932648
-53.7058563232 27.0307846069 23.1017551422
-53.6738014221 27.0135574341 22.9055633545
-53.6377029419 26.9942035675 22.7082996368
-53.6078224182 26.9781208038 22.5125598907
-53.5941658020 26.9705772400 22.3209114075
-53.6040229797 26.9754104614 22.1352500916
-53.6404495239 26.9942264557 21.9564056396
-53.7015571594 27.0260353088 21.7839508057
-53.7806549072 27.0673122406 21.6162071228
-53.8669624329 27.1123867035 21.4504318237
-53.9466133118 27.1539554596 21.2830410004
-54.0045127869 27.1840744019 21.1101055145
-54.0278854370 27.1960220337 20.9282512665
-54.0105552673 27.1865444183 20.7357978821
-53.9557685852 27.1573524475 20.5335083008
-53.8759613037 27.1149921417 20.3245735168
-53.7889938354 27.0688610077 20.1136417389
-53.7119483948 27.0279521942 19.9052009583
-53.6551284790 26.9976902008 19.7019996643
-53.6197052002 26.9786891937 19.5043907166
-53.6000900269 26.9680099487 19.3109302521
-53.5884819031 26.9615440369 19.1195716858
-53.5780944824 26.9557209015 18.9285182953
-53.5640411377 26.9479675293 18.7364635468
-53.5430831909 26.9365806580 18.5425281525
-53.5137786865 26.9207992554 18.3463134766
-53.4773101807 26.9012489319 18.1481189728
-53.4377975464 26.8800945282 17.9490451813
-53.4007873535 26.8602581024 17.7505912781
-53.3706550598 26.8440418243 17.5539512634
-53.3490715027 26.8323249817 17.3595962524
-53.3353958130 26.8247699738 17.1673679352
-53.3278579712 26.8204460144 16.9767971039
-53.3242912292 26.8182144165 16.7873020172
-53.3222923279 26.8168048859 16.5982284546
-53.3194999695 26.8149795532 16.4089279175
-53.3143730164 26.8119258881 16.2189712524
-53.3068008423 26.8075828552 16.0283241272
-53.2977333069 26.8024539948 15.8372459412
-53.2881431580 26.7970504761 15.6460037231
-53.2785415649 26.7916393280 15.4547386169
-53.2696228027 26.7865867615 15.2636470795
-53.2633171082 26.7829132080 15.0732727051
-53.2630615234 26.7824211121 14.8845863342
-53.2725257874 26.7870483398 14.6986379623
-53.2932586670 26.7976055145 14.5158843994
-53.3228492737 26.8128242493 14.3356657028
-53.3555221558 26.8296680450 14.1563587189
-53.3848609924 26.8447551727 13.9761400223
-53.4065589905 26.8558197021 13.7937736511
-53.4193534851 26.8621997833 13.6088819504
-53.4242439270 26.8644180298 13.4217348099
-53.4230346680 26.8634262085 13.2328338623
-53.4173660278 26.8600864410 13.0426406860
-53.4086647034 26.8551502228 12.8515567780
-53.3985671997 26.8494777679 12.6600503922
-53.3892402649 26.8442115784 12.4687490463
-53.3834075928 26.8407840729 12.2784471512
-53.3842849731 26.8408908844 12.0900897980
-53.3952903748 26.8463268280 11.9046888351
-53.4189949036 26.8584499359 11.7230205536
-53.4555244446 26.8773231506 11.5451478958
-53.5015068054 26.9011726379 11.3701019287
-53.5506362915 26.9266796112 11.1960430145
-53.5955276489 26.9499530792 11.0207910538
-53.6295127869 26.9674873352 10.8423614502
-53.6477127075 26.9767131805 10.6592817307
-53.6475181580 26.9762535095 10.4707403183
-53.6289443970 26.9661216736 10.2767076492
-53.5948867798 26.9478378296 10.0780086517
-53.5506515503 26.9241943359 9.8762054443
-53.5029678345 26.8987369537 9.6732997894
-53.4591712952 26.8753261566 9.4714946747
-53.4264984131 26.8577690125 9.2729845047
-53.4105148315 26.8489990234 9.0794754028
-53.4128150940 26.8498516083 8.8914842606
-53.4300003052 26.8585433960 8.7080173492
-53.4549942017 26.8713436127 8.5269470215
-53.4793052673 26.8837871552 8.3456983566
-53.4950485229 26.8917198181 8.1618537903
-53.4967269897 26.8922462463 7.9737114906
-53.4828071594 26.8845615387 7.7807698250
-53.4561424255 26.8701667786 7.5838756561
-53.4229507446 26.8523387909 7.3849253654
-53.3910408020 26.8351840973 7.1863207817
-53.3678855896 26.8226356506 6.9903821945
-53.3589172363 26.8175601959 6.7988176346
-53.3664360046 26.8211612701 6.6123704910
-53.3896179199 26.8330078125 6.4308195114
-53.4253768921 26.8514766693 6.2532296181
-53.4688110352 26.8739852905 6.0780901909
-53.5130882263 26.8969383240 5.9032697678
-53.5502357483 26.9161396027 5.7262582779
-53.5736198425 26.9280948639 5.5449490547
-53.5805587769 26.9313907623 5.3584628105
-53.5732421875 26.9271812439 5.1674618721
-53.5578079224 26.9187011719 4.9738669395
-53.5419616699 26.9099998474 4.7801136971
-53.5318336487 26.9043140411 4.5881595612
-53.5299568176 26.9029693604 4.3988223076
-53.5357894897 26.9056835175 4.2119488716
-53.5477523804 26.9116230011 4.0270442963
-53.5642242432 26.9199390411 3.8436031342
-53.5831222534 26.9295330048 3.6609609127
-53.6014823914 26.9388427734 3.4781658649
-53.6163101196 26.9462928772 3.2942457199
-53.6261024475 26.9510898590 3.1087057590
-53.6318664551 26.9537677765 2.9218642712
-53.6371498108 26.9561939240 2.7348694801
-53.6473312378 26.9611968994 2.5494747162
-53.6682128906 26.9718360901 2.3675913811
-53.7042770386 26.9904651642 2.1907081604
-53.7572937012 27.0180206299 2.0194401741
-53.8260421753 27.0538597107 1.8534203768
-53.9068984985 27.0960731506 1.6914842129
-53.9947509766 27.1419696808 1.5319656134
-54.0838394165 27.1885166168 1.3729707003
-54.1686058044 27.2327880859 1.2126582861
-54.2450485229 27.2726783752 1.0496859550
-54.3122062683 27.3076801300 0.8837171793
-54.3724060059 27.3390197754 0.7155112028
-54.4295234680 27.3687362671 0.5463496447
-54.4863433838 27.3982963562 0.3771606088
-54.5429229736 27.4277267456 0.2079618275
-54.5969352722 27.4558105469 0.0379723385
11.0752277374 53.2728652954 79.4554901123
11.0755691528 53.2746810913 79.2678985596
11.0761060715 53.2773551941 79.0803527832
11.0771217346 53.2821350098 78.8929290771
11.0781383514 53.2869148254 78.7054977417
11.0782251358 53.2876091003 78.5178375244
11.0765867233 53.2807312012 78.3297195435
11.0729980469 53.2652854919 78.1410751343
11.0679502487 53.2434310913 77.9520187378
11.0624980927 53.2197990417 77.7628173828
11.0579481125 53.2001304626 77.5738296509
11.0556211472 53.1902275085 77.3854217529
11.0566558838 53.1950874329 77.1979293823
11.0617122650 53.2176132202 77.0115585327
11.0707159042 53.2574768066 76.8263320923
11.0828781128 53.3112106323 76.6420593262
11.0969905853 53.3735084534 76.4584045410
11.1117429733 53.4386253357 76.2750167847
11.1259326935 53.5012626648 76.0915451050
11.1385955811 53.5571975708 75.9076919556
11.1490793228 53.6035614014 75.7232513428
11.1570110321 53.6387100220 75.5380935669
11.1622304916 53.6619529724 75.3521423340
11.1648426056 53.6737403870 75.1654205322
11.1652793884 53.6759757996 74.9780273438
11.1643257141 53.6721038818 74.7901916504
11.1631803513 53.6673889160 74.6022949219
11.1635560989 53.6693534851 74.4148635864
11.1674432755 53.6867446899 74.2285690308
11.1763095856 53.7260017395 74.0439071655
11.1901426315 53.7870750427 73.8609237671
11.2071104050 53.8619155884 73.6790466309
11.2240629196 53.9366836548 73.4972610474
11.2375679016 53.9963150024 73.3143997192
11.2450742722 54.0295982361 73.1295776367
11.2457637787 54.0329475403 72.9424591064
11.2406864166 54.0109634399 72.7533569336
11.2321138382 53.9736251831 72.5630035400
11.2225961685 53.9321365356 72.3722610474
11.2142353058 53.8957328796 72.1818771362
11.2083244324 53.8700866699 71.9923095703
11.2052707672 53.8569908142 71.8037261963
11.2047176361 53.8548774719 71.6160278320
11.2057714462 53.8598175049 71.4289169312
11.2072753906 53.8667411804 71.2419586182
11.2080879211 53.8706245422 71.0547561646
11.2073411942 53.8676643372 70.8669738770
11.2046298981 53.8560714722 70.6784439087
11.2000188828 53.8361358643 70.4891738892
11.1939201355 53.8096656799 70.2993011475
11.1869373322 53.7793083191 70.1090545654
11.1798114777 53.7483291626 69.9187088013
11.1734132767 53.7205429077 69.7285995483
11.1686286926 53.6998481750 69.5390853882
11.1661281586 53.6891822815 69.3504409790
11.1661520004 53.6895980835 69.1627807617
11.1684322357 53.6999320984 68.9760284424
11.1722860336 53.7171707153 68.7899169922
11.1768550873 53.7375602722 68.6041183472
11.1813840866 53.7577629089 68.4183197021
11.1853427887 53.7754669189 68.2323074341
11.1883859634 53.7891502380 68.0459289551
11.1902656555 53.7977218628 67.8590850830
11.1908130646 53.8004379272 67.6716766357
11.1900100708 53.7972297668 67.4837036133
11.1881380081 53.7893257141 67.2952575684
11.1859140396 53.7798728943 67.1066513062
11.1844177246 53.7736129761 66.9183425903
11.1846590042 53.7749938965 66.7307739258
11.1869850159 53.7855224609 66.5441131592
11.1908235550 53.8027000427 66.3581314087
11.1950359344 53.8215179443 66.1723327637
11.1985406876 53.8372230530 65.9862365723
11.2007188797 53.8471031189 65.7995605469
11.2014675140 53.8507080078 65.6122436523
11.2010288239 53.8490982056 65.4243850708
11.1997251511 53.8436927795 65.2361297607
11.1977472305 53.8353195190 65.0475463867
11.1952037811 53.8244667053 64.8586883545
11.1924171448 53.8125381470 64.6696929932
11.1901149750 53.8027496338 64.4809112549
11.1892795563 53.7993965149 64.2928009033
11.1906995773 53.8059463501 64.1057510376
11.1945123672 53.8230056763 63.9198493958
11.1999654770 53.8472747803 63.7347488403
11.2055664063 53.8721885681 63.5497474670
11.2095813751 53.8901367188 63.3640022278
11.2106571198 53.8951797485 63.1768417358
11.2082443237 53.8848953247 62.9879646301
11.2026872635 53.8608093262 62.7975196838
11.1950607300 53.8276290894 62.6060066223
11.1868257523 53.7917785645 62.4141426086
11.1794261932 53.7595977783 62.2226486206
11.1739444733 53.7358398438 62.0320777893
11.1709403992 53.7229614258 61.8427276611
11.1704578400 53.7211608887 61.6546478271
11.1720933914 53.7286567688 61.4676475525
11.1750612259 53.7420082092 61.2813453674
11.1783208847 53.7566375732 61.0952033997
11.1807918549 53.7678070068 60.9086608887
11.1816272736 53.7717933655 60.7212715149
11.1804294586 53.7668533325 60.5328102112
11.1773366928 53.7535820007 60.3433303833
11.1729545593 53.7346534729 60.1531372070
11.1681756973 53.7139854431 59.9627037048
11.1638965607 53.6955032349 59.7725105286
11.1607217789 53.6818809509 59.5828857422
11.1588058472 53.6737785339 59.3939247131
11.1579179764 53.6702003479 59.2055130005
11.1577520370 53.6697845459 59.0174865723
11.1582298279 53.6721992493 58.8298110962
11.1595849991 53.6784706116 58.6426239014
11.1621103287 53.6898803711 58.4560928345
11.1657495499 53.7061767578 58.2701950073
11.1698703766 53.7245903015 58.0845909119
11.1735267639 53.7409629822 57.8987388611
11.1760797501 53.7524948120 57.7122726440
11.1776676178 53.7597808838 57.5252609253
11.1791400909 53.7665672302 57.3381919861
11.1816148758 53.7777519226 57.1517066956
11.1859674454 53.7971839905 56.9663200378
11.1924600601 53.8260154724 56.7822074890
11.2005949020 53.8620567322 56.5990867615
11.2092618942 53.9004364014 56.4163246155
11.2171678543 53.9354705811 56.2331542969
11.2232885361 53.9626693726 56.0489654541
11.2270641327 53.9795646667 55.8633956909
11.2283687592 53.9856109619 55.6763610840
11.2275266647 53.9822311401 55.4880294800
11.2254085541 53.9732398987 55.2989158630
11.2233676910 53.9645957947 55.1098327637
11.2229061127 53.9628829956 54.9216995239
11.2251291275 53.9729652405 54.7352142334
11.2303190231 53.9960746765 54.5505714417
11.2378902435 54.0296401978 54.3674278259
11.2466926575 54.0686149597 54.1850967407
11.2553930283 54.1071395874 54.0027427673
11.2628231049 54.1400833130 53.8196372986
11.2682733536 54.1643371582 53.6353149414
11.2716293335 54.1793899536 53.4496879578
11.2733030319 54.1870536804 53.2630004883
11.2740926743 54.1908416748 53.0757522583
11.2750320435 54.1952819824 52.8886032104
11.2771654129 54.2049636841 52.7022209167
11.2812862396 54.2233810425 52.5171432495
11.2877740860 54.2521896362 52.3336257935
11.2966041565 54.2912788391 52.1516723633
11.3074045181 54.3390274048 51.9710655212
11.3194627762 54.3922996521 51.7913398743
11.3317565918 54.4466018677 51.6118392944
11.3431329727 54.4968795776 51.4317893982
11.3525686264 54.5386352539 51.2505035400
11.3593854904 54.5688858032 51.0675048828
11.3633899689 54.5867881775 50.8826408386
11.3649320602 54.5938758850 50.6961288452
11.3648462296 54.5938148499 50.5085105896
11.3642492294 54.5915107727 50.3205375671
11.3642482758 54.5918197632 50.1329689026
11.3656578064 54.5983276367 49.9463653564
11.3688535690 54.6126747131 49.7610015869
11.3737487793 54.6344909668 49.5768318176
11.3798418045 54.6615638733 49.3935203552
11.3862867355 54.6901817322 49.2104835510
11.3920831680 54.7159538269 49.0270271301
11.3964366913 54.7353897095 48.8425750732
11.3991060257 54.7474250793 48.6569519043
11.4004688263 54.7537231445 48.4704093933
11.4012670517 54.7575454712 48.2834663391
11.4022693634 54.7622642517 48.0966720581
11.4040870667 54.7705650330 47.9104614258
11.4071750641 54.7844390869 47.7251777649
11.4118909836 54.8054656982 47.5410881042
11.4184761047 54.8347015381 47.3583831787
11.4269514084 54.8722305298 47.1770935059
11.4370250702 54.9167861938 46.9970169067
11.4480829239 54.9656600952 46.8177223206
11.4592695236 55.0151062012 46.6385803223
11.4696664810 55.0610771179 46.4589080811
11.4785308838 55.1003189087 46.2781486511
11.4855108261 55.1312866211 46.0960235596
11.4907274246 55.1545104980 45.9126129150
11.4947156906 55.1723403931 45.7282981873
11.4982776642 55.1882972717 45.5436782837
11.5022878647 55.2062263489 45.3594169617
11.5074529648 55.2292213440 45.1760520935
11.5140810013 55.2586402893 44.9938316345
11.5219812393 55.2936515808 44.8126220703
11.5305643082 55.3316574097 44.6319770813
11.5390901566 55.3694114685 44.4513320923
11.5469512939 55.4042472839 44.2702178955
11.5538358688 55.4347991943 44.0883789063
11.5596895218 55.4608192444 43.9057693481
11.5645236969 55.4823646545 43.7223892212
11.5682821274 55.4991798401 43.5381813049
11.5709304810 55.5111274719 43.3531150818
11.5727109909 55.5192642212 43.1673698425
11.5742921829 55.5265197754 42.9814720154
11.5766706467 55.5372810364 42.7962150574
11.5809249878 55.5562782288 42.6124725342
11.5879001617 55.5872230530 42.4309349060
11.5979242325 55.6315574646 42.2518997192
11.6106872559 55.6879196167 42.0751342773
11.6253108978 55.7524528503 41.8999519348
11.6405334473 55.8196144104 41.7253341675
11.6549158096 55.8830833435 41.5501098633
11.6670694351 55.9367675781 41.3731307983
11.6759099960 55.9759063721 41.1934852600
11.6808452606 55.9978942871 41.0106544495
11.6818685532 56.0027046204 40.8245964050
11.6795606613 55.9928817749 40.6357650757
11.6750249863 55.9732780457 40.4450569153
11.6697664261 55.9505004883 40.2537078857
11.6654853821 55.9320144653 40.0631484985
11.6637563705 55.9247398376 39.8747177124
11.6656360626 55.9333114624 39.6893272400
11.6713867188 55.9588737488 39.5072364807
11.6804494858 55.9989891052 39.3279953003
11.6916208267 56.0483589172 39.1506080627
11.7033386230 56.1001281738 38.9737472534
11.7140731812 56.1475830078 38.7961006165
11.7227659225 56.1860694885 38.6167449951
11.7291431427 56.2143859863 38.4354286194
11.7337102890 56.2347564697 38.2525672913
11.7373676300 56.2511329651 38.0689353943
11.7409105301 56.2670059204 37.8852195740
11.7447805405 56.2843093872 37.7018051147
11.7491397858 56.3037719727 37.5188369751
11.7540512085 56.3256492615 37.3363800049
11.7595167160 56.3499641418 37.1544380188
11.7653846741 56.3760452271 36.9728813171
11.7712402344 56.4020729065 36.7913398743
11.7764730453 56.4253654480 36.6092681885
11.7804937363 56.4433364868 36.4261360168
11.7829408646 56.4543991089 36.2416038513
11.7837705612 56.4583549500 36.0556182861
11.7832794189 56.4565124512 35.8684349060
11.7821474075 56.4518547058 35.6806602478
11.7814302444 56.4490203857 35.4932556152
11.7824201584 56.4536857605 35.3074035645
11.7863340378 56.4711837769 35.1242370605
11.7939357758 56.5048789978 34.9444847107
11.8051738739 56.5545425415 34.7681274414
11.8189697266 56.6154327393 34.5942001343
11.8334512711 56.6793403625 34.4209861755
11.8467254639 56.7379417419 34.2467193604
11.8576707840 56.7863197327 34.0703506470
11.8661031723 56.8236618042 33.8916778564
11.8722391129 56.8509178162 33.7108917236
11.8761262894 56.8683013916 33.5280113220
11.8776493073 56.8753051758 33.3429145813
11.8769826889 56.8726882935 33.1557426453
11.8749055862 56.8638839722 32.9672203064
11.8726310730 56.8542098999 32.7784919739
11.8713731766 56.8489990234 32.5907173157
11.8720293045 56.8521957397 32.4047737122
11.8750429153 56.8657417297 32.2210998535
11.8803014755 56.8891448975 32.0396041870
11.8870611191 56.9191436768 31.8595905304
11.8940544128 56.9501647949 31.6798362732
11.8998517990 56.9759368896 31.4989528656
11.9033355713 56.9915504456 31.3158359528
11.9040040970 56.9948005676 31.1299743652
11.9019355774 56.9860305786 30.9414215088
11.8975486755 56.9670791626 30.7505664825
11.8914537430 56.9406318665 30.5579929352
11.8844718933 56.9102859497 30.3645019531
11.8775978088 56.8804168701 30.1710739136
11.8718042374 56.8552894592 29.9786777496
11.8678131104 56.8380813599 29.7880496979
11.8660011292 56.8304405212 29.5995788574
11.8664340973 56.8326568604 29.4133510590
11.8689603806 56.8440628052 29.2292327881
11.8732213974 56.8630867004 29.0468788147
11.8785562515 56.8868293762 28.8656330109
11.8840274811 56.9111633301 28.6845512390
11.8887567520 56.9322433472 28.5027408600
11.8923320770 56.9482574463 28.3197708130
11.8948011398 56.9594116211 28.1356830597
11.8963336945 56.9664573669 27.9506416321
11.8970451355 56.9698982239 27.7647571564
11.8971509933 56.9706764221 27.5782451630
11.8970861435 56.9707031250 27.3915538788
11.8973188400 56.9720382690 27.2051658630
11.8980693817 56.9756469727 27.0193157196
11.8992557526 56.9811706543 26.8339195251
11.9006862640 56.9877700806 26.6487827301
11.9022560120 56.9949760437 26.4637947083
11.9039764404 57.0028419495 26.2789707184
11.9058904648 57.0115623474 26.0943565369
11.9079828262 57.0210647583 25.9099369049
11.9101724625 57.0309906006 25.7256278992
11.9124040604 57.0411033630 25.5413722992
11.9148464203 57.0521469116 25.3573493958
11.9180927277 57.0667152405 25.1741981506
11.9231281281 57.0891380310 24.9929790497
11.9308357239 57.1232948303 24.8146629333
11.9412612915 57.1693840027 24.6393184662
11.9532918930 57.2225265503 24.4657669067
11.9651231766 57.2747879028 24.2920608521
11.9750213623 57.3185653687 24.1163158417
11.9817934036 57.3486137390 23.9372119904
11.9849376678 57.3627319336 23.7541751862
11.9847269058 57.3621215820 23.5674724579
11.9821596146 57.3511657715 23.3781757355
11.9786434174 57.3360404968 23.1878128052
11.9755182266 57.3226280212 22.9978561401
11.9736948013 57.3149375916 22.8093204498
11.9735755920 57.3147315979 22.6226634979
11.9752130508 57.3222312927 22.4379558563
11.9784955978 57.3369598389 22.2550888062
11.9831905365 57.3578872681 22.0738182068
11.9887819290 57.3827514648 21.8935737610
11.9943580627 57.4075508118 21.7133407593
11.9987745285 57.4272537231 21.5318260193
12.0010223389 57.4374389648 21.3478813171
12.0004844666 57.4353942871 21.1607875824
11.9969987869 57.4204025269 20.9703369141
11.9908933640 57.3939094543 20.7768783569
11.9829521179 57.3593521118 20.5812835693
11.9741353989 57.3209571838 20.3846397400
11.9652662277 57.2823257446 20.1878795624
11.9569883347 57.2462959290 19.9917449951
11.9498806000 57.2154045105 19.7969093323
11.9443693161 57.1915206909 19.6038722992
11.9405040741 57.1748619080 19.4127082825
11.9379243851 57.1638488770 19.2230110168
11.9360685349 57.1560134888 19.0341358185
11.9343900681 57.1489601135 18.8454532623
11.9324693680 57.1408424377 18.6564750671
11.9300422668 57.1305007935 18.4668846130
11.9270362854 57.1176147461 18.2765960693
11.9235982895 57.1028327942 18.0857772827
11.9200820923 57.0877113342 17.8948440552
11.9169778824 57.0743942261 17.7043724060
11.9148015976 57.0651550293 17.5149784088
11.9139795303 57.0618591309 17.3271827698
11.9147424698 57.0655212402 17.1412658691
11.9170570374 57.0760040283 16.9572048187
11.9206466675 57.0920753479 16.7746791840
11.9250650406 57.1117897034 16.5931663513
11.9297809601 57.1328086853 16.4120330811
11.9341907501 57.1524887085 16.2305507660
11.9376440048 57.1679649353 16.0479335785
11.9396133423 57.1769256592 15.8635301590
11.9400005341 57.1789398193 15.6772108078
11.9393024445 57.1761894226 15.4895677567
11.9384365082 57.1727027893 15.3017101288
11.9383411407 57.1725997925 15.1147861481
11.9396085739 57.1784782410 14.9295301437
11.9422998428 57.1906089783 14.7460260391
11.9460153580 57.2072372437 14.5637969971
11.9501600266 57.2257461548 14.3821125031
11.9541444778 57.2435569763 14.2002506256
11.9574365616 57.2583236694 14.0175466537
11.9595403671 57.2678794861 13.8333797455
11.9600496292 57.2704277039 13.6472311020
11.9587812424 57.2651710510 13.4588594437
11.9559402466 57.2530174255 13.2685079575
11.9521951675 57.2368888855 13.0769996643
11.9485273361 57.2210960388 12.8855628967
11.9459152222 57.2099418640 12.6954326630
11.9450063705 57.2062683105 12.5074348450
11.9458866119 57.2104492188 12.3216943741
11.9480705261 57.2203521729 12.1376075745
11.9507789612 57.2325553894 11.9541969299
11.9533214569 57.2440338135 11.7705850601
11.9552526474 57.2528266907 11.5862026215
11.9562835693 57.2576675415 11.4006729126
11.9562416077 57.2577972412 11.2137670517
11.9551925659 57.2535057068 11.0255622864
11.9535045624 57.2464103699 10.8365221024
11.9516706467 57.2386703491 10.6472797394
11.9500455856 57.2318534851 10.4582929611
11.9487648010 57.2265434265 10.2697391510
11.9478502274 57.2228469849 10.0816497803
11.9473514557 57.2209663391 9.8940916061
11.9473810196 57.2214126587 9.7072181702
11.9480562210 57.2246932983 9.5211839676
11.9493331909 57.2306137085 9.3359394073
11.9508571625 57.2376174927 9.1510219574
11.9520082474 57.2429885864 8.9656181335
11.9521665573 57.2439994812 8.7789039612
11.9509677887 57.2390518188 8.5903911591
11.9484138489 57.2281532288 8.4000701904
11.9448404312 57.2127799988 8.2083740234
11.9408330917 57.1954994202 8.0160751343
11.9371166229 57.1794967651 7.8241386414
11.9344139099 57.1679458618 7.6335310936
11.9332733154 57.1632537842 7.4449987411
11.9339389801 57.1664886475 7.2588801384
11.9362859726 57.1771087646 7.0750246048
11.9398393631 57.1930236816 6.8928046227
11.9438438416 57.2109222412 6.7112116814
11.9474229813 57.2269477844 6.5290589333
11.9497890472 57.2376556396 6.3452773094
11.9504709244 57.2409591675 6.1592111588
11.9494466782 57.2367782593 5.9708199501
11.9471778870 57.2271347046 5.7807192802
11.9444751740 57.2155838013 5.5900063515
11.9422283173 57.2060356140 5.3998994827
11.9411401749 57.2015724182 5.2113671303
11.9415817261 57.2038230896 5.0249304771
11.9435348511 57.2127151489 4.8405785561
11.9465646744 57.2263336182 4.6577224731
11.9499320984 57.2414283752 4.4753465652
11.9529247284 57.2548828125 4.2924647331
11.9552125931 57.2652435303 4.1086149216
11.9569759369 57.2733001709 3.9240419865
11.9588060379 57.2816467285 3.7395679951
11.9615488052 57.2940063477 3.5563788414
11.9661664963 57.3145942688 3.3758294582
11.9735593796 57.3473663330 3.1992027760
11.9843053818 57.3948593140 3.0273377895
11.9983577728 57.4568710327 2.8601961136
12.0148782730 57.5297126770 2.6966192722
12.0324211121 57.6070442200 2.5345807076
12.0494508743 57.6821250916 2.3719096184
12.0648450851 57.7500267029 2.2070040703
12.0780687332 57.8083953857 2.0390861034
12.0891027451 57.8571510315 1.8681105375
12.0983991623 57.8982849121 1.6947078705
12.1068811417 57.9358329773 1.5201834440
12.1158208847 57.9753952026 1.3463615179
12.1265659332 58.0228843689 1.1751856804
12.1402034760 58.0830688477 1.0082381964
12.1573171616 58.1585159302 0.8463886976
12.1778707504 58.2490653992 0.6896150112
12.2011518478 58.3515892029 0.5369114876
12.2257986069 58.4601097107 0.3863223493
12.2500200272 58.5667610168 0.2352484316
12.2719926834 58.6635398865 0.0810253322
-47.3156471252 42.3908348083 80.3497390747
-47.3090667725 42.3843345642 80.1649398804
-47.3011054993 42.3765563965 79.9800415039
-47.2956924438 42.3711357117 79.7952728271
-47.2933807373 42.3685798645 79.6106643677
-47.2910232544 42.3659820557 79.4260482788
-47.2840957642 42.3591575623 79.2411499023
-47.2696876526 42.3454246521 79.0557861328
-47.2484054565 42.3253364563 78.8699645996
-47.2238540649 42.3022270203 78.6838989258
-47.2002296448 42.2799758911 78.4978561401
-47.1803817749 42.2612152100 78.3120040894
-47.1661376953 42.2476272583 78.1264724731
-47.1597251892 42.2412834167 77.9414291382
-47.1637115479 42.2445449829 77.7570571899
-47.1790504456 42.2583007813 77.5734481812
-47.2034263611 42.2804107666 77.3904724121
-47.2316322327 42.3060569763 77.2077941895
-47.2576942444 42.3297233582 77.0250091553
-47.2772216797 42.3473472595 76.8417968750
-47.2886352539 42.3574752808 76.6580352783
-47.2929191589 42.3610153198 76.4737777710
-47.2924232483 42.3601379395 76.2891693115
-47.2897644043 42.3572616577 76.1043930054
-47.2872467041 42.3545112610 75.9196243286
-47.2867164612 42.3536033630 75.7349929810
-47.2896804810 42.3559226990 75.5506210327
-47.2974929810 42.3627204895 75.3666229248
-47.3113746643 42.3751296997 75.1830978394
-47.3318176270 42.3936042786 75.0001068115
-47.3575630188 42.4169769287 74.8175659180
-47.3851547241 42.4420547485 74.6352081299
-47.4099349976 42.4645385742 74.4526596069
-47.4278068542 42.4806327820 74.2695846558
-47.4364013672 42.4881591797 74.0857696533
-47.4352188110 42.4866447449 73.9011459351
-47.4252090454 42.4769744873 73.7157745361
-47.4084854126 42.4610977173 73.5298080444
-47.3882942200 42.4420166016 73.3435134888
-47.3687667847 42.4235496521 73.1572341919
-47.3539924622 42.4094772339 72.9713363647
-47.3468093872 42.4024162292 72.7860794067
-47.3484268188 42.4034881592 72.6015853882
-47.3590431213 42.4128837585 72.4179000854
-47.3781242371 42.4300994873 72.2349929810
-47.4035377502 42.4531669617 72.0526885986
-47.4307403564 42.4778862000 71.8705902100
-47.4536743164 42.4986610413 71.6881256104
-47.4668884277 42.5104522705 71.5047912598
-47.4669303894 42.5100708008 71.3202133179
-47.4525299072 42.4963417053 71.1342544556
-47.4248924255 42.4703788757 70.9469985962
-47.3882408142 42.4360885620 70.7588043213
-47.3492202759 42.3996009827 70.5703201294
-47.3145294189 42.3671188354 70.3821945190
-47.2885665894 42.3427047729 70.1948776245
-47.2729034424 42.3278083801 70.0085449219
-47.2674064636 42.3223075867 69.8232116699
-47.2716369629 42.3257942200 69.6388549805
-47.2853851318 42.3380813599 69.4554748535
-47.3079719543 42.3585357666 69.2730331421
-47.3367538452 42.3847198486 69.0912704468
-47.3663673401 42.4116668701 68.9096374512
-47.3901290894 42.4332084656 68.7274246216
-47.4028701782 42.4445648193 68.5440673828
-47.4027633667 42.4440422058 68.3593368530
-47.3913726807 42.4330940247 68.1733779907
-47.3726196289 42.4153404236 67.9865875244
-47.3513717651 42.3952865601 67.7994918823
-47.3322105408 42.3771553040 67.6125869751
-47.3190727234 42.3645935059 67.4263153076
-47.3154144287 42.3607902527 67.2410888672
-47.3235359192 42.3678741455 67.0571823120
-47.3432579041 42.3856849670 66.8746109009
-47.3714866638 42.4113540649 66.6930465698
-47.4030036926 42.4400634766 66.5119018555
-47.4317169189 42.4661788940 66.3304748535
-47.4519424438 42.4844551086 66.1480941772
-47.4597511292 42.4912528992 65.9642715454
-47.4536628723 42.4852027893 65.7788009644
-47.4348068237 42.4673538208 65.5917816162
-47.4071807861 42.4413986206 65.4036712646
-47.3773803711 42.4134330750 65.2152404785
-47.3524246216 42.3899459839 65.0273513794
-47.3368568420 42.3751411438 64.8405685425
-47.3317375183 42.3699874878 64.6550521851
-47.3358192444 42.3733406067 64.4706726074
-47.3467636108 42.3830337524 64.2871627808
-47.3612174988 42.3959732056 64.1041030884
-47.3747596741 42.4080657959 63.9209442139
-47.3829116821 42.4151802063 63.7371139526
-47.3829689026 42.4148139954 63.5522460938
-47.3751945496 42.4072113037 63.3663558960
-47.3623161316 42.3948822021 63.1797828674
-47.3477363586 42.3809852600 62.9929580688
