-37.3150711060 -22.0593338013 62.4854850769
-37.2757492065 -22.0356101990 62.2841186523
-37.2340087891 -22.0103454590 62.0823478699
-37.1890907288 -21.9830570221 61.8800621033
-37.1414604187 -21.9540424347 61.6773185730
-37.0923042297 -21.9240589142 61.4742774963
-37.0427703857 -21.8938331604 61.2711067200
-36.9932441711 -21.8636150360 61.0678558350
-36.9431991577 -21.8330631256 60.8644447327
-36.8917922974 -21.8016471863 60.6607589722
-36.8388099670 -21.7692279816 60.4567604065
-36.7850074768 -21.7362880707 60.2525558472
-36.7317314148 -21.7036800385 60.0483398438
-36.6802558899 -21.6722221375 59.8443069458
-36.6315689087 -21.6425418854 59.6406097412
-36.5867462158 -21.6153202057 59.4374084473
-36.5471954346 -21.5914592743 59.2349319458
-36.5140724182 -21.5716896057 59.0333633423
-36.4873657227 -21.5560073853 58.8327140808
-36.4658012390 -21.5435981750 58.6328086853
-36.4474830627 -21.5332584381 58.4333610535
-36.4305953979 -21.5238285065 58.2341003418
-36.4136238098 -21.5143470764 58.0347976685
-36.3952636719 -21.5039806366 57.8352470398
-36.3742027283 -21.4918937683 57.6352348328
-36.3491516113 -21.4772663116 57.4345626831
-36.3193626404 -21.4596233368 57.2330932617
-36.2854537964 -21.4393577576 57.0309181213
-36.2496032715 -21.4178562164 56.8283767700
-36.2143173218 -21.3967151642 56.6258697510
-36.1806488037 -21.3766002655 56.4235572815
-36.1477088928 -21.3569526672 56.2213134766
-36.1138572693 -21.3367271423 56.0188598633
-36.0780029297 -21.3152217865 55.8160247803
-36.0398483276 -21.2922573090 55.6127548218
-35.9994125366 -21.2678375244 55.4090423584
-35.9564323425 -21.2418003082 55.2048416138
-35.9101371765 -21.2136516571 55.0000190735
-35.8593940735 -21.1826705933 54.7943763733
-35.8032913208 -21.1482791901 54.5877532959
-35.7420234680 -21.1105995178 54.3801689148
-35.6775054932 -21.0708503723 54.1719360352
-35.6128807068 -21.0310344696 53.9635810852
-35.5508918762 -20.9928970337 53.7555770874
-35.4925041199 -20.9570541382 53.5480880737
-35.4372673035 -20.9232177734 53.3410530090
-35.3848342896 -20.8911647797 53.1344108582
-35.3359184265 -20.8613548279 52.9282989502
-35.2920646667 -20.8347644806 52.7229881287
-35.2549400330 -20.8124618530 52.5187873840
-35.2255706787 -20.7950973511 52.3158912659
-35.2031822205 -20.7821750641 52.1141777039
-35.1842346191 -20.7714443207 51.9130363464
-35.1631965637 -20.7593822479 51.7114906311
-35.1352958679 -20.7429542542 51.5086746216
-35.0994453430 -20.7214622498 51.3043823242
-35.0588417053 -20.6969470978 51.0991706848
-35.0188522339 -20.6728229523 50.8940010071
-34.9839172363 -20.6519184113 50.6896896362
-34.9558753967 -20.6353969574 50.4865798950
-34.9342193604 -20.6229457855 50.2845916748
-34.9171142578 -20.6133918762 50.0834045410
-34.9019355774 -20.6050624847 49.8825416565
-34.8855819702 -20.5959873199 49.6814346313
-34.8649253845 -20.5841712952 49.4794921875
-34.8372459412 -20.5678863525 49.2761955261
-34.8005142212 -20.5458393097 49.0711517334
-34.7535820007 -20.5172977448 48.8641166687
-34.6967315674 -20.4824466705 48.6551284790
-34.6326141357 -20.4429702759 48.4446640015
-34.5663261414 -20.4021091461 48.2336807251
-34.5036010742 -20.3635196686 48.0232772827
-34.4482192993 -20.3296031952 47.8141860962
-34.4009475708 -20.3008499146 47.6065788269
-34.3604583740 -20.2764167786 47.4002075195
-34.3244552612 -20.2548370361 47.1946411133
-34.2901153564 -20.2343158722 46.9893417358
-34.2546920776 -20.2131080627 46.7837715149
-34.2167510986 -20.1902961731 46.5776443481
-34.1768417358 -20.1662311554 46.3710670471
-34.1365928650 -20.1419525146 46.1643562317
-34.0969886780 -20.1180839539 45.9577064514
-34.0576438904 -20.0943794250 45.7510452271
-34.0176734924 -20.0702800751 45.5441894531
-33.9768981934 -20.0456676483 45.3371086121
-33.9359283447 -20.0209312439 45.1299209595
-33.8950424194 -19.9962482452 44.9226799011
-33.8530273438 -19.9708499908 44.7151451111
-33.8070793152 -19.9429454803 44.5067329407
-33.7536506653 -19.9102840424 44.2967109680
-33.6892127991 -19.8706130981 44.0843353271
-33.6099166870 -19.8214874268 43.8687858582
-33.5115089417 -19.7602005005 43.6491432190
-33.3915672302 -19.6852073669 43.4248619080
-33.2529067993 -19.5983066559 43.1964836121
-33.1040229797 -19.5048999786 42.9657478333
-32.9547996521 -19.4112758636 42.7347106934
-32.8115539551 -19.3214588165 42.5047073364
-32.6760406494 -19.2365665436 42.2761192322
-32.5482330322 -19.1565780640 42.0489654541
-32.4292259216 -19.0821914673 41.8234901428
-32.3218040466 -19.0151767731 41.6003150940
-32.2289009094 -18.9574069977 41.3800926208
-32.1517677307 -18.9096679688 41.1631278992
-32.0893936157 -18.8713264465 40.9492378235
-32.0395050049 -18.8409290314 40.7379570007
-31.9996795654 -18.8169364929 40.5287895203
-31.9678230286 -18.7980155945 40.3213005066
-31.9424552917 -18.7832241058 40.1151809692
-31.9231243134 -18.7722721100 39.9103469849
-31.9099483490 -18.7652397156 39.7068405151
-31.9021892548 -18.7616539001 39.5045051575
-31.8974971771 -18.7600193024 39.3028335571
-31.8929672241 -18.7584877014 39.1011886597
-31.8866958618 -18.7558479309 38.8991355896
-31.8780670166 -18.7517089844 38.6965408325
-31.8668231964 -18.7459068298 38.4933357239
-31.8523368835 -18.7380409241 38.2893714905
-31.8339672089 -18.7277030945 38.0845031738
-31.8117809296 -18.7149391174 37.8787269592
-31.7865009308 -18.7002048492 37.6722068787
-31.7586784363 -18.6838550568 37.4650573730
-31.7283515930 -18.6659107208 37.2572860718
-31.6957149506 -18.6464977264 37.0489311218
-31.6618824005 -18.6263237000 36.8402404785
-31.6286106110 -18.6065082550 36.6316261292
-31.5974388123 -18.5880279541 36.4234428406
-31.5693244934 -18.5714931488 36.2159194946
-31.5448684692 -18.5572872162 36.0092086792
-31.5242786407 -18.5455417633 35.8033638000
-31.5067253113 -18.5357284546 35.5981941223
-31.4897632599 -18.5262908936 35.3931350708
-31.4697513580 -18.5149116516 35.1873207092
-31.4433765411 -18.4994869232 34.9799537659
-31.4092674255 -18.4791393280 34.7706909180
-31.3685302734 -18.4545764923 34.5597839355
-31.3239459991 -18.4275665283 34.3478813171
-31.2785224915 -18.4000244141 34.1357078552
-31.2343635559 -18.3732852936 33.9237632751
-31.1923847198 -18.3479347229 33.7122726440
-31.1527061462 -18.3240489960 33.5012779236
-31.1151523590 -18.3015136719 33.2907333374
-31.0796527863 -18.2802867889 33.0806274414
-31.0465030670 -18.2605533600 32.8710403442
-31.0162677765 -18.2426776886 32.6621170044
-30.9891262054 -18.2267684937 32.4539070129
-30.9641342163 -18.2122268677 32.2461814880
-30.9390811920 -18.1976470947 32.0383949280
-30.9107456207 -18.1809787750 31.8297481537
-30.8751487732 -18.1596927643 31.6192359924
-30.8281593323 -18.1311588287 31.4058036804
-30.7667560577 -18.0934562683 31.1886672974
-30.6903419495 -18.0462074280 30.9676437378
-30.6013450623 -17.9909534454 30.7433128357
-30.5049457550 -17.9309921265 30.5169620514
-30.4082145691 -17.8708209991 30.2903766632
-30.3184547424 -17.8150844574 30.0654201508
-30.2409095764 -17.7671203613 29.8434505463
-30.1767482758 -17.7276687622 29.6247978210
-30.1223392487 -17.6944217682 29.4085559845
-30.0703983307 -17.6627464294 29.1928634644
-30.0132694244 -17.6277694702 28.9757423401
-29.9473381042 -17.5871963501 28.7562408447
-29.8755702972 -17.5429096222 28.5351123810
-29.8055133820 -17.4997138977 28.3143177032
-29.7442150116 -17.4620876312 28.0957069397
-29.6942806244 -17.4316921234 27.8799877167
-29.6535377502 -17.4071426392 27.6666088104
-29.6172065735 -17.3853988647 27.4543285370
-29.5804939270 -17.3634128571 27.2418880463
-29.5404644012 -17.3393192291 27.0285015106
-29.4969806671 -17.3130264282 26.8141288757
-29.4524612427 -17.2860774994 26.5994071960
-29.4103794098 -17.2606792450 26.3852672577
-29.3731727600 -17.2383823395 26.1723670959
-29.3408985138 -17.2192230225 25.9607353210
-29.3112678528 -17.2017440796 25.7497634888
-29.2808055878 -17.1837387085 25.5385150909
-29.2466011047 -17.1633510590 25.3261966705
-29.2077426910 -17.1400051117 25.1125507355
-29.1654434204 -17.1144714355 24.8978996277
-29.1219253540 -17.0881633759 24.6828460693
-29.0794811249 -17.0625381470 24.4680137634
-29.0402641296 -17.0389652252 24.2540016174
-29.0059947968 -17.0185413361 24.0412921906
-28.9771442413 -17.0015621185 23.8300266266
-28.9525413513 -16.9872856140 23.6198921204
-28.9299812317 -16.9743080139 23.4102840424
-28.9071102142 -16.9611320496 23.2005462646
-28.8816280365 -16.9462985992 22.9900379181
-28.8509254456 -16.9281425476 22.7780189514
-28.8121700287 -16.9048671722 22.5636768341
-28.7635021210 -16.8752880096 22.3464717865
-28.7056732178 -16.8398857117 22.1265926361
-28.6425838470 -16.8011379242 21.9051284790
-28.5797328949 -16.7625408173 21.6836280823
-28.5214900970 -16.7268753052 21.4633445740
-28.4691352844 -16.6949558258 21.2446498871
-28.4206085205 -16.6654701233 21.0269699097
-28.3715515137 -16.6356487274 20.8090572357
-28.3171234131 -16.6024112701 20.5895156860
-28.2542247772 -16.5637893677 20.3674354553
-28.1831722260 -16.5199813843 20.1428909302
-28.1075668335 -16.4732818604 19.9169101715
-28.0322895050 -16.4267902374 19.6909046173
-27.9610767365 -16.3828849792 19.4659671783
-27.8950366974 -16.3422660828 19.2424316406
-27.8320178986 -16.3035736084 19.0196781158
-27.7668285370 -16.2634983063 18.7961826324
-27.6933975220 -16.2181854248 18.5701522827
-27.6089000702 -16.1658363342 18.3407287598
-27.5166435242 -16.1085548401 18.1088695526
-27.4245185852 -16.0513572693 17.8769054413
-27.3398742676 -15.9989175797 17.6470260620
-27.2651901245 -15.9528102875 17.4199905396
-27.1978740692 -15.9113912582 17.1950454712
-27.1336345673 -15.8719263077 16.9709148407
-27.0697841644 -15.8327112198 16.7468013763
-27.0057029724 -15.7933483124 16.5225124359
-26.9414005280 -15.7538471222 16.2980575562
-26.8771362305 -15.7143707275 16.0735092163
-26.8143959045 -15.6758632660 15.8493204117
-26.7556095123 -15.6398696899 15.6262369156
-26.7016677856 -15.6069583893 15.4045400620
-26.6497306824 -15.5753211975 15.1833696365
-26.5940704346 -15.5413169861 14.9609708786
-26.5296993256 -15.5017757416 14.7357988358
-26.4559402466 -15.4562683105 14.5076265335
-26.3772888184 -15.4076499939 14.2778224945
-26.3012905121 -15.3607196808 14.0487165451
-26.2349758148 -15.3199462891 13.8225011826
-26.1816062927 -15.2874031067 13.6002140045
-26.1391620636 -15.2618055344 13.3812541962
-26.1013278961 -15.2391395569 13.1636686325
-26.0602550507 -15.2144155502 12.9450025558
-26.0092639923 -15.1833868027 12.7231454849
-25.9441413879 -15.1433744431 12.4967489243
-25.8630065918 -15.0931844711 12.2651834488
-25.7656383514 -15.0326766968 12.0283441544
-25.6530551910 -14.9624958038 11.7865180969
-25.5272254944 -14.8838977814 11.5402975082
-25.3907184601 -14.7985134125 11.2904729843
-25.2462825775 -14.7080898285 11.0378990173
-25.0967121124 -14.6144037247 10.7834548950
-24.9455127716 -14.5196847916 10.5282554626
-24.7983112335 -14.4275074005 10.2741107941
-24.6630783081 -14.3429403305 10.0236034393
-24.5471935272 -14.2706718445 9.7791490555
-24.4530696869 -14.2122383118 9.5415763855
-24.3769779205 -14.1652669907 9.3097190857
-24.3123588562 -14.1255874634 9.0814809799
-24.2537403107 -14.0897245407 8.8550996780
-24.1974411011 -14.0553359985 8.6293840408
-24.1400375366 -14.0202465057 8.4032135010
-24.0778713226 -13.9821290970 8.1753835678
-24.0081691742 -13.9392232895 7.9449682236
-23.9297142029 -13.8907556534 7.7115488052
-23.8422260284 -13.8365468979 7.4750127792
-23.7459888458 -13.7767782211 7.2354335785
-23.6428050995 -13.7125949860 6.9933915138
-23.5370578766 -13.6467838287 6.7503323555
-23.4352111816 -13.5834531784 6.5084118843
-23.3440628052 -13.5269231796 6.2699151039
-23.2691116333 -13.4806880951 6.0367131233
-23.2135562897 -13.4467811584 5.8099188805
-23.1778278351 -13.4254751205 5.5897207260
-23.1597557068 -13.4153928757 5.3754305840
-23.1553688049 -13.4140062332 5.1657428741
-23.1598377228 -13.4182491302 4.9590482712
-23.1683731079 -13.4250764847 4.7537379265
-23.1771602631 -13.4320621490 4.5485186577
-23.1842861176 -13.4379930496 4.3427391052
-23.1901206970 -13.4431037903 4.1365208626
-23.1964302063 -13.4485168457 3.9304680824
-23.2044906616 -13.4550409317 3.7250194550
-23.2135562897 -13.4622049332 3.5199241638
-23.2208423615 -13.4682369232 3.3142199516
-23.2228927612 -13.4709434509 3.1067075729
-23.2176551819 -13.4690170288 2.8966622353
-23.2059307098 -13.4629688263 2.6843459606
-23.1908740997 -13.4548025131 2.4708435535
-23.1758403778 -13.4466514587 2.2573201656
-23.1626873016 -13.4396963120 2.0444259644
-23.1519489288 -13.4342756271 1.8323521614
-23.1442241669 -13.4307699203 1.6213153601
-23.1409797668 -13.4301118851 1.4118381739
-23.1438198090 -13.4333200455 1.2044980526
-23.1533851624 -13.4408016205 0.9995351434
-23.1696395874 -13.4525337219 0.7969512939
-23.1932697296 -13.4689521790 0.5970062017
-23.2264366150 -13.4914293289 0.4004850090
-23.2725582123 -13.5221395493 0.2086306512
-23.3362960815 -13.5640420914 0.0231376570
1.8981209993 -58.4896087646 71.4360580444
1.8969004154 -58.4905776978 71.2489776611
1.8958723545 -58.4955520630 71.0622100830
1.8952362537 -58.5086860657 70.8760910034
1.8951240778 -58.5327224731 70.6908569336
1.8954997063 -58.5669059753 70.5064620972
1.8961297274 -58.6063766479 70.3225250244
1.8966495991 -58.6435508728 70.1384506226
1.8966922760 -58.6707916260 69.9535827637
1.8960034847 -58.6828117371 69.7674865723
1.8945052624 -58.6779937744 69.5799865723
1.8923057318 -58.6585960388 69.3912353516
1.8896646500 -58.6300201416 69.2016830444
1.8869186640 -58.5992622375 69.0119018555
1.8843947649 -58.5731315613 68.8224792480
1.8823455572 -58.5568771362 68.6338729858
1.8809294701 -58.5537872314 68.4463882446
1.8802235126 -58.5654602051 68.2601928711
1.8802423477 -58.5921974182 68.0753326416
1.8809280396 -58.6327972412 67.8917388916
1.8821079731 -58.6836547852 67.7091064453
1.8834725618 -58.7383460999 67.5268707275
1.8846445084 -58.7890243530 67.3443298340
1.8853181601 -58.8293418884 67.1608963013
1.8853634596 -58.8566017151 66.9762954712
1.8848141432 -58.8715057373 66.7905883789
1.8837791681 -58.8763160706 66.6039428711
1.8823651075 -58.8732566833 66.4165573120
1.8806561232 -58.8640708923 66.2285842896
1.8787319660 -58.8504180908 66.0401687622
1.8766903877 -58.8343353271 65.8515014648
1.8746535778 -58.8183517456 65.6628112793
1.8727536201 -58.8052139282 65.4743728638
1.8711049557 -58.7972946167 65.2864227295
1.8697744608 -58.7959823608 65.0991058350
1.8687628508 -58.8012886047 64.9124298096
1.8679994345 -58.8117523193 64.7262649536
1.8673489094 -58.8245544434 64.5403442383
1.8666303158 -58.8359375000 64.3542861938
1.8656527996 -58.8419570923 64.1676940918
1.8642640114 -58.8394355774 63.9802360535
1.8623981476 -58.8270225525 63.7917556763
1.8601182699 -58.8060226440 63.6023712158
1.8576240540 -58.7805824280 63.4124946594
1.8551998138 -58.7565956116 63.2227325439
1.8531175852 -58.7397079468 63.0336799622
1.8515455723 -58.7334060669 62.8457107544
1.8505028486 -58.7380790710 62.6588897705
1.8498703241 -58.7512626648 62.4729766846
1.8494588137 -58.7690200806 62.2875595093
1.8490948677 -58.7877655029 62.1022605896
1.8486682177 -58.8052062988 61.9168395996
1.8481233120 -58.8201980591 61.7311668396
1.8474329710 -58.8321685791 61.5451736450
1.8465855122 -58.8408851624 61.3588294983
1.8455828428 -58.8463859558 61.1721343994
1.8444365263 -58.8489112854 60.9851074219
1.8431645632 -58.8488311768 60.7977867126
1.8417924643 -58.8466796875 60.6102256775
1.8403558731 -58.8431892395 60.4225044250
1.8388911486 -58.8391227722 60.2347068787
1.8374170065 -58.8348579407 60.0468750000
1.8359291553 -58.8303146362 59.8589973450
1.8344240189 -58.8254165649 59.6710700989
1.8329256773 -58.8206596375 59.4831466675
1.8314778805 -58.8169479370 59.2953300476
1.8301123381 -58.8149414063 59.1077041626
1.8288341761 -58.8147468567 58.9202842712
1.8276300430 -58.8160820007 58.7330360413
1.8264846802 -58.8186378479 58.5459289551
1.8254078627 -58.8226127625 58.3589859009
1.8244625330 -58.8293075562 58.1723709106
1.8237650394 -58.8411331177 57.9863739014
1.8234434128 -58.8607292175 57.8013305664
1.8235722780 -58.8896484375 57.6174354553
1.8241078854 -58.9269752502 57.4346046448
1.8248596191 -58.9687690735 57.2523574829
1.8255293369 -59.0088577271 57.0699424744
1.8257974386 -59.0406379700 56.8865394592
1.8254063129 -59.0587768555 56.7014617920
1.8242298365 -59.0606765747 56.5143585205
1.8223311901 -59.0476455688 56.3253707886
1.8199591637 -59.0248298645 56.1351203918
1.8174474239 -58.9991264343 55.9444694519
1.8150893450 -58.9766120911 55.7541847229
1.8130928278 -58.9615707397 55.5648307800
1.8116053343 -58.9570541382 55.3768119812
1.8107085228 -58.9647483826 55.1903610229
1.8103379011 -58.9833145142 55.0053329468
1.8102127314 -59.0069503784 54.8209800720
1.8098920584 -59.0265426636 54.6361198425
1.8089551926 -59.0334014893 54.4495925903
1.8071782589 -59.0229110718 54.2607688904
1.8045887947 -58.9956359863 54.0696830750
1.8014138937 -58.9562759399 53.8769416809
1.7979937792 -58.9118576050 53.6834678650
1.7946733236 -58.8695068359 53.4902153015
1.7916889191 -58.8341026306 53.2978439331
1.7891249657 -58.8073883057 53.1066093445
1.7869740725 -58.7892036438 52.9165039063
1.7852267027 -58.7793579102 52.7275161743
1.7839127779 -58.7784576416 52.5397453308
1.7830933332 -58.7877693176 52.3533821106
1.7828265429 -58.8084831238 52.1686134338
1.7831100225 -58.8405494690 51.9854507446
1.7838047743 -58.8810997009 51.8035087585
1.7846103907 -58.9239311218 51.6219329834
1.7851662636 -58.9616050720 51.4396705627
1.7852262259 -58.9890403748 51.2559890747
1.7847583294 -59.0055847168 51.0707778931
1.7839052677 -59.0141830444 50.8844413757
1.7828792334 -59.0192108154 50.6975936890
1.7818825245 -59.0248451233 50.5108299255
1.7810702324 -59.0342826843 50.3246231079
1.7805377245 -59.0494880676 50.1392593384
1.7803045511 -59.0708656311 49.9548149109
1.7802889347 -59.0967216492 49.7710456848
1.7803044319 -59.1232185364 49.5873947144
1.7801336050 -59.1458702087 49.4031982422
1.7796469927 -59.1620140076 49.2180519104
1.7788439989 -59.1716308594 49.0319480896
1.7777646780 -59.1755523682 48.8449897766
1.7763949633 -59.1734962463 48.6571311951
1.7746914625 -59.1645584106 48.4682235718
1.7726781368 -59.1492424011 48.2783279419
1.7704790831 -59.1301002502 48.0878257751
1.7682490349 -59.1103286743 47.8971939087
1.7660946846 -59.0921173096 47.7067756653
1.7640494108 -59.0761566162 47.5166740417
1.7620838881 -59.0618438721 47.3268013000
1.7601270676 -59.0477142334 47.1369361877
1.7581062317 -59.0322647095 46.9468383789
1.7560051680 -59.0151710510 46.7564582825
1.7538956404 -58.9979057312 46.5660247803
1.7519018650 -58.9830284119 46.3759422302
1.7501257658 -58.9726333618 46.1865425110
1.7486134768 -58.9676704407 45.9979896545
1.7473915815 -58.9686889648 45.8103790283
1.7465200424 -58.9769134521 45.6239166260
1.7460888624 -58.9942016602 45.4389152527
1.7461477518 -59.0215721130 45.2555580139
1.7466210127 -59.0574607849 45.0736045837
1.7472734451 -59.0970306396 44.8922843933
1.7477521896 -59.1330223083 44.7104263306
1.7476907969 -59.1579017639 44.5267791748
1.7468358278 -59.1664505005 44.3404731750
1.7451360226 -59.1576309204 44.1513023376
1.7427402735 -59.1345024109 43.9597434998
1.7399116755 -59.1024780273 43.7666740417
1.7369314432 -59.0673408508 43.5730400085
1.7340570688 -59.0343894958 43.3797225952
1.7315407991 -59.0088043213 43.1875953674
1.7296556234 -58.9961967468 42.9976196289
1.7286616564 -59.0019073486 42.8107223511
1.7287113667 -59.0290679932 42.6274681091
1.7297617197 -59.0767860413 42.4477462769
1.7315460443 -59.1395797729 42.2706489563
1.7336146832 -59.2082061768 42.0946235657
1.7354309559 -59.2716331482 41.9177780151
1.7364941835 -59.3195838928 41.7383270264
1.7364625931 -59.3450393677 41.5550231934
1.7352458239 -59.3461494446 41.3675117493
1.7330160141 -59.3264579773 41.1763572693
1.7301084995 -59.2928504944 40.9827384949
1.7268861532 -59.2527847290 40.7879333496
1.7236559391 -59.2125663757 40.5930480957
1.7206369638 -59.1766891479 40.3988761902
1.7179429531 -59.1474952698 40.2058410645
1.7155911922 -59.1253280640 40.0140190125
1.7135337591 -59.1092109680 39.8232421875
1.7116702795 -59.0970726013 39.6331558228
1.7098402977 -59.0856285095 39.4431724548
1.7078517675 -59.0709342957 39.2525825500
1.7055572271 -59.0499610901 39.0608291626
1.7029179335 -59.0219230652 38.8677597046
1.7000023127 -58.9882202148 38.6736145020
1.6969424486 -58.9515647888 38.4788856506
1.6939008236 -58.9152908325 38.2841720581
1.6910581589 -58.8831024170 38.0901641846
1.6885855198 -58.8585128784 37.8975143433
1.6866028309 -58.8439712524 37.7066917419
1.6851557493 -58.8404159546 37.5178909302
1.6842198372 -58.8473472595 37.3310317993
1.6837158203 -58.8631286621 37.1458320618
1.6835340261 -58.8855133057 36.9618873596
1.6835483313 -58.9119148254 36.7787170410
1.6835964918 -58.9390068054 36.5957069397
1.6834629774 -58.9623756409 36.4120101929
1.6829251051 -58.9774513245 36.2267608643
1.6818561554 -58.9816436768 36.0394477844
1.6803015471 -58.9758872986 35.8502273560
1.6784709692 -58.9644775391 35.6599044800
1.6766408682 -58.9530792236 35.4695663452
1.6750189066 -58.9459495544 35.2800331116
1.6736462116 -58.9439277649 35.0914726257
1.6723967791 -58.9444274902 34.9033927917
1.6710678339 -58.9433021545 34.7149925232
1.6694942713 -58.9371719360 34.5256042480
1.6676225662 -58.9249343872 34.3350028992
1.6655161381 -58.9078979492 34.1434364319
1.6633124352 -58.8888740540 33.9514503479
1.6611704826 -58.8711128235 33.7596855164
1.6592279673 -58.8574447632 33.5687026978
1.6575546265 -58.8492851257 33.3787956238
1.6561200619 -58.8460159302 33.1898498535
1.6548296213 -58.8456954956 33.0014839172
1.6536117792 -58.8468627930 32.8134117126
1.6524678469 -58.8495407104 32.6256370544
1.6514396667 -58.8545913696 32.4383392334
1.6505439281 -58.8623504639 32.2515907288
1.6497339010 -58.8718605042 32.0652008057
1.6489056349 -58.8809967041 31.8787384033
1.6479272842 -58.8870620728 31.6916522980
1.6466727257 -58.8874816895 31.5034084320
1.6450610161 -58.8805999756 31.3136539459
1.6431019306 -58.8666152954 31.1224212646
1.6409200430 -58.8480758667 30.9302196503
1.6387165785 -58.8291053772 30.7378997803
1.6366890669 -58.8137359619 30.5463008881
1.6349657774 -58.8045845032 30.3559741974
1.6335870028 -58.8024749756 30.1671066284
1.6325167418 -58.8066749573 29.9795532227
1.6316612959 -58.8152656555 29.7929248810
1.6308908463 -58.8255882263 29.6066646576
1.6300685406 -58.8348541260 29.4201869965
1.6290806532 -58.8407363892 29.2329959869
1.6278483868 -58.8416252136 29.0447387695
1.6263159513 -58.8363838196 28.8551692963
1.6244361401 -58.8240509033 28.6640644073
1.6221861839 -58.8041572571 28.4713153839
1.6196106672 -58.7776222229 28.2771034241
1.6168484688 -58.7472801208 28.0820312500
1.6141041517 -58.7173118591 27.8869972229
1.6115880013 -58.6920051575 27.6929321289
1.6094784737 -58.6750068665 27.5006408691
1.6079061031 -58.6689758301 27.3107185364
1.6069169044 -58.6748466492 27.1233882904
1.6064190865 -58.6907501221 26.9382629395
1.6061704159 -58.7117347717 26.7542705536
1.6058412790 -58.7310752869 26.5699329376
1.6051193476 -58.7424011230 26.3838348389
1.6037939787 -58.7414093018 26.1950111389
1.6017971039 -58.7267227173 26.0031280518
1.5992177725 -58.7001571655 25.8085689545
1.5962898731 -58.6664886475 25.6123809814
1.5933320522 -58.6322135925 25.4160079956
1.5906500816 -58.6035728455 25.2208576202
1.5884552002 -58.5848693848 25.0279083252
1.5868195295 -58.5775718689 24.8375110626
1.5856498480 -58.5797767639 24.6492538452
1.5846811533 -58.5860824585 24.4619235992
1.5835418701 -58.5889129639 24.2738037109
1.5818983316 -58.5814590454 24.0833282471
1.5795905590 -58.5604743958 23.8897342682
1.5766614676 -58.5268287659 23.6931972504
1.5732849836 -58.4840736389 23.4945144653
1.5696940422 -58.4369544983 23.2947635651
1.5661668777 -58.3911437988 23.0952529907
1.5630357265 -58.3534088135 22.8975582123
1.5606424809 -58.3307189941 22.7033119202
1.5592283010 -58.3279724121 22.5136909485
1.5588241816 -58.3458023071 22.3288764954
1.5592124462 -58.3797683716 22.1478633881
1.5599733591 -58.4213180542 21.9686698914
1.5606004000 -58.4601402283 21.7888755798
1.5606564283 -58.4873237610 21.6063690186
1.5599111319 -58.4981918335 21.4200191498
1.5583809614 -58.4930801392 21.2298774719
1.5562537909 -58.4758186340 21.0368270874
1.5537768602 -58.4514350891 20.8420486450
1.5511715412 -58.4244499207 20.6466102600
1.5485905409 -58.3979644775 20.4512519836
1.5461118221 -58.3735618591 20.2563591003
1.5437607765 -58.3517684937 20.0620555878
1.5415298939 -58.3324203491 19.8683128357
1.5393767357 -58.3146553040 19.6749248505
1.5372258425 -58.2969436646 19.4815216064
1.5349959135 -58.2776260376 19.2876987457
1.5326267481 -58.2554817200 19.0931549072
1.5300726891 -58.2295837402 18.8976573944
1.5272889137 -58.1990165710 18.7009754181
1.5242618322 -58.1635093689 18.5030345917
1.5210617781 -58.1244926453 18.3041782379
1.5178378820 -58.0849952698 18.1051502228
1.5147588253 -58.0484504700 17.9067974091
1.5119673014 -58.0177612305 17.7098522186
1.5095660686 -57.9950103760 17.5148391724
1.5075827837 -57.9807548523 17.3219146729
1.5059226751 -57.9730758667 17.1306114197
1.5043790340 -57.9677619934 16.9398880005
1.5027111769 -57.9599266052 16.7485160828
1.5007238388 -57.9456024170 16.5554904938
1.4982975721 -57.9223632813 16.3601894379
1.4953944683 -57.8894424438 16.1623992920
1.4920876026 -57.8483314514 15.9624824524
1.4886091948 -57.8037376404 15.7616233826
1.4853299856 -57.7631988525 15.5617380142
1.4826011658 -57.7338485718 15.3646593094
1.4805527925 -57.7183189392 15.1710815430
1.4790396690 -57.7136573792 14.9802722931
1.4777636528 -57.7138175964 14.7906913757
1.4764112234 -57.7124214172 14.6007032394
1.4746910334 -57.7035675049 14.4087762833
1.4723262787 -57.6816291809 14.2134370804
1.4690988064 -57.6421852112 14.0135135651
1.4649600983 -57.5842552185 13.8087186813
1.4601167440 -57.5120391846 13.6001148224
1.4549907446 -57.4340972900 13.3899183273
1.4500561953 -57.3600578308 13.1806440353
1.4456679821 -57.2971115112 12.9741935730
1.4419788122 -57.2483596802 12.7714014053
1.4389506578 -57.2130241394 12.5720882416
1.4363918304 -57.1872177124 12.3752489090
1.4339747429 -57.1642837524 12.1791353226
1.4312720299 -57.1355705261 11.9814491272
1.4278978109 -57.0932426453 11.7800912857
1.4237170219 -57.0345687866 11.5743074417
1.4189502001 -56.9640235901 11.3652667999
1.4140517712 -56.8908233643 11.1554212570
1.4094680548 -56.8240165710 10.9472007751
1.4054592848 -56.7688751221 10.7420387268
1.4020519257 -56.7259330750 10.5401000977
1.3990859985 -56.6919441223 10.3405275345
1.3963137865 -56.6618881226 10.1419754028
1.3934996128 -56.6309890747 9.9431505203
1.3904716969 -56.5957603455 9.7431020737
1.3871262074 -56.5541076660 9.5412483215
1.3834333420 -56.5054283142 9.3374118805
1.3794561625 -56.4509963989 9.1319322586
1.3753454685 -56.3938713074 8.9256381989
1.3712958097 -56.3379898071 8.7196130753
1.3674931526 -56.2871246338 8.5148973465
1.3640636206 -56.2438201904 8.3122091293
1.3610243797 -56.2084312439 8.1116561890
1.3582665920 -56.1787414551 7.9126410484
1.3555994034 -56.1508979797 7.7140955925
1.3528387547 -56.1211662292 7.5149836540
1.3498960733 -56.0877532959 7.3147988319
1.3468111753 -56.0514678955 7.1137604713
1.3437031507 -56.0147247314 6.9125432968
1.3406785727 -55.9796752930 6.7117514610
1.3377749920 -55.9470787048 6.5116038322
1.3349841833 -55.9167747498 6.3120579720
1.3323202133 -55.8890419006 6.1131978035
1.3298583031 -55.8653984070 5.9154596329
1.3277002573 -55.8479118347 5.7194385529
1.3258923292 -55.8375053406 5.5254106522
1.3243665695 -55.8328094482 5.3329958916
1.3229459524 -55.8302421570 5.1411786079
1.3214001656 -55.8251457214 4.9486246109
1.3195205927 -55.8133010864 4.7541170120
1.3171874285 -55.7922897339 4.5569438934
1.3144099712 -55.7623023987 4.3571448326
1.3113390207 -55.7263832092 4.1555867195
1.3082436323 -55.6899833679 3.9538366795
1.3054382801 -55.6594467163 3.7537422180
1.3031722307 -55.6398200989 3.5567820072
1.3015363216 -55.6329269409 3.3635098934
1.3004331589 -55.6368026733 3.1733734608
1.2996044159 -55.6462211609 2.9848599434
1.2986696959 -55.6534996033 2.7957217693
1.2971644402 -55.6492500305 2.6031925678
1.2945874929 -55.6233596802 2.4042663574
1.2904837132 -55.5666313171 2.1961874962
1.2845771313 -55.4735069275 1.9772515297
1.2769181728 -55.3450126648 1.7476983070
1.2679375410 -55.1898498535 1.5100513697
1.2583189011 -55.0218353271 1.2683792114
1.2487386465 -54.8546218872 1.0267370939
1.2396408319 -54.6971778870 0.7878093123
1.2311921120 -54.5528602600 0.5526206493
1.2234085798 -54.4219970703 0.3212921023
1.2163339853 -54.3054618835 0.0941129029
-44.6102638245 -12.5156793594 68.6542129517
-44.6184425354 -12.5194120407 68.4612274170
-44.6305809021 -12.5243930817 68.2686538696
-44.6489067078 -12.5313243866 68.0767440796
-44.6767349243 -12.5412521362 67.8858489990
-44.7167625427 -12.5550241470 67.6962814331
-44.7691230774 -12.5726861954 67.5080871582
-44.8305549622 -12.5932064056 67.3209228516
-44.8944664001 -12.6145076752 67.1341094971
-44.9515991211 -12.6336708069 66.9466247559
-44.9919967651 -12.6475591660 66.7573852539
-45.0083847046 -12.6538782120 66.5655364990
-44.9989852905 -12.6520690918 66.3708496094
-44.9681015015 -12.6434869766 66.1737442017
-44.9244766235 -12.6308879852 65.9751663208
-44.8786087036 -12.6175842285 65.7762680054
-44.8398780823 -12.6065301895 65.5781097412
-44.8143424988 -12.5996341705 65.3814010620
-44.8039283752 -12.5975055695 65.1863937378
-44.8070373535 -12.5996408463 64.9929275513
-44.8197860718 -12.6048126221 64.8005752563
-44.8372268677 -12.6114645004 64.6087799072
-44.8543434143 -12.6180124283 64.4169616699
-44.8668670654 -12.6231145859 64.2246246338
-44.8719215393 -12.6258611679 64.0314025879
-44.8682937622 -12.6258735657 63.8371467590
-44.8563194275 -12.6232528687 63.6418762207
-44.8374443054 -12.6184587479 63.4457511902
-44.8139648438 -12.6122131348 63.2490348816
-44.7889022827 -12.6054697037 63.0520858765
-44.7657089233 -12.5993137360 62.8553276062
-44.7474594116 -12.5947170258 62.6591453552
-44.7359085083 -12.5922327042 62.4637603760
-44.7310943604 -12.5918703079 62.2691917419
-44.7316246033 -12.5931930542 62.0752830505
-44.7351913452 -12.5954713821 61.8817520142
-44.7387962341 -12.5977630615 61.6882209778
-44.7387580872 -12.5989065170 61.4942283630
-44.7308540344 -12.5975713730 61.2992172241
-44.7109413147 -12.5924520493 61.1026458740
-44.6761665344 -12.5826482773 60.9041213989
-44.6263542175 -12.5681085587 60.7035865784
-44.5648384094 -12.5498790741 60.5014495850
-44.4979553223 -12.5299606323 60.2985191345
-44.4332695007 -12.5107345581 60.0957832336
-44.3772163391 -12.4942283630 59.8941040039
-44.3335800171 -12.4816360474 59.6939964294
-44.3033447266 -12.4732666016 59.4956207275
-44.2850952148 -12.4686737061 59.2988128662
-44.2754478455 -12.4667921066 59.1031379700
-44.2698440552 -12.4661836624 58.9079933167
-44.2637939453 -12.4654350281 58.7127761841
-44.2540435791 -12.4635200500 58.5170326233
-44.2390060425 -12.4599399567 58.3205413818
-44.2185249329 -12.4546451569 58.1232681274
-44.1935310364 -12.4479293823 57.9253349304
-44.1660385132 -12.4404258728 57.7270126343
-44.1391029358 -12.4330978394 57.5287246704
-44.1160469055 -12.4269924164 57.3309402466
-44.0990905762 -12.4228086472 57.1339874268
-44.0880165100 -12.4204788208 56.9378433228
-44.0794410706 -12.4189357758 56.7420349121
-44.0672111511 -12.4162416458 56.5456809998
-44.0446281433 -12.4102859497 56.3478126526
-44.0076904297 -12.3998088837 56.1478195190
-43.9571838379 -12.3850584030 55.9457931519
-43.8980369568 -12.3675851822 55.7424278259
-43.8365364075 -12.3493719101 55.5386314392
-43.7776374817 -12.3319787979 55.3351287842
-43.7243041992 -12.3163385391 55.1323699951
-43.6786460876 -12.3031167984 54.9306793213
-43.6426277161 -12.2929315567 54.7303657532
-43.6170501709 -12.2860355377 54.5315704346
-43.5999984741 -12.2818250656 54.3340225220
-43.5866851807 -12.2787933350 54.1370124817
-43.5711059570 -12.2750482559 53.9396324158
-43.5482292175 -12.2690038681 53.7411079407
-43.5153732300 -12.2598161697 53.5410118103
-43.4725379944 -12.2474861145 53.3393249512
-43.4225234985 -12.2328958511 53.1364593506
-43.3708229065 -12.2177734375 52.9332580566
-43.3242568970 -12.2042694092 52.7307891846
-43.2882957458 -12.1941070557 52.5299148560
-43.2648124695 -12.1878738403 52.3309555054
-43.2519798279 -12.1849946976 52.1336441040
-43.2457962036 -12.1842107773 51.9373664856
-43.2415924072 -12.1840496063 51.7413940430
-43.2348365784 -12.1830835342 51.5449943542
-43.2215538025 -12.1800651550 51.3475341797
-43.1988105774 -12.1740655899 51.1485137939
-43.1652984619 -12.1646757126 50.9477119446
-43.1218032837 -12.1521415710 50.7452316284
-43.0708274841 -12.1372528076 50.5414619446
-43.0154685974 -12.1209831238 50.3368949890
-42.9585113525 -12.1042108536 50.1319847107
-42.9024963379 -12.0877370834 49.9271507263
-42.8501777649 -12.0724258423 49.7228507996
-42.8042068481 -12.0591154099 49.5195350647
-42.7659988403 -12.0482492447 49.3174552917
-42.7345314026 -12.0395069122 49.1164474487
-42.7059974670 -12.0316877365 48.9158935547
-42.6746444702 -12.0229797363 48.7148132324
-42.6347961426 -12.0115995407 48.5122375488
-42.5833663940 -11.9965715408 48.3076210022
-42.5212669373 -11.9781856537 48.1011009216
-42.4529724121 -11.9578485489 47.8934249878
-42.3849182129 -11.9375877380 47.6856918335
-42.3235893250 -11.9194459915 47.4790306091
-42.2735481262 -11.9048576355 47.2742500305
-42.2359657288 -11.8941926956 47.0715751648
-42.2086563110 -11.8867626190 46.8706436157
-42.1874504089 -11.8812551498 46.6707496643
-42.1677894592 -11.8762331009 46.4710960388
-42.1457405090 -11.8704595566 46.2709808350
-42.1184616089 -11.8630399704 46.0699005127
-42.0843544006 -11.8534708023 45.8675537109
-42.0432701111 -11.8417053223 45.6639022827
-41.9968185425 -11.8282508850 45.4592247009
-41.9484596252 -11.8141965866 45.2541313171
-41.9029006958 -11.8010234833 45.0494766235
-41.8646240234 -11.7901430130 44.8460807800
-41.8360900879 -11.7823314667 44.6444129944
-41.8164367676 -11.7773151398 44.4443283081
-41.8012771606 -11.7737131119 44.2450370789
-41.7837181091 -11.7693548203 44.0452766418
-41.7562217712 -11.7618703842 43.8436431885
-41.7126045227 -11.7493114471 43.6389656067
-41.6493453979 -11.7305688858 43.4305496216
-41.5658607483 -11.7054615021 43.2182540894
-41.4641647339 -11.6746234894 43.0024147034
-41.3486785889 -11.6394433975 42.7838287354
-41.2262725830 -11.6020879745 42.5637702942
-41.1053962708 -11.5652141571 42.3438377380
-40.9935455322 -11.5311822891 42.1254577637
-40.8949661255 -11.5013294220 41.9094657898
-40.8109092712 -11.4760465622 41.6961250305
-40.7418098450 -11.4554729462 41.4855537415
-40.6885643005 -11.4398899078 41.2779464722
-40.6512985229 -11.4293355942 41.0733680725
-40.6274986267 -11.4230213165 40.8713531494
-40.6124877930 -11.4194717407 40.6710205078
-40.6024208069 -11.4174804688 40.4716300964
-40.5967979431 -11.4168863297 40.2730941772
-40.5976982117 -11.4183454514 40.0758323669
-40.6064605713 -11.4222784042 39.8801231384
-40.6207580566 -11.4279537201 39.6855163574
-40.6342124939 -11.4333639145 39.4907531738
-40.6385498047 -11.4359035492 39.2941780090
-40.6269989014 -11.4334449768 39.0944137573
-40.5973548889 -11.4252920151 38.8909835815
-40.5528030396 -11.4124479294 38.6844902039
-40.4999580383 -11.3969955444 38.4762535095
-40.4456367493 -11.3810787201 38.2676391602
-40.3948822021 -11.3662843704 38.0596771240
-40.3508529663 -11.3536052704 37.8530120850
-40.3152313232 -11.3435754776 37.6480140686
-40.2883262634 -11.3362865448 37.4447517395
-40.2689743042 -11.3313741684 37.2430114746
-40.2543334961 -11.3279457092 37.0422172546
-40.2396507263 -11.3245029449 36.8413887024
-40.2190856934 -11.3192100525 36.6393051147
-40.1883354187 -11.3107128143 36.4350509644
-40.1468505859 -11.2988386154 36.2285003662
-40.0972747803 -11.2844190598 36.0201797485
-40.0429573059 -11.2685079575 35.8107872009
-39.9865036011 -11.2519245148 35.6008605957
-39.9300231934 -11.2353334427 35.3908500671
-39.8754005432 -11.2193279266 35.1811523438
-39.8236579895 -11.2042284012 34.9719886780
-39.7744750977 -11.1899347305 34.7633018494
-39.7266654968 -11.1760740280 34.5548400879
-39.6789588928 -11.1622457504 34.3463287354
-39.6303215027 -11.1481256485 34.1375465393
-39.5796165466 -11.1333541870 33.9282417297
-39.5249824524 -11.1173486710 33.7180061340
-39.4638519287 -11.0992994308 33.5062751770
-39.3943405151 -11.0786142349 33.2926139832
-39.3175811768 -11.0556488037 33.0772628784
-39.2391471863 -11.0321569443 32.8614311218
-39.1681594849 -11.0110101700 32.6471366882
-39.1142120361 -10.9952220917 32.4365234375
-39.0834236145 -10.9867210388 32.2309913635
-39.0756111145 -10.9854469299 32.0305366516
-39.0842437744 -10.9893455505 31.8337497711
-39.0993347168 -10.9952754974 31.6384162903
-39.1112823486 -11.0002164841 31.4423904419
-39.1134109497 -11.0020694733 31.2441539764
-39.1025390625 -10.9998331070 31.0429668427
-39.0785827637 -10.9934816360 30.8387870789
-39.0439987183 -10.9837875366 30.6321449280
-39.0028953552 -10.9720439911 30.4239597321
-38.9598541260 -10.9596900940 30.2152690887
-38.9186363220 -10.9479103088 30.0069332123
-38.8809356689 -10.9372377396 29.7993469238
-38.8456306458 -10.9273195267 29.5922584534
-38.8094253540 -10.9171171188 29.3849086761
-38.7688827515 -10.9055509567 29.1764926910
-38.7224235535 -10.8921251297 28.9666385651
-38.6708145142 -10.8770790100 28.7555084229
-38.6161613464 -10.8610773087 28.5435905457
-38.5608673096 -10.8448734283 28.3314437866
-38.5073547363 -10.8292303085 28.1196346283
-38.4582557678 -10.8149766922 27.9087944031
-38.4159469604 -10.8028583527 27.6994915009
-38.3812370300 -10.7931289673 27.4919319153
-38.3522033691 -10.7851867676 27.2856750488
-38.3240051270 -10.7775068283 27.0795726776
-38.2898712158 -10.7679595947 26.8720016479
-38.2432212830 -10.7544784546 26.6613674164
-38.1804809570 -10.7359371185 26.4467849731
-38.1032333374 -10.7128353119 26.2286014557
-38.0182151794 -10.6872892380 26.0084266663
-37.9348373413 -10.6622619629 25.7885303497
-37.8616180420 -10.6404285431 25.5709934235
-37.8034477234 -10.6233272552 25.3570308685
-37.7609214783 -10.6111450195 25.1468200684
-37.7312736511 -10.6030130386 24.9397125244
-37.7098655701 -10.5974721909 24.7345905304
-37.6914443970 -10.5928707123 24.5301704407
-37.6711883545 -10.5876913071 24.3252639771
-37.6457557678 -10.5808868408 24.1190395355
-37.6143074036 -10.5721893311 23.9112739563
-37.5786895752 -10.5621814728 23.7024173737
-37.5424613953 -10.5519828796 23.4933547974
-37.5091934204 -10.5427150726 23.2849807739
-37.4812889099 -10.5351324081 23.0779056549
-37.4596290588 -10.5295143127 22.8723640442
-37.4436073303 -10.5256690979 22.6682128906
-37.4309654236 -10.5228862762 22.4648933411
-37.4176406860 -10.5198907852 22.2613754272
-37.3982238770 -10.5149774551 22.0562782288
-37.3673439026 -10.5064620972 21.8482170105
-37.3215827942 -10.4932680130 21.6362895966
-37.2608032227 -10.4753551483 21.4204349518
-37.1882629395 -10.4537439346 21.2014598846
-37.1092872620 -10.4301118851 20.9807167053
-37.0290451050 -10.4060802460 20.7595348358
-36.9506416321 -10.3826293945 20.5387172699
-36.8746986389 -10.3599519730 20.3184299469
-36.8001785278 -10.3377218246 20.0984058380
-36.7255783081 -10.3154668808 19.8782539368
-36.6498870850 -10.2928714752 19.6577129364
-36.5730247498 -10.2699079514 19.4367542267
-36.4954910278 -10.2467327118 19.2155075073
-36.4177055359 -10.2234792709 18.9940853119
-36.3400650024 -10.2002735138 18.7725925446
-36.2636489868 -10.1774520874 18.5513153076
-36.1901931763 -10.1555614471 18.3307170868
-36.1210632324 -10.1350317001 18.1111698151
-36.0564689636 -10.1159286499 17.8927383423
-35.9956283569 -10.0980043411 17.6752223969
-35.9373168945 -10.0808763504 17.4582977295
-35.8802566528 -10.0641422272 17.2416267395
-35.8230476379 -10.0473613739 17.0248336792
-35.7639427185 -10.0299854279 16.8074417114
-35.7013244629 -10.0115060806 16.5890121460
-35.6349639893 -9.9918518066 16.3694725037
-35.5669288635 -9.9716711044 16.1493778229
-35.5009040833 -9.9521226883 15.9297380447
-35.4401817322 -9.9342412949 15.7114582062
-35.3854904175 -9.9182548523 15.4947500229
-35.3339576721 -9.9032611847 15.2788314819
-35.2798690796 -9.8874664307 15.0621328354
-35.2170372009 -9.8689241409 14.8429327011
-35.1414985657 -9.8463897705 14.6201124191
-35.0529670715 -9.8197717667 14.3935670853
-34.9544487000 -9.7900180817 14.1641120911
-34.8513565063 -9.7588272095 13.9332380295
-34.7505760193 -9.7283639908 13.7028684616
-34.6582984924 -9.7005739212 13.4747486115
-34.5766067505 -9.6761093140 13.2494792938
-34.5019264221 -9.6538486481 13.0260753632
-34.4275321960 -9.6316795349 12.8026466370
-34.3480415344 -9.6079082489 12.5776653290
-34.2620811462 -9.5821065903 12.3507318497
-34.1715583801 -9.5548715591 12.1223764420
-34.0787925720 -9.5269317627 11.8932523727
-33.9840774536 -9.4983806610 11.6634397507
-33.8857421875 -9.4686946869 11.4324560165
-33.7827301025 -9.4375381470 11.1999874115
-33.6770210266 -9.4055356979 10.9665975571
-33.5733795166 -9.3741836548 10.7336578369
-33.4770622253 -9.3451337814 10.5026960373
-33.3921432495 -9.3196649551 10.2749071121
-33.3210945129 -9.2985544205 10.0510349274
-33.2644271851 -9.2819633484 9.8312568665
-33.2199974060 -9.2692165375 9.6149749756
-33.1831321716 -9.2588462830 9.4008426666
-33.1479034424 -9.2489910126 9.1871347427
-33.1089668274 -9.2379703522 8.9722814560
-33.0636520386 -9.2249469757 8.7554883957
-33.0138702393 -9.2105216980 8.5373067856
-32.9663200378 -9.1967973709 8.3197135925
-32.9298934937 -9.1865663528 8.1053524017
-32.9118156433 -9.1821002960 7.8963999748
-32.9155616760 -9.1844882965 7.6939263344
-32.9410133362 -9.1936960220 7.4979419708
-32.9849891663 -9.2087211609 7.3075356483
-33.0410079956 -9.2275295258 7.1207976341
-33.0997810364 -9.2472019196 6.9349565506
-33.1518669128 -9.2647733688 6.7471690178
-33.1914825439 -9.2784280777 6.5556740761
-33.2187271118 -9.2881956100 6.3604755402
-33.2386741638 -9.2956724167 6.1630902290
-33.2584457397 -9.3030939102 5.9656715393
-33.2844429016 -9.3124704361 5.7701716423
-33.3208007813 -9.3250999451 5.5778646469
-33.3687973022 -9.3413858414 5.3891654015
-33.4268379211 -9.3608245850 5.2036070824
-33.4909362793 -9.3821659088 5.0199818611
-33.5558433533 -9.4037609100 4.8366851807
-33.6165046692 -9.4240217209 4.6521553993
-33.6691856384 -9.4417772293 4.4652295113
-33.7118492126 -9.4563846588 4.2752571106
-33.7441406250 -9.4677362442 4.0821089745
-33.7677612305 -9.4763622284 3.8862931728
-33.7869262695 -9.4835910797 3.6891112328
-33.8080177307 -9.4914236069 3.4925506115
-33.8378486633 -9.5020017624 3.2987527847
-33.8811607361 -9.5168113708 3.1092245579
-33.9384765625 -9.5360193253 2.9241585732
-34.0054206848 -9.5582494736 2.7422020435
-34.0737228394 -9.5809059143 2.5607569218
-34.1335067749 -9.6008872986 2.3766953945
-34.1765098572 -9.6155986786 2.1873755455
-34.1989326477 -9.6238479614 1.9915548563
-34.2020263672 -9.6260280609 1.7895911932
-34.1902809143 -9.6235494614 1.5828809738
-34.1693649292 -9.6181898117 1.3732092381
-34.1453323364 -9.6118535995 1.1625045538
-34.1244926453 -9.6065196991 0.9527864456
-34.1125602722 -9.6039810181 0.7459040880
-34.1130867004 -9.6053562164 0.5430248976
-34.1265029907 -9.6107778549 0.3443097472
-34.1507568359 -9.6196012497 0.1491210461
-82.6998901367 -24.9504585266 1.0234154463
-12.7573423386 -54.4364356995 70.2898101807
-12.7638969421 -54.4606094360 70.1031036377
-12.7737331390 -54.4999046326 69.9176940918
-12.7840566635 -54.5414428711 69.7325057983
-12.7928047180 -54.5757293701 69.5467453003
-12.7992029190 -54.5991859436 69.3600997925
-12.8033847809 -54.6124382019 69.1725921631
-12.8057088852 -54.6171302795 68.9843597412
-12.8063173294 -54.6139144897 68.7954254150
-12.8051233292 -54.6024017334 68.6057586670
-12.8020925522 -54.5824203491 68.4153137207
-12.7975101471 -54.5552940369 68.2242050171
-12.7919883728 -54.5238342285 68.0326690674
-12.7862319946 -54.4912986755 67.8409881592
-12.7808761597 -54.4606018066 67.6494293213
-12.7765188217 -54.4345054626 67.4582519531
-12.7738275528 -54.4160804749 67.2677383423
-12.7735090256 -54.4085922241 67.0782165527
-12.7761602402 -54.4147872925 66.8899536133
-12.7820549011 -54.4359283447 66.7031021118
-12.7908840179 -54.4705886841 66.5175552368
-12.8015480042 -54.5137062073 66.3328399658
-12.8122711182 -54.5571022034 66.1482086182
-12.8211545944 -54.5920143127 65.9627990723
-12.8268709183 -54.6123390198 65.7760086060
-12.8290939331 -54.6165657043 65.5876617432
-12.8284330368 -54.6074981689 65.3980102539
-12.8260278702 -54.5903930664 65.2075424194
-12.8230981827 -54.5708656311 65.0168075562
-12.8206624985 -54.5536231995 64.8262710571
-12.8194494247 -54.5420074463 64.6362686157
-12.8199014664 -54.5380630493 64.4470291138
-12.8222055435 -54.5426597595 64.2586517334
-12.8262786865 -54.5554122925 64.0711135864
-12.8317184448 -54.5744590759 63.8842277527
-12.8378219604 -54.5965652466 63.6976776123
-12.8437719345 -54.6179733276 63.5110778809
-12.8488464355 -54.6353378296 63.3240737915
-12.8524026871 -54.6457099915 63.1363410950
-12.8537139893 -54.6457252502 62.9475173950
-12.8519906998 -54.6317596436 62.7571907043
-12.8468170166 -54.6018829346 62.5651321411
-12.8386859894 -54.5583724976 62.3715553284
-12.8291978836 -54.5086059570 62.1772384644
-12.8206777573 -54.4632949829 61.9833412170
-12.8152904510 -54.4324302673 61.7909736633
-12.8140916824 -54.4208717346 61.6006927490
-12.8165588379 -54.4262161255 61.4122734070
-12.8208551407 -54.4399948120 61.2247962952
-12.8246221542 -54.4513320923 61.0370559692
-12.8258781433 -54.4510917664 60.8480148315
-12.8236007690 -54.4345550537 60.6571159363
-12.8177843094 -54.4017028809 60.4643249512
-12.8092098236 -54.3561325073 60.2700271606
-12.7992630005 -54.3042373657 60.0749397278
-12.7897815704 -54.2544822693 59.8800277710
-12.7826604843 -54.2156028748 59.6863212585
-12.7793016434 -54.1940765381 59.4945945740
-12.7802743912 -54.1925239563 59.3051872253
-12.7853155136 -54.2097320557 59.1180000305
-12.7935266495 -54.2415580750 58.9325637817
-12.8036050797 -54.2819976807 58.7481956482
-12.8140535355 -54.3241462708 58.5640754700
-12.8233032227 -54.3607673645 58.3793296814
-12.8298015594 -54.3847007751 58.1930809021
-12.8322391510 -54.3899040222 58.0045700073
-12.8299875259 -54.3734817505 57.8134002686
-12.8235387802 -54.3376998901 57.6198158264
-12.8145685196 -54.2902870178 57.4247398376
-12.8054552078 -54.2422103882 57.2295150757
-12.7985448837 -54.2042922974 57.0354995728
-12.7956094742 -54.1847114563 56.8437347412
-12.7976274490 -54.1879768372 56.6548347473
-12.8046607971 -54.2143783569 56.4688682556
-12.8157482147 -54.2594795227 56.2853164673
-12.8290042877 -54.3145828247 56.1030960083
-12.8420763016 -54.3688430786 55.9208297729
-12.8527307510 -54.4119529724 55.7371749878
-12.8592910767 -54.4361763000 55.5511131287
-12.8609199524 -54.4376487732 55.3620986938
-12.8578615189 -54.4174995422 55.1702423096
-12.8515405655 -54.3822975159 54.9763679504
-12.8442459106 -54.3425979614 54.7818450928
-12.8383302689 -54.3092575073 54.5881156921
-12.8353500366 -54.2894668579 54.3961524963
-12.8357105255 -54.2850799561 54.2062301636
-12.8388929367 -54.2937202454 54.0180549622
-12.8438320160 -54.3104629517 53.8309822083
-12.8490343094 -54.3284187317 53.6440849304
-12.8526678085 -54.3391380310 53.4562187195
-12.8530635834 -54.3349189758 53.2663040161
-12.8495006561 -54.3124313354 53.0738563538
-12.8425884247 -54.2744865417 52.8792266846
-12.8338871002 -54.2282829285 52.6833992004
-12.8251686096 -54.1820030212 52.4874954224
-12.8178853989 -54.1423416138 52.2924613953
-12.8129959106 -54.1137275696 52.0989303589
-12.8109893799 -54.0984115601 51.9072418213
-12.8119535446 -54.0968055725 51.7174797058
-12.8156929016 -54.1080093384 51.5295410156
-12.8217859268 -54.1300773621 51.3431701660
-12.8295297623 -54.1597633362 51.1579170227
-12.8378314972 -54.1920280457 50.9730682373
-12.8452634811 -54.2202720642 50.7876701355
-12.8503398895 -54.2376518250 50.6007118225
-12.8519220352 -54.2388992310 50.4114036560
-12.8495883942 -54.2220726013 50.2194252014
-12.8438892365 -54.1897125244 50.0251274109
-12.8363428116 -54.1488265991 49.8295173645
-12.8290367126 -54.1090431213 49.6340141296
