-41.8036308289 -12.2288322449 42.5598716736
-41.7024879456 -12.1949930191 42.3455085754
-41.6023864746 -12.1614866257 42.1311874390
-41.5003852844 -12.1273698807 41.9164085388
-41.3983039856 -12.0932254791 41.7014770508
-41.3024902344 -12.0610923767 41.4874992371
-41.2209587097 -12.0335369110 41.2758712769
-41.1600723267 -12.0126056671 41.0677337646
-41.1224746704 -11.9991416931 40.8635864258
-41.1072654724 -11.9928598404 40.6633186340
-41.1119689941 -11.9929666519 40.4665336609
-41.1338500977 -11.9985828400 40.2727851868
-41.1696434021 -12.0086622238 40.0815277100
-41.2149581909 -12.0217952728 39.8920059204
-41.2642478943 -12.0362052917 39.7032394409
-41.3106117249 -12.0496759415 39.5140037537
-41.3450584412 -12.0593233109 39.3226737976
-41.3567733765 -12.0616807938 39.1272735596
-41.3355789185 -12.0534791946 38.9259147644
-41.2760009766 -12.0329627991 38.7175407410
-41.1813926697 -12.0012083054 38.5026893616
-41.0652923584 -11.9625558853 38.2837715149
-40.9471588135 -11.9232511520 38.0643272400
-40.8441581726 -11.8888006210 37.8475189209
-40.7650222778 -11.8620061874 37.6349868774
-40.7101478577 -11.8429937363 37.4268569946
-40.6753501892 -11.8304233551 37.2223892212
-40.6549491882 -11.8224725723 37.0205650330
-40.6432571411 -11.8173151016 36.8203392029
-40.6354370117 -11.8134002686 36.6208190918
-40.6276817322 -11.8095054626 36.4212913513
-40.6162719727 -11.8044376373 36.2210578918
-40.5963096619 -11.7966270447 36.0191764832
-40.5619583130 -11.7841968536 35.8145179749
-40.5092277527 -11.7658700943 35.6062889099
-40.4396629333 -11.7421407700 35.3947563171
-40.3613586426 -11.7156057358 35.1814460754
-40.2858238220 -11.6899585724 34.9685630798
-40.2230834961 -11.6684169769 34.7580566406
-40.1781883240 -11.6526021957 34.5509376526
-40.1502838135 -11.6422376633 34.3470687866
-40.1339378357 -11.6355838776 34.1454238892
-40.1216392517 -11.6302280426 33.9445419312
-40.1061706543 -11.6238546371 33.7430114746
-40.0827178955 -11.6149187088 33.5398788452
-40.0508193970 -11.6032714844 33.3350334167
-40.0150642395 -11.5903873444 33.1293716431
-39.9829521179 -11.5786705017 32.9243850708
-39.9608383179 -11.5701637268 32.7213516235
-39.9511032104 -11.5656290054 32.5207710266
-39.9520416260 -11.5645189285 32.3223190308
-39.9591903687 -11.5654039383 32.1251144409
-39.9662284851 -11.5662527084 31.9278907776
-39.9649925232 -11.5644464493 31.7289867401
-39.9456748962 -11.5568351746 31.5263843536
-39.8989257813 -11.5404186249 31.3181362152
-39.8204040527 -11.5138044357 31.1033039093
-39.7151794434 -11.4786167145 30.8828678131
-39.5979309082 -11.4395685196 30.6598091125
-39.4883384705 -11.4029769897 30.4381790161
-39.4046707153 -11.3747072220 30.2217922211
-39.3577651978 -11.3582382202 30.0129508972
-39.3471298218 -11.3534097672 29.8116226196
-39.3619613647 -11.3567571640 29.6156120300
-39.3872566223 -11.3634643555 29.4218139648
-39.4098472595 -11.3693027496 29.2274684906
-39.4203758240 -11.3712682724 29.0305919647
-39.4130363464 -11.3674993515 28.8299331665
-39.3862991333 -11.3575019836 28.6251277924
-39.3437614441 -11.3424310684 28.4169101715
-39.2927856445 -11.3246517181 28.2068252563
-39.2408943176 -11.3065776825 27.9964714050
-39.1922950745 -11.2895603180 27.7867546082
-39.1470298767 -11.2736129761 27.5776882172
-39.1030426025 -11.2580747604 27.3688335419
-39.0587463379 -11.2424373627 27.1598491669
-39.0134696960 -11.2264842987 26.9505882263
-38.9665527344 -11.2100048065 26.7409038544
-38.9173507690 -11.1927900314 26.5306510925
-38.8664474487 -11.1750297546 26.3199577332
-38.8170890808 -11.1577653885 26.1095314026
-38.7758102417 -11.1430940628 25.9008197784
-38.7508926392 -11.1336746216 25.6956748962
-38.7480125427 -11.1313333511 25.4953899384
-38.7657432556 -11.1356086731 25.2996864319
-38.7943077087 -11.1433639526 25.1064186096
-38.8184356689 -11.1496953964 24.9121856689
-38.8223686218 -11.1495409012 24.7134361267
-38.7951049805 -11.1393680573 24.5076522827
-38.7339935303 -11.1183252335 24.2941761017
-38.6441116333 -11.0880432129 24.0740947723
-38.5343627930 -11.0513811111 23.8493766785
-38.4154777527 -11.0117826462 23.6224308014
-38.3014297485 -10.9737367630 23.3964309692
-38.2088584900 -10.9425868988 23.1752033234
-38.1513900757 -10.9227104187 22.9619178772
-38.1337089539 -10.9156112671 22.7577209473
-38.1503257751 -10.9195261002 22.5614204407
-38.1880111694 -10.9302091599 22.3700141907
-38.2284927368 -10.9417905807 22.1792984009
-38.2511253357 -10.9476394653 21.9844665527
-38.2374229431 -10.9418182373 21.7811679840
-38.1775245667 -10.9211578369 21.5670242310
-38.0750007629 -10.8868064880 21.3427867889
-37.9464111328 -10.8440828323 21.1122741699
-37.8156318665 -10.8006544113 20.8810749054
-37.7056579590 -10.7639064789 20.6546287537
-37.6311149597 -10.7385387421 20.4364452362
-37.5949172974 -10.7254877090 20.2272891998
-37.5896568298 -10.7223739624 20.0254611969
-37.6010589600 -10.7246122360 19.8276062012
-37.6125564575 -10.7268819809 19.6297817230
-37.0462303162 -10.5364007950 18.2881526947
-37.0348205566 -10.5313081741 18.0843772888
-37.0179290771 -10.5244541168 17.8792381287
-37.0053939819 -10.5190000534 17.6751403809
-21.0176792145 35.7524223328 69.1611099243
-21.0134658813 35.7437286377 68.9632949829
-21.0011405945 35.7223014832 68.7640151978
-20.9816074371 35.6895561218 68.5633926392
-20.9570789337 35.6489715576 68.3618087769
-20.9309158325 35.6058197021 68.1598587036
-20.9068298340 35.5659294128 67.9582214355
-20.8882713318 35.5347137451 67.7575378418
-20.8786659241 35.5175514221 67.5584716797
-20.8816719055 35.5201835632 67.3617401123
-20.9000606537 35.5469703674 67.1679077148
-20.9336776733 35.5976600647 66.9769973755
-20.9787330627 35.6663055420 66.7883453369
-21.0296268463 35.7441215515 66.6009063721
-21.0816173553 35.8236541748 66.4137878418
-21.1318740845 35.9004745483 66.2264480591
-21.1785945892 35.9717369080 66.0385284424
-21.2200260162 36.0347023010 65.8496627808
-21.2549171448 36.0873985291 65.6595916748
-21.2836284637 36.1303939819 65.4683609009
-21.3083190918 36.1670761108 65.2763824463
-21.3318119049 36.2018814087 65.0842132568
-21.3562488556 36.2381668091 64.8922729492
-21.3826255798 36.2774963379 64.7007827759
-21.4113883972 36.3205757141 64.5098342896
-21.4432640076 36.3685417175 64.3195877075
-21.4791660309 36.4228324890 64.1302337646
-21.5191650391 36.4835548401 63.9418144226
-21.5617504120 36.5483398438 63.7540245056
-21.6042919159 36.6130523682 63.5663108826
-21.6440124512 36.6733436584 63.3780937195
-21.6783199310 36.7251319885 63.1888008118
-21.7047958374 36.7646255493 62.9979019165
-21.7219562531 36.7894935608 62.8050460815
-21.7306575775 36.8010787964 62.6103897095
-21.7346572876 36.8052825928 62.4147186279
-21.7393016815 36.8105010986 62.2191886902
-21.7492542267 36.8240547180 62.0248298645
-21.7670402527 36.8499069214 61.8322219849
-21.7930831909 36.8887214661 61.6414794922
-21.8263015747 36.9388046265 61.4524002075
-21.8643798828 36.9965209961 61.2644805908
-21.9040832520 37.0567893982 61.0770072937
-21.9420547485 37.1143417358 60.8892250061
-21.9756050110 37.1649513245 60.7005119324
-22.0030193329 37.2059249878 60.5104598999
-22.0237083435 37.2363395691 60.3189086914
-22.0384578705 37.2574272156 60.1260185242
-22.0494117737 37.2725524902 59.9322700500
-22.0595932007 37.2864685059 59.7383537292
-22.0723953247 37.3044967651 59.5450744629
-22.0911979675 37.3319511414 59.3532333374
-22.1187229156 37.3731040955 59.1635017395
-22.1560916901 37.4297142029 58.9761772156
-22.2022743225 37.5001640320 58.7910499573
-22.2543449402 37.5798645020 58.6074447632
-22.3080215454 37.6620864868 58.4243392944
-22.3581600189 37.7387542725 58.2404899597
-22.3996601105 37.8018569946 58.0546302795
-22.4286632538 37.8453369141 57.8657875061
-22.4434318542 37.8664588928 57.6734809875
-22.4450130463 37.8668746948 57.4779243469
-22.4378814697 37.8536071777 57.2801856995
-22.4294967651 37.8383674622 57.0821075439
-22.4278793335 37.8337554932 56.8857040405
-22.4382953644 37.8480453491 56.6923332214
-22.4611606598 37.8818855286 56.5021476746
-22.4924201965 37.9289093018 56.3141479492
-22.5258464813 37.9793395996 56.1267700195
-22.5556316376 38.0240516663 55.9385223389
-22.5780220032 38.0571479797 55.7484169006
-22.5918083191 38.0767288208 55.5561180115
-22.5981121063 38.0845642090 55.3618888855
-22.5998115540 38.0851631165 55.1664505005
-22.6007518768 38.0845718384 54.9708099365
-22.6049957275 38.0891685486 54.7760391235
-22.6162033081 38.1047019958 54.5831184387
-22.6371402740 38.1355209351 54.3928184509
-22.6691150665 38.1836738586 54.2055168152
-22.7113819122 38.2479896545 54.0210609436
-22.7608833313 38.3236770630 53.8386497498
-22.8127212524 38.4030303955 53.6569824219
-22.8612804413 38.4772377014 53.4745330811
-22.9016990662 38.5386581421 53.2899551392
-22.9311294556 38.5828208923 53.1024322510
-22.9493942261 38.6094436646 52.9118843079
-22.9588394165 38.6222152710 52.7189178467
-22.9636707306 38.6277351379 52.5246772766
-22.9690914154 38.6341896057 52.3306045532
-22.9801483154 38.6494903564 52.1381187439
-22.9999961853 38.6786041260 51.9481353760
-23.0282936096 38.7209854126 51.7605857849
-23.0611095428 38.7704696655 51.5743827820
-23.0928745270 38.8183021545 51.3879432678
-23.1190719604 38.8573913574 51.1999740601
-23.1379394531 38.8849678040 51.0099411011
-23.1503505707 38.9023971558 50.8180732727
-23.1584510803 38.9130592346 50.6249694824
-23.1643772125 38.9203033447 50.4312438965
-23.1698970795 38.9269104004 50.2374038696
-23.1768302917 38.9357414246 50.0439834595
-23.1873836517 38.9502525330 49.8516387939
-23.2038764954 38.9741020203 49.6610717773
-23.2279968262 39.0099296570 49.4728050232
-23.2600307465 39.0581893921 49.2869529724
-23.2985858917 39.1166954041 49.1031227112
-23.3407993317 39.1809539795 48.9204750061
-23.3829460144 39.2451057434 48.7378997803
-23.4212894440 39.3032798767 48.5542602539
-23.4530220032 39.3510742188 48.3686828613
-23.4768295288 39.3864135742 48.1807479858
-23.4928092957 39.4094581604 47.9904556274
-23.5020027161 39.4218406677 47.7980957031
-23.5060024261 39.4260635376 47.6041412354
-23.5068492889 39.4253349304 47.4092063904
-23.5070018768 39.4235115051 47.2140502930
-23.5091400146 39.4248085022 47.0195045471
-23.5157966614 39.4332046509 46.8263740540
-23.5289115906 39.4517517090 46.6352882385
-23.5494422913 39.4819450378 46.4465751648
-23.5769214630 39.5230598450 46.2601051331
-23.6092586517 39.5718078613 46.0752410889
-23.6431293488 39.6229667664 45.8909378052
-23.6750793457 39.6711044312 45.7060852051
-23.7028255463 39.7126388550 45.5199394226
-23.7261638641 39.7472534180 45.3324279785
-23.7469558716 39.7778625488 45.1441345215
-23.7679939270 39.8088569641 44.9559593201
-23.7912940979 39.8434104919 44.7685623169
-23.8170108795 39.8817596436 44.5820083618
-23.8439083099 39.9219627380 44.3958930969
-23.8708381653 39.9622192383 44.2098426819
-23.8976421356 40.0022850037 44.0238037109
-23.9248123169 40.0429191589 43.8379440308
-23.9526405334 40.0845870972 43.6523551941
-23.9807662964 40.1267242432 43.4669227600
-24.0082206726 40.1678123474 43.2813224792
-24.0339488983 40.2061843872 43.0951957703
-24.0577259064 40.2414894104 42.9084587097
-24.0810050964 40.2760124207 42.7215957642
-24.1068897247 40.3146324158 42.5356712341
-24.1388263702 40.3627624512 42.3518676758
-24.1785068512 40.4230613708 42.1707954407
-24.2242908478 40.4929580688 41.9919128418
-24.2715549469 40.5651741028 41.8136405945
-24.3148555756 40.6311683655 41.6340904236
-24.3501319885 40.6845512390 41.4518394470
-24.3755092621 40.7223777771 41.2662048340
-24.3910923004 40.7448158264 41.0771789551
-24.3986339569 40.7546119690 40.8853530884
-24.4012470245 40.7566680908 40.6917953491
-24.4028472900 40.7571258545 40.4978752136
-24.4073543549 40.7621574402 40.3049812317
-24.4178848267 40.7766532898 40.1142387390
-24.4359817505 40.8030395508 39.9262199402
-24.4611186981 40.8404922485 39.7407608032
-24.4909172058 40.8852691650 39.5570335388
-24.5222835541 40.9325141907 39.3739318848
-24.5527153015 40.9782867432 39.1905555725
-24.5807743073 41.0203361511 39.0063781738
-24.6056823730 41.0574340820 38.8211097717
-24.6269969940 41.0888824463 38.6345748901
-24.6451091766 41.1152954102 38.4469032288
-24.6619834900 41.1397666931 38.2588119507
-24.6809787750 41.1675720215 38.0715332031
-24.7054500580 41.2039794922 37.8863182068
-24.7371311188 41.2517242432 37.7038383484
-24.7753562927 41.3097534180 37.5238609314
-24.8172931671 41.3736190796 37.3453598022
-24.8589649200 41.4370689392 37.1668472290
-24.8966197968 41.4942054749 36.9869079590
-24.9278964996 41.5413169861 36.8046417236
-24.9521980286 41.5774650574 36.6197929382
-24.9704666138 41.6041336060 36.4326972961
-24.9849662781 41.6248741150 36.2441978455
-24.9991760254 41.6451606750 36.0556144714
-25.0174407959 41.6718215942 35.8686065674
-25.0440807343 41.7116508484 35.6848640442
-25.0822525024 41.7696037292 35.5056228638
-25.1327800751 41.8469810486 35.3312530518
-25.1933364868 41.9401245117 35.1608886719
-25.2586421967 42.0407371521 34.9925117493
-25.3221302032 42.1384887695 34.8235664368
-25.3781280518 42.2244720459 34.6518249512
-25.4232330322 42.2933311462 34.4759216309
-25.4567794800 42.3440208435 34.2955551147
-25.4809131622 42.3799171448 34.1115379333
-25.4999351501 42.4077758789 33.9255371094
-25.5186405182 42.4351348877 33.7394485474
-25.5407752991 42.4678916931 33.5547599792
-25.5688304901 42.5099525452 33.3724899292
-25.6047115326 42.5643157959 33.1934165955
-25.6496887207 42.6329803467 33.0180816650
-25.7031497955 42.7149848938 32.8462715149
-25.7614269257 42.8045616150 32.6765289307
-25.8182754517 42.8918914795 32.5063323975
-25.8670806885 42.9665794373 32.3329849243
-25.9034290314 43.0216865540 32.1546554565
-25.9265308380 43.0559654236 31.9709720612
-25.9391517639 43.0737686157 31.7830276489
-25.9466171265 43.0834655762 31.5929756165
-25.9554786682 43.0953598022 31.4035110474
-25.9721031189 43.1194572449 31.2172775269
-26.0012283325 43.1632118225 31.0362701416
-26.0446643829 43.2294616699 30.8612880707
-26.1005249023 43.3152503967 30.6915931702
-26.1637439728 43.4126091003 30.5251083374
-26.2279911041 43.5115852356 30.3591957092
-26.2878665924 43.6036911011 30.1915817261
-26.3401031494 43.6837882996 30.0208721161
-26.3836879730 43.7502784729 29.8466053009
-26.4195861816 43.8046875000 29.6691665649
-26.4503383636 43.8510055542 29.4896068573
-26.4793777466 43.8946304321 29.3093795776
-26.5102539063 43.9411468506 29.1299991608
-26.5459823608 43.9952926636 28.9527702332
-26.5883750916 44.0599174500 28.7784881592
-26.6373748779 44.1349296570 28.6071529388
-26.6908531189 44.2169876099 28.4378662109
-26.7451438904 44.3003234863 28.2690505981
-26.7961063385 44.3784294128 28.0989036560
-26.8403320313 44.4459381104 27.9259223938
-26.8760662079 44.5000991821 27.7493152618
-26.9035587311 44.5413017273 27.5691642761
-26.9246768951 44.5724792480 27.3862590790
-26.9421977997 44.5980033875 27.2018070221
-26.9593143463 44.6228866577 27.0172061920
-26.9792957306 44.6522789001 26.8339099884
-27.0048618317 44.6904525757 26.6531391144
-27.0371456146 44.7391929626 26.4754180908
-27.0749130249 44.7965545654 26.3002185822
-27.1148681641 44.8573608398 26.1260833740
-27.1531085968 44.9154701233 25.9512615204
-27.1867847443 44.9664001465 25.7744598389
-27.2148170471 45.0084571838 25.5951747894
-27.2375545502 45.0421867371 25.4135475159
-27.2561893463 45.0694656372 25.2300987244
-27.2726688385 45.0933570862 25.0457000732
-27.2899341583 45.1184844971 24.8616924286
-27.3116626740 45.1506271362 24.6797618866
-27.3409461975 45.1946563721 24.5013446808
-27.3786449432 45.2519187927 24.3268642426
-27.4228305817 45.3193855286 24.1554603577
-27.4699707031 45.3914985657 23.9855213165
-27.5167484283 45.4630432129 23.8155136108
-27.5610885620 45.5307540894 23.6444759369
-27.6020221710 45.5931091309 23.4719429016
-27.6390914917 45.6493873596 23.2976913452
-27.6719856262 45.6991004944 23.1215591431
-27.7004623413 45.7418670654 22.9434185028
-27.7243309021 45.7773857117 22.7631645203
-27.7437038422 45.8058319092 22.5808334351
-27.7595520020 45.8287353516 22.3968677521
-27.7741737366 45.8497123718 22.2123508453
-27.7910289764 45.8742027283 22.0289211273
-27.8139705658 45.9082641602 21.8484268188
-27.8461780548 45.9569015503 21.6724128723
-27.8890342712 46.0222930908 21.5015716553
-27.9412097931 46.1023368835 21.3353042603
-27.9983501434 46.1901931763 21.1715450287
-28.0538825989 46.2755241394 21.0071353912
-28.1009807587 46.3475875854 20.8387622833
-28.1349925995 46.3990669250 20.6641368866
-28.1550140381 46.4285430908 20.4827747345
-28.1638126373 46.4403686523 20.2959728241
-28.1663284302 46.4423027039 20.1061096191
-28.1678409576 46.4426689148 19.9157524109
-28.1727218628 46.4483261108 19.7270431519
-28.1839408875 46.4639549255 19.5414600372
-28.2029685974 46.4918708801 19.3597526550
-28.2296733856 46.5318603516 19.1818790436
-28.2623100281 46.5811843872 19.0070056915
-28.2980194092 46.6353416443 18.8337287903
-28.3337745667 46.6895675659 18.6605472565
-28.3673820496 46.7404212952 18.4863700867
-28.3979759216 46.7865333557 18.3107547760
-28.4258079529 46.8283004761 18.1338157654
-28.4516029358 46.8668632507 17.9559059143
-28.4760055542 46.9032363892 17.7773456573
-28.4994335175 46.9380798340 17.5983448029
-28.5222091675 46.9718894958 17.4190559387
-28.5446376801 47.0051612854 17.2396373749
-28.5671443939 47.0385551453 17.0603027344
-28.5903606415 47.0730667114 16.8813743591
-28.6149044037 47.1096649170 16.7031707764
-28.6409568787 47.1486358643 16.5257892609
-28.6682033539 47.1894874573 16.3490753174
-28.6961288452 47.2314109802 16.1727676392
-28.7241287231 47.2734489441 15.9965534210
-28.7513542175 47.3142700195 15.8199968338
-28.7768249512 47.3523292542 15.6425848007
-28.7997989655 47.3864631653 15.4639263153
-28.8198451996 47.4159889221 15.2837867737
-28.8366432190 47.4404029846 15.1019887924
-28.8500804901 47.4595336914 14.9184637070
-28.8607406616 47.4742965698 14.7335033417
-28.8701477051 47.4870834351 14.5478992462
-28.8805580139 47.5014495850 14.3628377914
-28.8945484161 47.5214500427 14.1796827316
-28.9144763947 47.5507965088 13.9996967316
-28.9417190552 47.5916481018 13.8236303329
-28.9759025574 47.6434211731 13.6513099670
-29.0148181915 47.7026443481 13.4815845490
-29.0551738739 47.7641296387 13.3127117157
-29.0933780670 47.8222351074 13.1427736282
-29.1257972717 47.8712348938 12.9698133469
-29.1489562988 47.9056663513 12.7919397354
-29.1604785919 47.9217872620 12.6078405380
-29.1604042053 47.9196586609 12.4174957275
-29.1514492035 47.9035606384 12.2223339081
-29.1374893188 47.8795814514 12.0244264603
-29.1215133667 47.8524322510 11.8253803253
-29.1048793793 47.8242454529 11.6259288788
-29.0880508423 47.7957572937 11.4263219833
-29.0715198517 47.7677307129 11.2268285751
-29.0559463501 47.7412147522 11.0278129578
-29.0419425964 47.7171669006 10.8296136856
-29.0302181244 47.6967010498 10.6326265335
-29.0219955444 47.6817512512 10.4375371933
-29.0188999176 47.6748695374 10.2452545166
-29.0221538544 47.6779785156 10.0564756393
-29.0317420959 47.6910514832 9.8712148666
-29.0460548401 47.7115631104 9.6885986328
-29.0621681213 47.7349090576 9.5070114136
-29.0767440796 47.7558364868 9.3245944977
-29.0871219635 47.7701568604 9.1398496628
-29.0918712616 47.7756195068 8.9519605637
-29.0906124115 47.7716255188 8.7606916428
-29.0837516785 47.7588157654 8.5662508011
-29.0725822449 47.7392234802 8.3693504333
-29.0594921112 47.7166099548 8.1713266373
-29.0478954315 47.6963462830 7.9741101265
-29.0421295166 47.6852569580 7.7801733017
-29.0475101471 47.6917114258 7.5925650597
-29.0697135925 47.7246437073 7.4145679474
-29.1127376556 47.7903442383 7.2485294342
-29.1765193939 47.8887176514 7.0944867134
-29.2564277649 48.0124740601 6.9498543739
-29.3451595306 48.1501159668 6.8104834557
-29.4352588654 48.2899169922 6.6721043587
-29.5205574036 48.4221649170 6.5311541557
-29.5965328217 48.5397377014 6.3849954605
-29.6605129242 48.6384315491 6.2320446968
-29.7120418549 48.7175292969 6.0719928741
-29.7527141571 48.7795410156 5.9057250023
-29.7850532532 48.8284378052 5.7346782684
-29.8111267090 48.8674736023 5.5600304604
-29.8319969177 48.8983192444 5.3823847771
-29.8483200073 48.9220046997 5.2021055222
-29.8613033295 48.9404373169 5.0198903084
-29.8731193542 48.9570312500 4.8370084763
-29.8864002228 48.9759330750 4.6550107002
-29.9031467438 49.0002861023 4.4750890732
-29.9239139557 49.0309715271 4.2975850105
-29.9477729797 49.0665283203 4.1219615936
-29.9728775024 49.1040382385 3.9471268654
-29.9969215393 49.1398849487 3.7717108727
-30.0175647736 49.1703758240 3.5943064690
-30.0332546234 49.1930694580 3.4139721394
-30.0444087982 49.2086257935 3.2309417725
-30.0538749695 49.2215232849 3.0469121933
-30.0660076141 49.2386207581 2.8645043373
-30.0849990845 49.2665100098 2.6862607002
-30.1136970520 49.3096885681 2.5139331818
-30.1533508301 49.3701057434 2.3483109474
-30.2036190033 49.4472389221 2.1892285347
-30.2624378204 49.5378341675 2.0354652405
-30.3260593414 49.6359939575 1.8847649097
-30.3898372650 49.7343978882 1.7343021631
-30.4495925903 49.8264694214 1.5815171003
-30.5027408600 49.9081420898 1.4248088598
-30.5484104156 49.9780426025 1.2636189461
-30.5866756439 50.0362854004 1.0979646444
-30.6178131104 50.0833091736 0.9279912114
-30.6422195435 50.1197357178 0.7539173961
-30.6606063843 50.1466865540 0.5761627555
-30.6739597321 50.1657142639 0.3953154683
-30.6832561493 50.1783523560 0.2119670063
-30.6892871857 50.1858482361 0.0265950877
-52.6588516235 -1.6051238775 69.0760879517
-52.6967468262 -1.6056547165 68.8885879517
-52.7619705200 -1.6075000763 68.7034378052
-52.8401947021 -1.6099711657 68.5194778442
-52.9204139709 -1.6125385761 68.3357696533
-52.9962158203 -1.6148941517 68.1517715454
-53.0630187988 -1.6168175936 67.9670715332
-53.1156883240 -1.6180615425 67.7812042236
-53.1491470337 -1.6183817387 67.5936889648
-53.1610298157 -1.6176639795 67.4042892456
-53.1527481079 -1.6159760952 67.2130813599
-53.1276550293 -1.6134790182 67.0203475952
-53.0890922546 -1.6103334427 66.8263473511
-53.0412635803 -1.6067416668 66.6314468384
-52.9912147522 -1.6030424833 66.4362792969
-52.9481468201 -1.5996788740 66.2416992188
-52.9199066162 -1.5970288515 66.0484313965
-52.9097518921 -1.5952491760 65.8568267822
-52.9154472351 -1.5942325592 65.6667022705
-52.9305496216 -1.5936690569 65.4774703979
-52.9471893311 -1.5931793451 65.2883987427
-52.9591903687 -1.5924665928 65.0988922119
-52.9638786316 -1.5914015770 64.9086837769
-52.9617576599 -1.5900086164 64.7178115845
-52.9550590515 -1.5883949995 64.5264739990
-52.9463233948 -1.5866831541 64.3349304199
-52.9375152588 -1.5849677324 64.1433639526
-52.9297142029 -1.5833007097 63.9518737793
-52.9232177734 -1.5816963911 63.7604980469
-52.9179077148 -1.5801491737 63.5692329407
-52.9136238098 -1.5786514282 63.3780555725
-52.9103507996 -1.5772020817 63.1869697571
-52.9080429077 -1.5757994652 62.9959754944
-52.9062156677 -1.5744198561 62.8050193787
-52.9033317566 -1.5729893446 62.6139450073
-52.8964309692 -1.5713648796 62.4224395752
-52.8815155029 -1.5693538189 62.2300758362
-52.8550720215 -1.5667868853 62.0364685059
-52.8159790039 -1.5636094809 61.8414764404
-52.7664108276 -1.5599263906 61.6453094482
-52.7112808228 -1.5559744835 61.4484786987
-52.6568222046 -1.5520546436 61.2516479492
-52.6089897156 -1.5484538078 61.0554695129
-52.5718574524 -1.5453690290 60.8603935242
-52.5466270447 -1.5428581238 60.6665763855
-52.5317573547 -1.5408469439 60.4738655090
-52.5239753723 -1.5391776562 60.2819213867
-52.5191078186 -1.5376491547 60.0902862549
-52.5124320984 -1.5360331535 59.8984375000
-52.4991493225 -1.5340980291 59.7058219910
-52.4756507874 -1.5316696167 59.5120277405
-52.4411582947 -1.5287100077 59.3169441223
-52.3981742859 -1.5253401995 59.1208343506
-52.3507957458 -1.5217577219 58.9241638184
-52.3023529053 -1.5181233883 58.7273025513
-52.2550010681 -1.5145413876 58.5305061340
-52.2113265991 -1.5111366510 58.3340759277
-52.1752090454 -1.5080964565 58.1384773254
-52.1501159668 -1.5055885315 57.9441337585
-52.1363639832 -1.5036282539 57.7511024475
-52.1303482056 -1.5020416975 57.5589714050
-52.1263847351 -1.5005540848 57.3670730591
-52.1191329956 -1.4989076853 57.1747665405
-52.1049957275 -1.4969282150 56.9816093445
-52.0826339722 -1.4945513010 56.7874259949
-52.0528984070 -1.4918174744 56.5923080444
-52.0179939270 -1.4888335466 56.3965072632
-51.9808349609 -1.4857403040 56.2003784180
-51.9454803467 -1.4827339649 56.0044250488
-51.9177360535 -1.4800953865 55.8093757629
-51.9043769836 -1.4781520367 55.6160850525
-51.9106826782 -1.4771596193 55.4252586365
-51.9372482300 -1.4771473408 55.2369956970
-51.9777336121 -1.4778083563 55.0505332947
-52.0199165344 -1.4785518646 54.8643264771
-52.0504798889 -1.4787334204 54.6766738892
-52.0604553223 -1.4779189825 54.4863891602
-52.0475921631 -1.4759997129 54.2931480408
-52.0149955750 -1.4731252193 54.0973129272
-51.9680480957 -1.4695557356 53.8995552063
-51.9118881226 -1.4655401707 53.7005233765
-51.8508033752 -1.4612857103 53.5007667542
-51.7898483276 -1.4570368528 53.3009452820
-51.7364082336 -1.4531513453 53.1020469666
-51.6985015869 -1.4500174522 52.9051589966
-51.6803474426 -1.4478394985 52.7108726501
-51.6797943115 -1.4465138912 52.5189399719
-51.6902465820 -1.4457211494 52.3284873962
-51.7046661377 -1.4451204538 52.1385841370
-51.7179603577 -1.4444653988 51.9485397339
-51.7269058228 -1.4435997009 51.7579040527
-51.7290306091 -1.4424036741 51.5663299561
-51.7218856812 -1.4407585859 51.3734664917
-51.7029991150 -1.4385443926 51.1789512634
-51.6707725525 -1.4356836081 50.9825439453
-51.6265106201 -1.4322392941 50.7843971252
-51.5761795044 -1.4285002947 50.5853347778
-51.5293922424 -1.4249327183 50.3867111206
-51.4949302673 -1.4219620228 50.1897735596
-51.4755859375 -1.4197239876 49.9949493408
-51.4660987854 -1.4179637432 49.8015098572
-51.4554252625 -1.4161458015 49.6078834534
-51.4320678711 -1.4137126207 49.4123992920
-51.3894195557 -1.4103436470 49.2140769958
-51.3277626038 -1.4060525894 49.0129280090
-51.2526321411 -1.4011073112 48.8097229004
-51.1719589233 -1.3958926201 48.6056022644
-51.0941772461 -1.3908174038 48.4018096924
-51.0271339417 -1.3862626553 48.1995086670
-50.9771842957 -1.3825365305 47.9996643066
-50.9485702515 -1.3798452616 47.8029441833
-50.9429359436 -1.3782687187 47.6096267700
-50.9584236145 -1.3777173758 47.4194831848
-50.9888229370 -1.3778896332 47.2316055298
-51.0237350464 -1.3782811165 47.0444412231
-51.0500831604 -1.3782571554 46.8560028076
-51.0545845032 -1.3771727085 46.6642494202
-51.0271072388 -1.3745357990 46.4675827026
-50.9647407532 -1.3702048063 46.2654914856
-50.8750915527 -1.3645480871 46.0590972900
-50.7758255005 -1.3584237099 45.8510894775
-50.6886711121 -1.3528867960 45.6448478699
-50.6300430298 -1.3487344980 45.4429664612
-50.6041603088 -1.3461723328 45.2461547852
-50.6030044556 -1.3448112011 45.0532073975
-50.6115570068 -1.3439215422 44.8617897034
-50.6133918762 -1.3427056074 44.6693077087
-50.5949974060 -1.3405066729 44.4735908508
-50.5499382019 -1.3370116949 44.2735748291
-50.4816665649 -1.3323882818 44.0697631836
-50.4019966125 -1.3272103071 43.8640213013
-50.3255920410 -1.3221902847 43.6587066650
-50.2643775940 -1.3179079294 43.4557647705
-50.2243537903 -1.3146553040 43.2562026978
-50.2051544189 -1.3124148846 43.0599937439
-50.2015151978 -1.3109308481 42.8663177490
-50.2054138184 -1.3098131418 42.6738739014
-50.2083206177 -1.3086472750 42.4812622070
-50.2039947510 -1.3071295023 42.2874450684
-50.1905059814 -1.3051660061 42.0920867920
-50.1692619324 -1.3028252125 41.8954086304
-50.1422424316 -1.3002030849 41.6977272034
-50.1110877991 -1.2973796129 41.4993095398
-50.0784454346 -1.2944835424 41.3005943298
-50.0483932495 -1.2917129993 41.1022758484
-50.0249023438 -1.2892616987 40.9050292969
-50.0106239319 -1.2872581482 40.7093238831
-50.0069541931 -1.2857711315 40.5154151917
-50.0139198303 -1.2848017216 40.3233299255
-50.0288391113 -1.2842192650 40.1326179504
-50.0452804565 -1.2837110758 39.9421806335
-50.0542449951 -1.2828389406 39.7504577637
-50.0474586487 -1.2812000513 39.5559844971
-50.0207023621 -1.2785884142 39.3580017090
-49.9752769470 -1.2750673294 39.1566925049
-49.9171447754 -1.2709270716 38.9530830383
-49.8547897339 -1.2665803432 38.7486495972
-49.7971534729 -1.2624632120 38.5449714661
-49.7520790100 -1.2589573860 38.3434562683
-49.7245445251 -1.2563058138 38.1450157166
-49.7147827148 -1.2545198202 37.9497261047
-49.7174453735 -1.2533392906 37.7566528320
-49.7234535217 -1.2523216009 37.5641822815
-49.7242240906 -1.2510486841 37.3707618713
-49.7153434753 -1.2493053675 37.1755790710
-49.6963920593 -1.2470709085 36.9785423279
-49.6677627563 -1.2443646193 36.7797088623
-49.6288299561 -1.2411556244 36.5789375305
-49.5794372559 -1.2374364138 36.3761863708
-49.5225181580 -1.2333496809 36.1719779968
-49.4647140503 -1.2292191982 35.9675292969
-49.4145126343 -1.2254590988 35.7644233704
-49.3792762756 -1.2224283218 35.5640373230
-49.3627166748 -1.2203083038 35.3671035767
-49.3633766174 -1.2190281153 35.1733741760
-49.3738021851 -1.2182241678 34.9814796448
-49.3810310364 -1.2172645330 34.7889862061
-49.3702964783 -1.2154282331 34.5930900574
-49.3316650391 -1.2122305632 34.3918647766
-49.2658271790 -1.2077047825 34.1853942871
-49.1846542358 -1.2024298906 33.9759025574
-49.1060676575 -1.1972805262 33.7668037415
-49.0472908020 -1.1930977106 33.5614204407
-49.0207290649 -1.1904869080 33.3621864319
-49.0323753357 -1.1897411346 33.1703147888
-49.0801277161 -1.1907584667 32.9854736328
-49.1527976990 -1.1929929256 32.8055419922
-49.2330284119 -1.1955970526 32.6271705627
-49.3030891418 -1.1977050304 32.4468917847
-49.3489799500 -1.1986330748 32.2619323730
-49.3617439270 -1.1979433298 32.0704803467
-49.3384361267 -1.1954914331 31.8718948364
-49.2832756042 -1.1914832592 31.6669483185
-49.2069015503 -1.1864382029 31.4577007294
-49.1235656738 -1.1810520887 31.2469635010
-49.0480918884 -1.1760497093 31.0376949310
-48.9926872253 -1.1720272303 30.8323631287
-48.9627952576 -1.1692512035 30.6321029663
-48.9547309875 -1.1675419807 30.4362125397
-48.9586257935 -1.1664170027 30.2427330017
-48.9645004272 -1.1653890610 30.0496540070
-48.9659385681 -1.1641439199 29.8556690216
-48.9594459534 -1.1625111103 29.6600570679
-48.9427871704 -1.1603813171 29.4623432159
-48.9148597717 -1.1576998234 29.2622833252
-48.8764076233 -1.1545035839 29.0600090027
-48.8303451538 -1.1509346962 28.8561077118
-48.7818908691 -1.1472483873 28.6516456604
-48.7387161255 -1.1438200474 28.4482192993
-48.7094802856 -1.1410731077 28.2476444244
-48.7003250122 -1.1393084526 28.0512332916
-48.7116508484 -1.1385456324 27.8591060638
-48.7371101379 -1.1384747028 27.6699638367
-48.7651481628 -1.1385301352 27.4813899994
-48.7829132080 -1.1380828619 27.2906646729
-48.7814407349 -1.1366940737 27.0958690643
-48.7590179443 -1.1342797279 26.8966007233
-48.7204475403 -1.1310745478 26.6938476563
-48.6734466553 -1.1274564266 26.4892349243
-48.6258316040 -1.1238075495 26.2844276428
-48.5848999023 -1.1204855442 26.0809955597
-48.5572586060 -1.1178141832 25.8803787231
-48.5473365784 -1.1160101891 25.6835613251
-48.5551948547 -1.1150771379 25.4905872345
-48.5750923157 -1.1147338152 25.3002395630
-48.5957984924 -1.1144301891 25.1100845337
-48.6037063599 -1.1134996414 24.9171447754
-48.5883483887 -1.1114290953 24.7190971375
-48.5477676392 -1.1081225872 24.5154685974
-48.4906654358 -1.1040059328 24.3081340790
-48.4333267212 -1.0998772383 24.1006717682
-48.3927803040 -1.0965708494 23.8968620300
-48.3806571960 -1.0946576595 23.6993255615
-48.4009475708 -1.0943332911 23.5090065002
-48.4496726990 -1.0954028368 23.3250694275
-48.5144042969 -1.0972576141 23.1447772980
-48.5758285522 -1.0989507437 22.9638118744
-48.6136779785 -1.0994882584 22.7775936127
-48.6143493652 -1.0982025862 22.5830001831
-48.5755195618 -1.0949796438 22.3794384003
-48.5054016113 -1.0902216434 22.1687068939
-48.4171752930 -1.0845748186 21.9537525177
-48.3223381042 -1.0786027908 21.7371730804
-48.2283134460 -1.0726699829 21.5206604004
-48.1406097412 -1.0670462847 21.3054790497
-48.0635414124 -1.0619437695 21.0926380157
-47.9975585938 -1.0573846102 20.8822574615
-47.9384803772 -1.0531637669 20.6733913422
-47.8816719055 -1.0490537882 20.4649753571
-47.8275032043 -1.0450727940 20.2570972443
-47.7837104797 -1.0416005850 20.0515689850
-47.7623329163 -1.0392287970 19.8512306213
-47.7719688416 -1.0383793116 19.6581382751
-47.8113594055 -1.0389909744 19.4720516205
-47.8706779480 -1.0405814648 19.2907066345
-47.9380416870 -1.0425673723 19.1113281250
-48.0042839050 -1.0444989204 18.9317607880
-48.0641746521 -1.0461188555 18.7507534027
-48.1155662537 -1.0473217964 18.5677871704
-48.1574058533 -1.0480557680 18.3825931549
-48.1883049011 -1.0482524633 18.1948204041
-48.2074127197 -1.0478701591 18.0042495728
-48.2158699036 -1.0469644070 17.8111286163
-47.9837303162 -1.0263007879 16.3880176544
-47.9679679871 -1.0242033005 16.1888027191
-47.9397850037 -1.0214946270 15.9865016937
-47.9059829712 -1.0185093880 15.7827739716
-47.8751945496 -1.0156720877 15.5797443390
-47.8534736633 -1.0132805109 15.3789196014
-47.8414459229 -1.0113655329 15.1804704666
-47.8352088928 -1.0097353458 14.9834432602
-47.8289756775 -1.0081050396 14.7864017487
-47.8171958923 -1.0062019825 14.5879573822
-47.7964019775 -1.0038549900 14.3872289658
-47.7671508789 -1.0010918379 14.1843423843
-47.7346725464 -0.9981692433 13.9805984497
-47.7063751221 -0.9954523444 13.7778663635
-47.6878929138 -0.9932183623 13.5775794983
-47.6813659668 -0.9915726185 13.3802995682
-47.6868858337 -0.9905200005 13.1860733032
-47.7039871216 -0.9900374413 12.9947996140
-47.7307357788 -0.9900301695 12.8060092926
-47.7623977661 -0.9902650118 12.6185026169
-47.7927703857 -0.9904363751 12.4306955338
-47.8176116943 -0.9903357625 12.2414951324
-47.8365592957 -0.9899448156 12.0507936478
-47.8520164490 -0.9893822074 11.8592061996
-47.8667449951 -0.9887835979 11.6674413681
-47.8812294006 -0.9881730676 11.4756231308
-47.8911819458 -0.9873394966 11.2826356888
-47.8875160217 -0.9858345389 11.0860939026
-47.8614501953 -0.9832258224 10.8836774826
-47.8121566772 -0.9794719219 10.6751270294
-47.7499389648 -0.9750805497 10.4631109238
-47.6923065186 -0.9709148407 10.2522230148
-47.6568832397 -0.9678432345 10.0471248627
-47.6554718018 -0.9664482474 9.8509845734
-47.6914062500 -0.9668946862 9.6647491455
-47.7609100342 -0.9689966440 9.4874801636
-47.8568153381 -0.9724012017 9.3173274994
-47.9707374573 -0.9766950607 9.1520986557
-48.0923309326 -0.9813681841 8.9890556335
-48.2086029053 -0.9857795835 8.8247222900
-48.3062324524 -0.9892723560 8.6555070877
-48.3763656616 -0.9914092422 8.4789876938
-48.4182395935 -0.9921525121 8.2949094772
-48.4384727478 -0.9918282032 8.1050138474
-48.4466362000 -0.9909082651 7.9118576050
-48.4510307312 -0.9898025393 7.7176804543
-48.4573974609 -0.9887940288 7.5240387917
-48.4696311951 -0.9880750179 7.3320002556
-48.4902725220 -0.9877712131 7.1422729492
-48.5200119019 -0.9879167676 6.9550609589
-48.5580062866 -0.9884698987 6.7701482773
-48.6044692993 -0.9894416332 6.5876097679
-48.6629867554 -0.9910088181 6.4084501266
-48.7381210327 -0.9933971167 6.2339553833
-48.8292922974 -0.9965780377 6.0639944077
-48.9278221130 -1.0001229048 5.8961825371
-49.0215034485 -1.0034292936 5.7271323204
-49.1025772095 -1.0061135292 5.5546665192
-49.1713714600 -1.0081917048 5.3788542747
-49.2337875366 -1.0099551678 5.2013282776
-49.2967262268 -1.0117450953 5.0240192413
-49.3644142151 -1.0137698650 4.8481154442
-49.4358634949 -1.0159813166 4.6733493805
-49.5056037903 -1.0181087255 4.4981789589
-49.5687904358 -1.0199127197 4.3212275505
-49.6260871887 -1.0214260817 4.1426720619
-49.6827888489 -1.0229103565 3.9640088081
-49.7436943054 -1.0246028900 3.7866065502
-49.8095054626 -1.0265384912 3.6106743813
-49.8767623901 -1.0285460949 3.4352285862
-49.9392433167 -1.0303181410 3.2584862709
-49.9895248413 -1.0314869881 3.0783009529
-50.0210609436 -1.0317292213 2.8927648067
-50.0309791565 -1.0309022665 2.7010126114
-50.0222091675 -1.0291507244 2.5038542747
-50.0033378601 -1.0268994570 2.3037471771
-49.9856758118 -1.0247076750 2.1039617062
-49.9796829224 -1.0230932236 1.9075484276
-49.9933471680 -1.0224515200 1.7168611288
-50.0319404602 -1.0230433941 1.5334758759
-50.0965881348 -1.0249253511 1.3577704430
-50.1822509766 -1.0278478861 1.1883090734
-50.2779579163 -1.0312682390 1.0219014883
-50.3700561523 -1.0345108509 0.8545387983
-50.4464759827 -1.0369777679 0.6826451421
-50.5004081726 -1.0383318663 0.5041762590
-50.5318489075 -1.0385725498 0.3190898299
-50.5453491211 -1.0379250050 0.1286982000
-9.0694398880 33.6717453003 67.1256408691
-9.0839700699 33.7140350342 66.9290237427
-9.1086635590 33.7885665894 66.7358627319
-9.1413536072 33.8884620667 66.5454864502
-9.1799049377 34.0069541931 66.3572158813
-9.2225008011 34.1382827759 66.1704864502
-9.2678146362 34.2782325745 65.9848480225
-9.3148584366 34.4236679077 65.7999954224
-9.3623371124 34.5704956055 65.6154708862
-9.4081897736 34.7121620178 65.4305648804
-9.4500894547 34.8412971497 65.2444534302
-9.4868202209 34.9540367126 65.0566711426
-9.5194339752 35.0537147522 64.8675689697
-9.5510435104 35.1502113342 64.6782302856
-9.5850896835 35.2544403076 64.4898910522
-9.6232328415 35.3716697693 64.3031692505
-9.6644430161 35.4986305237 64.1177139282
-9.7057847977 35.6260147095 63.9324607849
-9.7441196442 35.7438583374 63.7462654114
-9.7775268555 35.8460731506 63.5583915710
-9.8056278229 35.9314575195 63.3686676025
-9.8288316727 36.0013046265 63.1772155762
-9.8473672867 36.0563392639 62.9840850830
-9.8610477448 36.0959777832 62.7891845703
-9.8698234558 36.1200485229 62.5924606323
-9.8744506836 36.1309585571 62.3941688538
-9.8767223358 36.1343917847 62.1949768066
-9.8791751862 36.1384048462 61.9958572388
-9.8844709396 36.1514358521 61.7978401184
-9.8946447372 36.1799468994 61.6017417908
-9.9104671478 36.2263832092 61.4079017639
-9.9312324524 36.2885017395 61.2160720825
-9.9551057816 36.3604850769 61.0255546570
-9.9797611237 36.4349517822 60.8354377747
-10.0030097961 36.5049552917 60.6448440552
-10.0232963562 36.5655632019 60.4531440735
-10.0398597717 36.6143569946 60.2599983215
-10.0524682999 36.6506004333 60.0652999878
-10.0610485077 36.6740646362 59.8689880371
-10.0655708313 36.6846466064 59.6710243225
-10.0661792755 36.6828117371 59.4714469910
-10.0633602142 36.6700973511 59.2704315186
-10.0580501556 36.6494789124 59.0683479309
-10.0516786575 36.6254882813 58.8657836914
-10.0460548401 36.6038742065 58.6634979248
-10.0430116653 36.5904464722 58.4622726440
-10.0438299179 36.5892715454 58.2626724243
-10.0487766266 36.6012001038 58.0648384094
-10.0570926666 36.6238250732 57.8684654236
-10.0673980713 36.6527633667 57.6729774475
-10.0781812668 36.6832199097 57.4777336121
-10.0880975723 36.7109260559 57.2821388245
-10.0961313248 36.7326545715 57.0857467651
-10.1018495560 36.7470359802 56.8883552551
-10.1056308746 36.7552680969 56.6901130676
-10.1085033417 36.7606163025 56.4914703369
-10.1116523743 36.7668457031 56.2929534912
-10.1160545349 36.7770500183 56.0950012207
-10.1224050522 36.7934379578 55.8979377747
-10.1310596466 36.8171424866 55.7019348145
-10.1418209076 36.8475303650 55.5069198608
-10.1538639069 36.8819885254 55.3125267029
-10.1660766602 36.9169883728 55.1182518005
-10.1775693893 36.9497032166 54.9236793518
-10.1878910065 36.9786987305 54.7285995483
-10.1967782974 37.0031471252 54.5328826904
-10.2037448883 37.0214958191 54.3362922668
-10.2079343796 37.0310249329 54.1384048462
-10.2085466385 37.0292015076 53.9388313293
-10.2056007385 37.0160789490 53.7375564575
-10.2002954483 36.9954681396 53.5351295471
-10.1945686340 36.9735221863 53.3324699402
-10.1902713776 36.9561080933 53.1304588318
-10.1886568069 36.9472122192 52.9297180176
-10.1902666092 36.9485549927 52.7305259705
-10.1949090958 36.9595222473 52.5328102112
-10.2018089294 36.9776611328 52.3362083435
-10.2100400925 37.0000228882 52.1402778625
-10.2189683914 37.0246009827 51.9447174072
-10.2283401489 37.0505867004 51.7494010925
-10.2380409241 37.0776176453 51.5542755127
-10.2477970123 37.1048240662 51.3592109680
-10.2570724487 37.1305084229 51.1639289856
-10.2652845383 37.1528129578 50.9681396484
-10.2721157074 37.1707344055 50.7716712952
-10.2776107788 37.1844139099 50.5745429993
-10.2819929123 37.1945571899 50.3768539429
-10.2854576111 37.2017936707 50.1786994934
-10.2881336212 37.2065200806 49.9801406860
-10.2901306152 37.2090911865 49.7812309265
-10.2916135788 37.2100296021 49.5820503235
-10.2928466797 37.2101783752 49.3827362061
-10.2942256927 37.2107887268 49.1834907532
-10.2962484360 37.2134399414 48.9845771790
-10.2993888855 37.2196426392 48.7862510681
-10.3038558960 37.2300605774 48.5886268616
-10.3093194962 37.2436408997 48.3915443420
-10.3149137497 37.2576370239 48.1945419312
-10.3196802139 37.2690010071 47.9971046448
-10.3231105804 37.2761268616 47.7989578247
-10.3251924515 37.2789688110 47.6000823975
-10.3259897232 37.2777328491 47.4005088806
-10.3254232407 37.2721595764 47.2001800537
-10.3235597610 37.2624740601 46.9991302490
-10.3210086823 37.2505950928 46.7976837158
-10.3188571930 37.2399940491 46.5964317322
-10.3182325363 37.2342376709 46.3960075378
-10.3198766708 37.2356872559 46.1968269348
-10.3239850998 37.2449645996 45.9990158081
-10.3301763535 37.2608566284 45.8023757935
-10.3375759125 37.2805862427 45.6064300537
-10.3451299667 37.3008079529 45.4105911255
-10.3520450592 37.3190040588 45.2144088745
-10.3580245972 37.3342208862 45.0177154541
-10.3631782532 37.3468208313 44.8205604553
-10.3678398132 37.3578567505 44.6231384277
-10.3724651337 37.3687744141 44.4256973267
-10.3775854111 37.3812675476 44.2285537720
-10.3836832047 37.3968658447 44.0319824219
-10.3909435272 37.4161567688 43.8361015320
-10.3991184235 37.4383544922 43.6407737732
-10.4076862335 37.4617996216 43.4456977844
-10.4161443710 37.4848976135 43.2505836487
-10.4240474701 37.5062332153 43.0551643372
-10.4308481216 37.5240631104 42.8591117859
-10.4359903336 37.5366287231 42.6620979309
-10.4393663406 37.5435829163 42.4640350342
-10.4415473938 37.5467414856 42.2652626038
-10.4433917999 37.5488281250 42.0662879944
-10.4453706741 37.5513420105 41.8673896790
-10.4472999573 37.5536994934 41.6684532166
-10.4486665726 37.5542678833 41.4691772461
-10.4491939545 37.5521736145 41.2693824768
-10.4491281509 37.5481910706 41.0692138672
-10.4490175247 37.5440673828 40.8690109253
-10.4492549896 37.5410499573 40.6690063477
-10.4498834610 37.5392723083 40.4692306519
-10.4508161545 37.5384635925 40.2696342468
-10.4522581100 37.5392684937 40.0703468323
-10.4550361633 37.5443229675 39.8718872070
-10.4606637955 37.5584297180 39.6752090454
-10.4709081650 37.5872077942 39.4814414978
-10.4868869781 37.6342086792 39.2913093567
-10.5082149506 37.6982078552 39.1046142578
-10.5329189301 37.7729339600 38.9201393127
-10.5581865311 37.8494529724 38.7361106873
-10.5814132690 37.9194908142 38.5508766174
-10.6009502411 37.9778022766 38.3633689880
-10.6162710190 38.0227203369 38.1732215881
-10.6276540756 38.0551223755 37.9805946350
-10.6358203888 38.0773048401 37.7859191895
-10.6418638229 38.0927429199 37.5898933411
-10.6472225189 38.1059989929 37.3934326172
-10.6533908844 38.1218338013 37.1975135803
-10.6615924835 38.1441307068 37.0029411316
-10.6727390289 38.1757850647 36.8103256226
-10.6874990463 38.2189254761 36.6201248169
-10.7060461044 38.2741012573 36.4324798584
-10.7276020050 38.3388442993 36.2468948364
-10.7504558563 38.4077110291 36.0622558594
-10.7727069855 38.4746627808 35.8772964478
-10.7930679321 38.5356101990 35.6911582947
-10.8111820221 38.5894165039 35.5035820007
-10.8275918961 38.6378097534 35.3149185181
-10.8435506821 38.6847686768 35.1260147095
-10.8604774475 38.7348060608 34.9378166199
-10.8791646957 38.7904396057 34.7508811951
-10.8993444443 38.8508186340 34.5650253296
-10.9199981689 38.9127082825 34.3795738220
-10.9401626587 38.9730415344 34.1938552856
-10.9596633911 39.0312614441 34.0077590942
-10.9793405533 39.0900497437 33.8218536377
-11.0006132126 39.1539115906 33.6371231079
-11.0246028900 39.2264099121 33.4543609619
-11.0514545441 39.3080062866 33.2736816406
-11.0803470612 39.3960952759 33.0945320129
-11.1100625992 39.4868011475 32.9160728455
-11.1395254135 39.5767021179 32.7375450134
-11.1681137085 39.6638298035 32.5585174561
-11.1959276199 39.7484970093 32.3790473938
-11.2238636017 39.8335533142 32.1997718811
-11.2531881332 39.9230270386 32.0215911865
-11.2848176956 40.0198326111 31.8451690674
-11.3189382553 40.1245574951 31.6706523895
-11.3551702499 40.2359962463 31.4977855682
-11.3929567337 40.3523788452 31.3261795044
-11.4319267273 40.4725303650 31.1555767059
-11.4721288681 40.5966033936 30.9860210419
-11.5138921738 40.7256393433 30.8177566528
-11.5572986603 40.8599052429 30.6508560181
-11.6017990112 40.9976501465 30.4849281311
-11.6464614868 41.1359138489 30.3192939758
-11.6905527115 41.2723693848 30.1534194946
-11.7337694168 41.4060440063 29.9870738983
-11.7761154175 41.5369529724 29.8202552795
-11.8179779053 41.6663246155 29.6532459259
-11.8603162766 41.7972183228 29.4867553711
-11.9043273926 41.9334335327 29.3216819763
-11.9504899979 42.0764884949 29.1583919525
-11.9978046417 42.2232131958 28.9961490631
-12.0439519882 42.3662300110 28.8332157135
-12.0863513947 42.4973335266 28.6676425934
-12.1234474182 42.6115722656 28.4982223511
-12.1554088593 42.7094879150 28.3250560760
-12.1838645935 42.7962570190 28.1493434906
-12.2109889984 42.8787956238 27.9727268219
-12.2386713028 42.9631080627 27.7966384888
-12.2682580948 43.0534820557 27.6221179962
-12.3006849289 43.1528854370 27.4498958588
-12.3363103867 43.2624702454 27.2802658081
-12.3744373322 43.3800086975 27.1127090454
-12.4133396149 43.5000152588 26.9459037781
-12.4511051178 43.6164093018 26.7783679962
-12.4864110947 43.7249870300 26.6090621948
-12.5185155869 43.8233833313 26.4373931885
-12.5468845367 43.9099006653 26.2629184723
-12.5711631775 43.9834098816 26.0853366852
-12.5915594101 44.0445785522 25.9047870636
-12.6092014313 44.0969810486 25.7221355438
-12.6260881424 44.1469879150 25.5389480591
-12.6445541382 44.2020149231 25.3570747375
-12.6664657593 44.2680053711 25.1780147552
-12.6926002502 44.3474311829 25.0024089813
-12.7225112915 44.4388656616 24.8299274445
-12.7550363541 44.5386199951 24.6596584320
-12.7892942429 44.6438865662 24.4909133911
-12.8255767822 44.7555999756 24.3239364624
-12.8654489517 44.8787345886 24.1600074768
-12.9109172821 45.0196685791 24.0007762909
-12.9631423950 45.1821022034 23.8472270966
-13.0214509964 45.3638916016 23.6988487244
-13.0832767487 45.5568733215 23.5535850525
-13.1450986862 45.7498474121 23.4085674286
-13.2036151886 45.9323120117 23.2610836029
-13.2565269470 46.0969505310 23.1092147827
-13.3029079437 46.2408218384 22.9521656036
-13.3433580399 46.3658218384 22.7903842926
-13.3798351288 46.4781875610 22.6254634857
-13.4152517319 46.5871810913 22.4598045349
-13.4529542923 46.7034530640 22.2961921692
-13.4959096909 46.8364334106 22.1371250153
-13.5454883575 46.9904975891 21.9837856293
-13.6006021500 47.1621704102 21.8353042603
-13.6581325531 47.3415374756 21.6890830994
-13.7143545151 47.5167427063 21.5419883728
-13.7661905289 47.6780014038 21.3914031982
-13.8118104935 47.8194847107 21.2357425690
-13.8508539200 47.9400482178 21.0746631622
-13.8843250275 48.0428848267 20.9089794159
-13.9139785767 48.1335754395 20.7401580811
-13.9414911270 48.2174568176 20.5696125031
-13.9680747986 48.2983818054 20.3983726501
-13.9946746826 48.3793640137 20.2272491455
-14.0223426819 48.4637489319 20.0571498871
-14.0523796082 48.5556678772 19.8892116547
-14.0860385895 48.6591186523 19.7245349884
-14.1238403320 48.7757530212 19.5636005402
-14.1649141312 48.9028015137 19.4056701660
-14.2070951462 49.0333747864 19.2488727570
-14.2478713989 49.1594848633 19.0910129547
-14.2854299545 49.2753601074 18.9304828644
-14.3189935684 49.3785171509 18.7665786743
-14.3484859467 49.4687271118 18.5992069244
-14.3741874695 49.5468750000 18.4285926819
-14.3967771530 49.6151199341 18.2553100586
-14.4174785614 49.6773567200 18.0804328918
-14.4379520416 49.7388687134 17.9054279327
-14.4600439072 49.8055343628 17.7319469452
-14.4855089188 49.8829383850 17.5615730286
-14.5155572891 49.9749259949 17.3954143524
-14.5502691269 50.0817642212 17.2335720062
