-2.8882660866 49.5169715881 60.5302734375
-2.8857262135 49.4387702942 60.3292236328
-2.8830325603 49.3558845520 60.1274566650
-2.8803403378 49.2730369568 59.9255828857
-2.8778202534 49.1954383850 59.7242851257
-2.8756628036 49.1288795471 59.5243339539
-2.8740427494 49.0786895752 59.3264541626
-2.8730735779 49.0483207703 59.1311340332
-2.8727974892 49.0390548706 58.9385833740
-2.8732166290 49.0509681702 58.7488517761
-2.8743202686 49.0837211609 58.5619354248
-2.8760831356 49.1365585327 58.3777656555
-2.8784635067 49.2081985474 58.1962127686
-2.8813865185 49.2963676453 58.0169982910
-2.8846926689 49.3962097168 57.8394851685
-2.8881020546 49.4991874695 57.6625213623
-2.8912942410 49.5955581665 57.4847679138
-2.8940610886 49.6789703369 57.3053207397
-2.8963596821 49.7481231689 57.1239814758
-2.8982324600 49.8043060303 56.9408950806
-2.8997182846 49.8487129211 56.7562141418
-2.9008350372 49.8818664551 56.5699882507
-2.9015851021 49.9038619995 56.3822097778
-2.9019453526 49.9139785767 56.1927528381
-2.9018540382 49.9103469849 56.0013275146
-2.9012241364 49.8903083801 55.8075256348
-2.8999812603 49.8516082764 55.6109886169
-2.8981056213 49.7936248779 55.4115905762
-2.8956518173 49.7180404663 55.2095451355
-2.8927509785 49.6288375854 55.0054016113
-2.8896124363 49.5323944092 54.8000679016
-2.8865242004 49.4374809265 54.5948333740
-2.8837945461 49.3534889221 54.3910903931
-2.8816273212 49.2866287231 54.1897888184
-2.8800461292 49.2376174927 53.9910697937
-2.8789753914 49.2041435242 53.7946166992
-2.8783953190 49.1856269836 53.6003684998
-2.8783910275 49.1846389771 53.4087486267
-2.8790576458 49.2040901184 53.2202301025
-2.8804135323 49.2445335388 53.0349388123
-2.8824019432 49.3042449951 52.8526458740
-2.8849208355 49.3801078796 52.6729125977
-2.8878061771 49.4671363831 52.4949913025
-2.8908030987 49.5575599670 52.3176956177
-2.8935997486 49.6418876648 52.1395606995
-2.8959243298 49.7118377686 51.9592666626
-2.8976221085 49.7626953125 51.7760505676
-2.8986580372 49.7933959961 51.5897064209
-2.8990600109 49.8047828674 51.4003334045
-2.8988521099 49.7975997925 51.2080078125
-2.8980278969 49.7716445923 51.0126647949
-2.8965733051 49.7264823914 50.8142013550
-2.8945224285 49.6631584167 50.6127471924
-2.8920125961 49.5858573914 50.4089469910
-2.8893027306 49.5024642944 50.2040519714
-2.8867349625 49.4234008789 49.9997482300
-2.8846392632 49.3587112427 49.7976875305
-2.8832237720 49.3147392273 49.5989379883
-2.8825151920 49.2923011780 49.4036750793
-2.8823771477 49.2872467041 49.2112541199
-2.8825917244 49.2929267883 49.0205993652
-2.8829352856 49.3025360107 48.8305969238
-2.8832063675 49.3099403381 48.6402282715
-2.8832447529 49.3102493286 48.4486732483
-2.8830060959 49.3021240234 48.2556838989
-2.8826432228 49.2902183533 48.0620384216
-2.8824744225 49.2842178345 47.8693733215
-2.8828182220 49.2938308716 47.6793518066
-2.8838086128 49.3231430054 47.4927062988
-2.8853054047 49.3678855896 47.3087387085
-2.8869473934 49.4170455933 47.1255798340
-2.8883163929 49.4578895569 46.9410362244
-2.8891060352 49.4810867310 46.7534713745
-2.8891949654 49.4829444885 46.5622100830
-2.8886110783 49.4642982483 46.3673553467
-2.8874466419 49.4279785156 46.1693687439
-2.8857958317 49.3768310547 45.9687156677
-2.8837318420 49.3131103516 45.7657699585
-2.8813471794 49.2396125793 45.5609970093
-2.8788204193 49.1617889404 45.3553543091
-2.8764259815 49.0879936218 45.1503257751
-2.8744342327 49.0264701843 44.9473953247
-2.8729939461 48.9817390442 44.7474021912
-2.8721084595 48.9539070129 44.5503959656
-2.8717052937 48.9407691956 44.3560028076
-2.8717060089 48.9399299622 44.1638259888
-2.8720531464 48.9496498108 43.9735641479
-2.8727130890 48.9688949585 43.7850494385
-2.8736727238 48.9972724915 43.5982284546
-2.8749301434 49.0347175598 43.4131050110
-2.8764743805 49.0809020996 43.2296409607
-2.8782722950 49.1348114014 43.0476531982
-2.8802528381 49.1942901611 42.8667678833
-2.8822629452 49.2546615601 42.6861152649
-2.8840050697 49.3068733215 42.5039978027
-2.8850798607 49.3387603760 42.3181152344
-2.8851950169 49.3414115906 42.1267471313
-2.8843617439 49.3151741028 41.9299049377
-2.8828377724 49.2678871155 41.7290229797
-2.8808557987 49.2066574097 41.5254135132
-2.8784821033 49.1334915161 41.3194351196
-2.8757424355 49.0491752625 41.1112174988
-2.8727774620 48.9579925537 40.9015655518
-2.8697969913 48.8663368225 40.6916999817
-2.8669412136 48.7784881592 40.4824447632
-2.8642423153 48.6954078674 40.2739982605
-2.8616900444 48.6167984009 40.0663108826
-2.8593330383 48.5441360474 39.8596801758
-2.8573443890 48.4826927185 39.6551513672
-2.8559899330 48.4405784607 39.4543418884
-2.8555035591 48.4249000549 39.2586936951
-2.8559675217 48.4381752014 39.0687561035
-2.8572661877 48.4768753052 38.8838806152
-2.8591208458 48.5325164795 38.7024192810
-2.8612089157 48.5952720642 38.5224494934
-2.8633048534 48.6582641602 38.3425941467
-2.8653151989 48.7186431885 38.1622848511
-2.8672063351 48.7753944397 37.9813117981
-2.8689422607 48.8274230957 37.7994461060
-2.8704812527 48.8734474182 37.6164131165
-2.8717677593 48.9117851257 37.4318656921
-2.8726994991 48.9393157959 37.2451477051
-2.8731255531 48.9514274597 37.0552940369
-2.8728961945 48.9435844421 36.8613433838
-2.8719258308 48.9131660461 36.6627120972
-2.8702259064 48.8605155945 36.4594345093
-2.8679158688 48.7892837524 36.2522239685
-2.8652234077 48.7063980103 36.0424880981
-2.8624520302 48.6211051941 35.8321380615
-2.8599088192 48.5427703857 35.6231269836
-2.8578295708 48.4785614014 35.4169807434
-2.8563289642 48.4319839478 35.2144584656
-2.8553707600 48.4019279480 35.0153617859
-2.8547787666 48.3830337524 34.8185844421
-2.8543584347 48.3693695068 34.6228904724
-2.8540787697 48.3599891663 34.4280815125
-2.8541293144 48.3606643677 34.2354049683
-2.8547646999 48.3791618347 34.0465469360
-2.8560793400 48.4183502197 33.8621520996
-2.8579134941 48.4733734131 33.6812171936
-2.8599429131 48.5343399048 33.5016326904
-2.8618474007 48.5915069580 33.3212890625
-2.8634533882 48.6395721436 33.1390266418
-2.8647816181 48.6791801453 32.9549713135
-2.8659768105 48.7147293091 32.7700691223
-2.8671381474 48.7492523193 32.5849761963
-2.8681633472 48.7796287537 32.3990058899
-2.8687427044 48.7964172363 32.2100639343
-2.8685333729 48.7891769409 32.0158157349
-2.8673696518 48.7528648376 31.8150901794
-2.8653297424 48.6898574829 31.6083621979
-2.8626410961 48.6070785522 31.3971309662
-2.8595492840 48.5120201111 31.1830348969
-2.8562290668 48.4099960327 30.9672451019
-2.8527362347 48.3027191162 30.7501354218
-2.8490552902 48.1897048950 30.5315876007
-2.8452832699 48.0739212036 30.3122596741
-2.8417963982 47.9668159485 30.0947475433
-2.8391487598 47.8852882385 29.8829193115
-2.8377571106 47.8420257568 29.6797218323
-2.8376822472 47.8388824463 29.4856510162
-2.8386566639 47.8677024841 29.2989101410
-2.8402416706 47.9151382446 29.1164836884
-2.8419964314 47.9677314758 28.9353027344
-2.8435959816 48.0156097412 28.7530860901
-2.8448584080 48.0532073975 28.5685329437
-2.8456938267 48.0777969360 28.3809909821
-2.8460655212 48.0882644653 28.1901741028
-2.8459756374 48.0846633911 27.9960670471
-2.8454446793 48.0676231384 27.7987937927
-2.8445005417 48.0379943848 27.5985260010
-2.8431870937 47.9971084595 27.3955554962
-2.8415687084 47.9469337463 27.1903266907
-2.8397223949 47.8898124695 26.9833793640
-2.8377392292 47.8285255432 26.7753582001
-2.8357343674 47.7665710449 26.5670928955
-2.8338441849 47.7081184387 26.3595790863
-2.8322060108 47.6573410034 26.1538219452
-2.8309037685 47.6167984009 25.9504547119
-2.8299033642 47.5854454041 25.7492408752
-2.8290581703 47.5588264465 25.5491256714
-2.8282291889 47.5327033997 25.3490867615
-2.8274326324 47.5075721741 25.1492481232
-2.8268830776 47.4899559021 24.9512004852
-2.8268902302 47.4893112183 24.7572650909
-2.8276968002 47.5130233765 24.5692863464
-2.8293521404 47.5625953674 24.3876781464
-2.8316805363 47.6326751709 24.2111701965
-2.8343584538 47.7134094238 24.0373725891
-2.8370442390 47.7943878174 23.8637275696
-2.8394644260 47.8672637939 23.6881675720
-2.8414251804 47.9261436462 23.5092124939
-2.8428065777 47.9673728943 23.3259220123
-2.8435609341 47.9894943237 23.1378993988
-2.8436942101 47.9926872253 22.9451541901
-2.8432276249 47.9776115417 22.7478141785
-2.8421735764 47.9446296692 22.5459384918
-2.8405275345 47.8936042786 22.3394565582
-2.8382680416 47.8238945007 22.1281738281
-2.8353998661 47.7356300354 21.9120864868
-2.8320510387 47.6327171326 21.6921539307
-2.8285255432 47.5244293213 21.4707126617
-2.8251979351 47.4221611023 21.2506637573
-2.8223364353 47.3341026306 21.0341167450
-2.8200459480 47.2634353638 20.8219184875
-2.8183410168 47.2106246948 20.6142215729
-2.8172144890 47.1754226685 20.4109935760
-2.8166227341 47.1565284729 20.2119331360
-2.8164603710 47.1507110596 20.0162334442
-2.8165705204 47.1532020569 19.8226757050
-2.8167848587 47.1588630676 19.6299419403
-2.8169705868 47.1636581421 19.4369792938
-2.8170773983 47.1660423279 19.2433834076
-2.8171484470 47.1673469543 19.0494976044
-2.8172614574 47.1699218750 18.8559398651
-2.8174273968 47.1741065979 18.6628017426
-2.8175244331 47.1762008667 18.4691066742
-2.8173148632 47.1689414978 18.2729263306
-2.8165419102 47.1445236206 18.0721683502
-2.8150660992 47.0986824036 17.8656654358
-2.8129310608 47.0327529907 17.6537322998
-2.8103137016 46.9521217346 17.4377708435
-2.8074345589 46.8635177612 17.2195606232
-2.8045194149 46.7738151550 17.0009346008
-2.8017928600 46.6898574829 16.7837352753
-2.7994575500 46.6178245544 16.5696411133
-2.7976551056 46.5620307922 16.3598461151
-2.7964379787 46.5240669250 16.1548118591
-2.7957711220 46.5028724670 15.9542837143
-2.7955627441 46.4956550598 15.7575311661
-2.7957026958 46.4990539551 15.5636625290
-2.7960939407 46.5101051331 15.3718872070
-2.7966752052 46.5269470215 15.1817064285
-2.7974340916 46.5492057800 14.9930295944
-2.7983949184 46.5776138306 14.8060693741
-2.7995741367 46.6126785278 14.6209764481
-2.8009326458 46.6532135010 14.4374361038
-2.8023602962 46.6958465576 14.2545204163
-2.8036863804 46.7353897095 14.0707912445
-2.8047065735 46.7656097412 13.8845014572
-2.8052377701 46.7809295654 13.6940736771
-2.8051955700 46.7787742615 13.4987592697
-2.8046166897 46.7602615356 13.2988376617
-2.8035895824 46.7280921936 13.0950393677
-2.8021759987 46.6841392517 12.8878660202
-2.8004069328 46.6293640137 12.6775665283
-2.7983317375 46.5652427673 12.4645414352
-2.7960336208 46.4943389893 12.2494974136
-2.7936198711 46.4199104309 12.0333528519
-2.7912344933 46.3463439941 11.8173513412
-2.7890985012 46.2803764343 11.6034202576
-2.7875027657 46.2308731079 11.3941183090
-2.7867043018 46.2056655884 11.1917228699
-2.7867958546 46.2075843811 10.9970970154
-2.7876687050 46.2333106995 10.8093357086
-2.7890863419 46.2756500244 10.6264019012
-2.7907805443 46.3264122009 10.4459543228
-2.7925033569 46.3780441284 10.2658157349
-2.7940640450 46.4247360229 10.0842962265
-2.7953774929 46.4638938904 9.9006280899
-2.7964851856 46.4967842102 9.7151689529
-2.7975099087 46.5271377563 9.5290012360
-2.7985682487 46.5585212708 9.3431653976
-2.7997190952 46.5927276611 9.1581907272
-2.8009884357 46.6305465698 8.9743156433
-2.8024337292 46.6737174988 8.7920637131
-2.8041634560 46.7255630493 8.6124248505
-2.8062937260 46.7896194458 8.4364690781
-2.8089122772 46.8685531616 8.2650108337
-2.8121039867 46.9649620056 8.0988512039
-2.8159875870 47.0824546814 7.9391040802
-2.8206713200 47.2243347168 7.7867970467
-2.8261427879 47.3902244568 7.6418633461
-2.8321990967 47.5739326477 7.5024876595
-2.8384792805 47.7644691467 7.3653945923
-2.8445565701 47.9488334656 7.2266697884
-2.8500161171 48.1143608093 7.0824737549
-2.8545117378 48.2505073547 6.9295725822
-2.8578355312 48.3509483337 6.7659893036
-2.8599851131 48.4155921936 6.5916280746
-2.8611612320 48.4505767822 6.4082927704
-2.8616816998 48.4655723572 6.2188839912
-2.8618602753 48.4701461792 6.0262928009
-2.8619265556 48.4713020325 5.8326501846
-2.8620042801 48.4728012085 5.6391062737
-2.8621215820 48.4755134583 5.4459300041
-2.8622357845 48.4781303406 5.2527184486
-2.8622562885 48.4778823853 5.0586152077
-2.8620724678 48.4714164734 4.8625745773
-2.8616008759 48.4561729431 4.6637902260
-2.8608448505 48.4322700500 4.4622807503
-2.8599355221 48.4036788940 4.2592706680
-2.8590965271 48.3772392273 4.0568876266
-2.8585460186 48.3596000671 3.8572192192
-2.8583960533 48.3541564941 3.6613492966
-2.8586196899 48.3601036072 3.4690470695
-2.8591117859 48.3742370605 3.2793240547
-2.8598027229 48.3944320679 3.0915250778
-2.8607406616 48.4221496582 2.9061233997
-2.8620524406 48.4612731934 2.7243642807
-2.8637876511 48.5132865906 2.5467441082
-2.8657839298 48.5732688904 2.3717176914
-2.8677186966 48.6313781738 2.1961603165
-2.8692927361 48.6784820557 2.0171520710
-2.8703553677 48.7100105286 1.8332054615
-2.8708937168 48.7255477905 1.6441600323
-2.8709673882 48.7269287109 1.4505718946
-2.8706631660 48.7167930603 1.2532681227
-2.8700516224 48.6972846985 1.0529160500
-2.8691439629 48.6687507629 0.8496128321
-2.8679032326 48.6300659180 0.6429733038
-2.8663091660 48.5806083679 0.4327792525
-2.8644096851 48.5218467712 0.2194851488
-2.8623018265 48.4567222595 0.0040348144
-34.8254928589 18.9411239624 90.7952117920
-34.8276824951 18.9410133362 90.5981903076
-34.8361587524 18.9441795349 90.4012680054
-34.8495941162 18.9499340057 90.2044372559
-34.8639030457 18.9561405182 90.0076217651
-34.8737602234 18.9600296021 89.8107376099
-34.8762168884 18.9600582123 89.6137084961
-34.8729743958 18.9571151733 89.4165573120
-34.8687477112 18.9536609650 89.2193679810
-34.8664169312 18.9511947632 89.0222091675
-34.8629417419 18.9481296539 88.8250122070
-34.8500213623 18.9401416779 88.6275787354
-34.8190040588 18.9227180481 88.4296875000
-34.7655944824 18.8936176300 88.2312011719
-34.6913986206 18.8536796570 88.0321044922
-34.6031494141 18.8064136505 87.8325424194
-34.5109367371 18.7570800781 87.6327438354
-34.4252853394 18.7111644745 87.4329910278
-34.3536643982 18.6725654602 87.2335052490
-34.2987861633 18.6426982880 87.0343856812
-34.2600021362 18.6212196350 86.8356475830
-34.2364730835 18.6076946259 86.6373062134
-34.2297477722 18.6029319763 86.4394378662
-34.2444572449 18.6093482971 86.2422103882
-34.2869911194 18.6302700043 86.0458831787
-34.3624076843 18.6683406830 85.8506698608
-34.4706764221 18.7235431671 85.6566314697
-34.6046485901 18.7921504974 85.4636077881
-34.7520599365 18.8677654266 85.2712097168
-34.9002914429 18.9438095093 85.0790328979
-35.0399627686 19.0153903961 84.8867340088
-35.1654281616 19.0795631409 84.6940994263
-35.2738189697 19.1348361969 84.5009841919
-35.3639106750 19.1805667877 84.3073120117
-35.4348106384 19.2162876129 84.1130142212
-35.4855804443 19.2415122986 83.9180145264
-35.5160789490 19.2561664581 83.7222595215
-35.5269546509 19.2605876923 83.5257415771
-35.5178413391 19.2545852661 83.3284072876
-35.4861145020 19.2367877960 83.1300964355
-35.4284744263 19.2054748535 82.9306335449
-35.3443679810 19.1603622437 82.7299423218
-35.2382545471 19.1037693024 82.5281524658
-35.1189308167 19.0402870178 82.3256301880
-34.9963455200 18.9751014709 82.1227798462
-34.8776931763 18.9119682312 81.9199447632
-34.7654953003 18.8521976471 81.7172317505
-34.6594276428 18.7956237793 81.5146560669
-34.5602874756 18.7426624298 81.3122558594
-34.4722518921 18.6954917908 81.1102523804
-34.4018630981 18.6575241089 80.9089889526
-34.3557205200 18.6322021484 80.7088317871
-34.3386726379 18.6220550537 80.5100708008
-34.3527412415 18.6281337738 80.3128814697
-34.3965263367 18.6497154236 80.1172409058
-34.4648056030 18.6840705872 79.9229431152
-34.5480957031 18.7262554169 79.7295303345
-34.6333160400 18.7694511414 79.5363159180
-34.7065124512 18.8063735962 79.3425521851
-34.7565765381 18.8312282562 79.1475982666
-34.7778015137 18.8410453796 78.9510879517
-34.7704849243 18.8359737396 78.7529754639
-34.7396545410 18.8186359406 78.5534896851
-34.6926269531 18.7928504944 78.3530120850
-34.6366577148 18.7623996735 78.1519393921
-34.5778541565 18.7304706573 77.9506149292
-34.5214767456 18.6998062134 77.7493438721
-34.4728012085 18.6731586456 77.5484466553
-34.4372634888 18.6533641815 77.3482894897
-34.4195442200 18.6428642273 77.1491851807
-34.4224662781 18.6431312561 76.9513320923
-34.4467353821 18.6545314789 76.7548294067
-34.4918670654 18.6768169403 76.5596923828
-34.5577735901 18.7099399567 76.3659439087
-34.6454277039 18.7544078827 76.1737060547
-34.7552757263 18.8104553223 75.9830398560
-34.8846664429 18.8766975403 75.7938156128
-35.0270652771 18.9497261047 75.6056365967
-35.1737785339 19.0250072479 75.4179306030
-35.3162078857 19.0980548859 75.2301254272
-35.4466590881 19.1648540497 75.0416564941
-35.5582923889 19.2218379974 74.8520431519
-35.6457481384 19.2662086487 74.6608505249
-35.7060852051 19.2964344025 74.4678344727
-35.7388038635 19.3122501373 74.2728881836
-35.7454223633 19.3144493103 74.0760726929
-35.7293319702 19.3048038483 73.8775863647
-35.6952171326 19.2857513428 73.6777343750
-35.6479148865 19.2598190308 73.4768371582
-35.5926361084 19.2297248840 73.2752609253
-35.5368270874 19.1993541718 73.0735626221
-35.4911460876 19.1742668152 72.8725509644
-35.4678077698 19.1608371735 72.6732101440
-35.4774818420 19.1646289825 72.4764099121
-35.5267562866 19.1890830994 72.2827377319
-35.6167068481 19.2347602844 72.0923538208
-35.7426795959 19.2992324829 71.9049835205
-35.8953666687 19.3776435852 71.7199325562
-36.0625190735 19.4636039734 71.5362548828
-36.2308616638 19.5501861572 71.3528976440
-36.3887672424 19.6313266754 71.1688842773
-36.5292549133 19.7033767700 70.9836196899
-36.6506958008 19.7654914856 70.7969284058
-36.7541160583 19.8182048798 70.6088638306
-36.8396301270 19.8615741730 70.4193878174
-36.9052810669 19.8945808411 70.2283020020
-36.9480895996 19.9156684875 70.0353088379
-36.9655723572 19.9235420227 69.8401336670
-36.9576339722 19.9181499481 69.6427307129
-36.9285774231 19.9017391205 69.4434280396
-36.8869247437 19.8787555695 69.2429428101
-36.8421592712 19.8541450500 69.0421142578
-36.8015098572 19.8316841125 68.8415832520
-36.7698059082 19.8138904572 68.6418151855
-36.7509803772 19.8028163910 68.4431762695
-36.7481384277 19.8000831604 68.2459945679
-36.7623863220 19.8062667847 68.0504074097
-36.7930870056 19.8210372925 67.8563766479
-36.8396301270 19.8440742493 67.6638870239
-36.9023017883 19.8755302429 67.4729919434
-36.9816741943 19.9156990051 67.2837905884
-37.0780029297 19.9647216797 67.0963287354
-37.1905403137 20.0222015381 66.9105758667
-37.3157157898 20.0862770081 66.7262039185
-37.4460525513 20.1530456543 66.5425109863
-37.5721244812 20.2175922394 66.3585510254
-37.6862068176 20.2758808136 66.1735534668
-37.7841644287 20.3257560730 65.9870605469
-37.8644943237 20.3664340973 65.7988967896
-37.9261741638 20.3973770142 65.6089172363
-37.9674644470 20.4176788330 65.4169082642
-37.9864845276 20.4263610840 65.2226257324
-37.9828491211 20.4232158661 65.0259933472
-37.9590797424 20.4095630646 64.8272247314
-37.9209976196 20.3884429932 64.6268920898
-37.8769340515 20.3641967773 64.4258651733
-37.8361015320 20.3416385651 64.2251129150
-37.8067092896 20.3250503540 64.0255355835
-37.7944641113 20.3174114227 63.8277702332
-37.8021392822 20.3201713562 63.6321525574
-37.8306465149 20.3338031769 63.4388313293
-37.8807945251 20.3587303162 63.2479324341
-37.9539909363 20.3956851959 63.0596542358
-38.0507011414 20.4449176788 62.8741035461
-38.1679267883 20.5048580170 62.6909866333
-38.2981643677 20.5715885162 62.5094947815
-38.4309730530 20.6396656036 62.3284568787
-38.5559806824 20.7036705017 62.1466979980
-38.6657752991 20.7597351074 61.9633407593
-38.7574958801 20.8063678741 61.7780227661
-38.8323249817 20.8441829681 61.5908470154
-38.8929824829 20.8746013641 61.4020996094
-38.9411659241 20.8985080719 61.2119483948
-38.9767646790 20.9158477783 61.0203552246
-38.9987754822 20.9260940552 60.8271789551
-39.0063591003 20.9288082123 60.6322898865
-38.9994125366 20.9239406586 60.4356422424
-38.9794692993 20.9122848511 60.2374000549
-38.9507560730 20.8960533142 60.0380439758
-38.9201126099 20.8788127899 59.8384056091
-38.8950729370 20.8644962311 59.6394081116
-38.8816146851 20.8562278748 59.4418029785
-38.8835334778 20.8559837341 59.2460899353
-38.9030303955 20.8649177551 59.0525779724
-38.9408798218 20.8834323883 58.8614006042
-38.9959335327 20.9109287262 58.6724433899
-39.0654907227 20.9459972382 58.4854087830
-39.1467971802 20.9871978760 58.2999610901
-39.2380065918 21.0335731506 58.1158905029
-39.3378372192 21.0844478607 57.9330520630
-39.4443664551 21.1388206482 57.7512092590
-39.5537796021 21.1946983337 57.5698814392
-39.6601104736 21.2489681244 57.3882865906
-39.7569847107 21.2983036041 57.2055702209
-39.8401145935 21.3404636383 57.0211486816
-39.9078788757 21.3746032715 56.8347778320
-39.9593620300 21.4002418518 56.6462974548
-39.9922218323 21.4161548615 56.4553642273
-40.0029449463 21.4205150604 56.2614555359
-39.9895172119 21.4122619629 56.0642623901
-39.9538383484 21.3923931122 55.8639869690
-39.9018173218 21.3639907837 55.6614036560
-39.8413162231 21.3311614990 55.4575653076
-39.7799987793 21.2979030609 55.2535209656
-39.7245407104 21.2677040100 55.0502014160
-39.6811370850 21.2438011169 54.8484916687
-39.6558418274 21.2293510437 54.6492691040
-39.6538581848 21.2270717621 54.4533081055
-39.6782150269 21.2385463715 54.2610855103
-39.7287445068 21.2636871338 54.0726356506
-39.8023567200 21.3008842468 53.8875694275
-39.8947334290 21.3478755951 53.7052993774
-40.0016784668 21.4024772644 53.5252647400
-40.1187248230 21.4623527527 53.3468360901
-40.2399482727 21.5244121552 53.1691665649
-40.3583145142 21.5849781036 52.9912338257
-40.4676589966 21.6408367157 52.8121185303
-40.5644836426 21.6901569366 52.6312751770
-40.6476936340 21.7323684692 52.4485244751
-40.7166366577 21.7671318054 52.2637367249
-40.7695846558 21.7935409546 52.0766220093
-40.8041801453 21.8103694916 51.8867912292
-40.8188896179 21.8168106079 51.6939773560
-40.8136596680 21.8128414154 51.4981269836
-40.7898406982 21.7991638184 51.2994079590
-40.7499542236 21.7770957947 51.0981712341
-40.6976127625 21.7485218048 50.8949432373
-40.6377334595 21.7160129547 50.6904640198
-40.5771636963 21.6831417084 50.4857826233
-40.5243415833 21.6543159485 50.2822265625
-40.4871635437 21.6336593628 50.0810508728
-40.4705924988 21.6237640381 49.8830718994
-40.4761276245 21.6254138947 49.6885719299
-40.5028457642 21.6381263733 49.4974479675
-40.5486030579 21.6607818604 49.3093986511
-40.6108169556 21.6920337677 49.1240463257
-40.6867332458 21.7304439545 48.9409828186
-40.7729873657 21.7742500305 48.7596893311
-40.8651885986 21.8211650848 48.5794715881
-40.9586296082 21.8687267303 48.3995704651
-41.0498466492 21.9151306152 48.2194252014
-41.1373634338 21.9596004486 48.0387802124
-41.2203788757 22.0017204285 47.8574981689
-41.2962493896 22.0401096344 47.6751327515
-41.3591766357 22.0717391968 47.4906959534
-41.4021034241 22.0929203033 47.3029861450
-41.4205398560 22.1013126373 47.1112022400
-41.4150581360 22.0972118378 46.9153900146
-41.3904571533 22.0831241608 46.7163162231
-41.3527488708 22.0621910095 46.5149688721
-41.3067398071 22.0369205475 46.3121376038
-41.2562065125 22.0092868805 46.1084594727
-41.2059669495 21.9818058014 45.9047508240
-41.1627311707 21.9579849243 45.7021751404
-41.1332130432 21.9413261414 45.5019187927
-41.1212730408 21.9338493347 45.3046722412
-41.1272468567 21.9357299805 45.1105384827
-41.1497116089 21.9462261200 44.9193038940
-41.1874351501 21.9646911621 44.7307777405
-41.2397880554 21.9908008575 44.5448875427
-41.3062934875 22.0242996216 44.3615760803
-41.3861389160 22.0647697449 44.1807212830
-41.4775810242 22.1113014221 44.0020484924
-41.5770378113 22.1620159149 43.8249282837
-41.6787147522 22.2138938904 43.6483345032
-41.7755966187 22.2632656097 43.4709968567
-41.8610496521 22.3066692352 43.2917060852
-41.9299774170 22.3414402008 43.1095046997
-41.9793395996 22.3659896851 42.9237976074
-42.0086402893 22.3800582886 42.7344589233
-42.0200958252 22.3848075867 42.5418586731
-42.0177459717 22.3823432922 42.3467025757
-42.0054473877 22.3746814728 42.1496849060
-41.9850540161 22.3627910614 41.9511299133
-41.9562187195 22.3464889526 41.7509536743
-41.9182281494 22.3254051208 41.5490074158
-41.8725585938 22.3003082275 41.3455505371
-41.8242568970 22.2738342285 41.1415252686
-41.7812538147 22.2501296997 40.9384269714
-41.7521209717 22.2336730957 40.7379112244
-41.7430839539 22.2277107239 40.5411872864
-41.7553596497 22.2328872681 40.3485374451
-41.7847328186 22.2469959259 40.1591911316
-41.8247528076 22.2666664124 39.9719314575
-41.8719139099 22.2900676727 39.7861022949
-41.9277992249 22.3180294037 39.6020317078
-41.9954376221 22.3521308899 39.4203186035
-42.0736846924 22.3917770386 39.2407722473
-42.1557312012 22.4334087372 39.0620727539
-42.2326049805 22.4723358154 38.8824462891
-42.2977256775 22.5051250458 38.7005920410
-42.3491058350 22.5307350159 38.5160789490
-42.3884353638 22.5500488281 38.3292198181
-42.4180870056 22.5643043518 38.1404685974
-42.4380760193 22.5735149384 37.9498062134
-42.4453392029 22.5760726929 37.7565956116
-42.4355659485 22.5697288513 37.5599365234
-42.4058570862 22.5529689789 37.3592071533
-42.3565483093 22.5259666443 37.1544342041
-42.2920112610 22.4910068512 36.9464759827
-42.2204933167 22.4523983002 36.7369842529
-42.1525001526 22.4156303406 36.5281143188
-42.0976638794 22.3857383728 36.3218536377
-42.0619659424 22.3658447266 36.1194725037
-42.0473213196 22.3569545746 35.9214057922
-42.0536117554 22.3590030670 35.7276725769
-42.0812911987 22.3722286224 35.5384140015
-42.1324844360 22.3977413177 35.3541145325
-42.2092628479 22.4366264343 35.1752586365
-42.3096656799 22.4878559113 35.0014877319
-42.4246940613 22.5467319489 34.8309402466
-42.5399742126 22.6057395935 34.6605949402
-42.6423568726 22.6580047607 34.4876441956
-42.7267074585 22.7008514404 34.3109664917
-42.7969169617 22.7363071442 34.1313591003
-42.8601379395 22.7681102753 33.9503364563
-42.9200859070 22.7982044220 33.7686805725
-42.9752998352 22.8258247375 33.5860710144
-43.0216865540 22.8488330841 33.4016075134
-43.0550537109 22.8650360107 33.2143630981
-43.0719528198 22.8726310730 33.0235481262
-43.0698394775 22.8702926636 32.8285789490
-43.0470314026 22.8571357727 32.6290435791
-43.0029373169 22.8328552246 32.4247665405
-42.9396286011 22.7985324860 32.2161674500
-42.8636589050 22.7575893402 32.0046615601
-42.7852821350 22.7153892517 31.7925052643
-42.7146415710 22.6772308350 31.5819587708
-42.6580200195 22.6464004517 31.3744487762
-42.6169548035 22.6236972809 31.1703472137
-42.5896339417 22.6081809998 30.9692802429
-42.5729217529 22.5982093811 30.7705650330
-42.5642127991 22.5924186707 30.5736312866
-42.5633392334 22.5907230377 30.3784599304
-42.5735168457 22.5948047638 30.1857986450
-42.5996589661 22.6072292328 29.9967937469
-42.6444778442 22.6294193268 29.8121051788
-42.7054443359 22.6600475311 29.6311836243
-42.7750892639 22.6952152252 29.4523391724
-42.8439941406 22.7299957275 29.2734107971
-42.9036369324 22.7599334717 29.0924129486
-42.9474143982 22.7815780640 28.9077892303
-42.9705810547 22.7924518585 28.7183990479
-42.9705734253 22.7912101746 28.5235996246
-42.9476585388 22.7779960632 28.3234081268
-42.9049186707 22.7544155121 28.1184997559
-42.8470497131 22.7229270935 27.9099483490
-42.7787666321 22.6859951019 27.6988372803
-42.7035980225 22.6454620361 27.4859867096
-42.6233673096 22.6022815704 27.2718162537
-42.5392265320 22.5570583344 27.0565910339
-42.4548759460 22.5117225647 26.8411903381
-42.3794898987 22.4710750580 26.6278209686
-42.3264350891 22.4420986176 26.4197235107
-42.3078346252 22.4311332703 26.2198753357
-42.3290061951 22.4409618378 26.0296401978
-42.3858222961 22.4694232941 25.8480930328
-42.4660148621 22.5101051331 25.6723155975
-42.5546417236 22.5551986694 25.4987010956
-42.6409721375 22.5990924835 25.3246326447
-42.7216262817 22.6400184631 25.1492767334
-42.7978668213 22.6786403656 24.9729328156
-42.8708305359 22.7155456543 24.7958717346
-42.9394340515 22.7501735687 24.6178188324
-43.0011138916 22.7811851501 24.4381294250
-43.0525360107 22.8068313599 24.2559547424
-43.0897407532 22.8250427246 24.0702838898
-43.1091499329 22.8339519501 23.8801937103
-43.1091499329 22.8327159882 23.6852397919
-43.0902252197 22.8215827942 23.4855041504
-43.0536079407 22.8011989594 23.2812595367
-43.0007286072 22.7723121643 23.0728321075
-42.9345130920 22.7364540100 22.8609333038
-42.8605613708 22.6965465546 22.6469631195
-42.7862663269 22.6564617157 22.4327926636
-42.7186088562 22.6198463440 22.2202129364
-42.6621284485 22.5890712738 22.0103988647
-42.6180229187 22.5647716522 21.8036880493
-42.5850219727 22.5462741852 21.5997734070
-42.5616302490 22.5328006744 21.3982925415
-42.5477485657 22.5243015289 21.1992378235
-42.5438537598 22.5210227966 21.0027542114
-42.5490074158 22.5224761963 20.8086147308
-42.5605125427 22.5272521973 20.6161384583
-42.5755538940 22.5338745117 20.4245910645
-42.5926513672 22.5415763855 20.2335987091
-42.6116218567 22.5502548218 20.0431118011
-42.6323966980 22.5598754883 19.8531188965
-42.6537361145 22.5697917938 19.6632919312
-42.6726608276 22.5784473419 19.4728431702
-42.6851425171 22.5837326050 19.2806949615
-42.6875991821 22.5837764740 19.0858726501
-42.6778259277 22.5774250031 18.8877696991
-42.6549301147 22.5642089844 18.6861190796
-42.6187973022 22.5440711975 18.4808635712
-42.5697135925 22.5171623230 18.2720527649
-42.5083198547 22.4838123322 18.0598335266
-42.4359893799 22.4447441101 17.8445549011
-42.3561630249 22.4017543793 17.6271266937
-42.2766227722 22.3589134216 17.4096584320
-42.2102661133 22.3229675293 17.1956729889
-42.1710205078 22.3011989594 16.9890155792
-42.1663398743 22.2975063324 16.7917900085
-42.1933975220 22.3104133606 16.6032867432
-42.2429313660 22.3350734711 16.4210147858
-42.3062019348 22.3669185638 16.2426013947
-42.3780517578 22.4032535553 16.0666465759
-42.4550704956 22.4422912598 15.8922176361
-42.5336914063 22.4821662903 15.7183294296
-42.6111412048 22.5214309692 15.5442123413
-42.6867446899 22.5597324371 15.3696737289
-42.7605667114 22.5970973969 15.1947269440
-42.8305091858 22.6324386597 15.0187807083
-42.8913688660 22.6630287170 14.8403568268
-42.9363288879 22.6853027344 14.6575069427
-42.9589538574 22.6958942413 14.4683742523
-42.9551010132 22.6926364899 14.2717361450
-42.9251365662 22.6757221222 14.0676412582
-42.8748092651 22.6481552124 13.8576784134
-42.8130645752 22.6146163940 13.6443672180
-42.7486190796 22.5796661377 13.4301872253
-42.6883583069 22.5469017029 13.2171115875
-42.6374130249 22.5190105438 13.0066299438
-42.5990791321 22.4977149963 12.7997140884
-42.5744781494 22.4836025238 12.5967140198
-42.5630340576 22.4763717651 12.3974924088
-42.5637855530 22.4755210876 12.2017946243
-42.5765342712 22.4809455872 12.0095901489
-42.6021728516 22.4931125641 11.8211622238
-42.6415672302 22.5124759674 11.6367931366
-42.6934623718 22.5383796692 11.4561405182
-42.7532348633 22.5684032440 11.2778701782
-42.8142318726 22.5990657806 11.1000318527
-42.8704795837 22.6272487640 10.9208631516
-42.9181518555 22.6509418488 10.7392168045
-42.9553604126 22.6691665649 10.5545158386
-42.9817733765 22.6817378998 10.3666372299
-42.9983634949 22.6891746521 10.1758527756
-43.0070190430 22.6924610138 9.9827041626
-43.0098228455 22.6926841736 9.7878017426
-43.0082283020 22.6906070709 9.5915708542
-43.0020980835 22.6861572266 9.3939599991
-42.9893188477 22.6782283783 9.1943216324
-42.9675559998 22.6655979156 8.9919347763
-42.9377784729 22.6487770081 8.7870769501
-42.9063034058 22.6310653687 8.5816516876
-42.8827590942 22.6175041199 8.3785905838
-42.8759994507 22.6127223969 8.1806144714
-42.8916282654 22.6196556091 7.9894752502
-42.9319190979 22.6394901276 7.8059163094
-42.9963150024 22.6719379425 7.6298170090
-43.0815582275 22.7152919769 7.4602236748
-43.1820602417 22.7666320801 7.2954511642
-43.2911033630 22.8224411011 7.1334514618
-43.4022445679 22.8793506622 6.9722428322
-43.5099449158 22.9344577789 6.8101062775
-43.6097259521 22.9854221344 6.6456379890
-43.6986312866 23.0306987762 6.4778995514
-43.7753181458 23.0695838928 6.3064484596
-43.8389663696 23.1016445160 6.1309995651
-43.8879470825 23.1260337830 5.9510173798
-43.9198608398 23.1414909363 5.7657127380
-43.9326019287 23.1469154358 5.5743856430
-43.9251289368 23.1417655945 5.3766684532
-43.8976364136 23.1261405945 5.1725811958
-43.8519515991 23.1009941101 4.9626612663
-43.7921714783 23.0684719086 4.7481789589
-43.7245864868 23.0318641663 4.5311117172
-43.6566314697 22.9950656891 4.3138237000
-43.5955886841 22.9618797302 4.0986475945
-43.5473098755 22.9353733063 3.8874797821
-43.5151100159 22.9172821045 3.6814134121
-43.4994506836 22.9078445435 3.4806301594
-43.4989700317 22.9063491821 3.2847228050
-43.5119934082 22.9119205475 3.0931818485
-43.5371322632 22.9238338470 2.9055843353
-43.5729484558 22.9413318634 2.7214848995
-43.6178016663 22.9635620117 2.5403726101
-43.6701202393 22.9896984100 2.3617515564
-43.7281608582 23.0188293457 2.1850657463
-43.7891845703 23.0495223999 2.0094294548
-43.8489723206 23.0795688629 1.8334605694
-43.9023742676 23.1062736511 1.6554582119
-43.9447212219 23.1271934509 1.4738683701
-43.9730491638 23.1407756805 1.2876870632
-43.9861907959 23.1464118958 1.0964980125
-43.9842681885 23.1441631317 0.9003100991
-43.9685783386 23.1347103119 0.6995254159
-43.9417228699 23.1194133759 0.4949822724
-43.9069557190 23.0999755859 0.2877469063
-43.8670463562 23.0778446198 0.0787305236
20.2537040710 40.5674171448 93.9315948486
20.2661457062 40.5907554626 93.7399520874
20.2845783234 40.6253128052 93.5485763550
20.3053436279 40.6642303467 93.3573455811
20.3283405304 40.7073287964 93.1662597656
20.3557052612 40.7585983276 92.9754257202
20.3889236450 40.8208198547 92.7849273682
20.4278011322 40.8936347961 92.5947875977
20.4708595276 40.9742736816 92.4049530029
20.5153102875 41.0575180054 92.2152862549
20.5567302704 41.1350936890 92.0255813599
20.5899295807 41.1972770691 91.8355255127
20.6108837128 41.2365493774 91.6448822021
20.6179962158 41.2499198914 91.4534988403
20.6118736267 41.2385215759 91.2613677979
20.5945510864 41.2061653137 91.0685501099
20.5689640045 41.1583442688 90.8751831055
20.5384140015 41.1012306213 90.6814346313
20.5058383942 41.0403289795 90.4874649048
20.4733219147 40.9795379639 90.2934036255
20.4420413971 40.9210586548 90.0993347168
20.4125080109 40.8658523560 89.9052886963
20.3850383759 40.8145027161 89.7112960815
20.3605804443 40.7687950134 89.5174331665
20.3414192200 40.7329978943 89.3238754272
20.3307437897 40.7130813599 89.1308670044
20.3310661316 40.7137413025 88.9386367798
20.3427925110 40.7357444763 88.7472457886
20.3642005920 40.7758712769 88.5566177368
20.3927078247 40.8292770386 88.3665924072
20.4263439178 40.8922805786 88.1770324707
20.4641666412 40.9631233215 87.9878921509
20.5051765442 41.0399246216 87.7990951538
20.5472011566 41.1186294556 87.6104888916
20.5877990723 41.1946640015 87.4218673706
20.6263599396 41.2668838501 87.2331695557
20.6642227173 41.3377990723 87.0445022583
20.7021102905 41.4087600708 86.8559265137
20.7382411957 41.4764366150 86.6672897339
20.7694091797 41.5348205566 86.4782943726
20.7931632996 41.5793342590 86.2886810303
20.8085842133 41.6082534790 86.0983505249
20.8155860901 41.6214179993 85.9072570801
20.8140430450 41.6185836792 85.7153472900
20.8036079407 41.5991172791 85.5225677490
20.7844123840 41.5632553101 85.3288803101
20.7579040527 41.5137100220 85.1344070435
20.7269134521 41.4557723999 84.9393997192
20.6947975159 41.3957328796 84.7441940308
20.6644058228 41.3389167786 84.5490646362
20.6377944946 41.2891807556 84.3542480469
20.6173114777 41.2509040833 84.1600112915
20.6070766449 41.2318115234 83.9668121338
20.6124458313 41.2419204712 83.7752838135
20.6364154816 41.2868347168 83.5858154297
20.6763267517 41.3615837097 83.3981781006
20.7250843048 41.4528884888 83.2116470337
20.7759056091 41.5480499268 83.0254745483
20.8254089355 41.6407470703 82.8392715454
20.8727436066 41.7293891907 82.6529388428
20.9174995422 41.8132057190 82.4664154053
20.9592666626 41.8914260864 82.2796478271
20.9983520508 41.9646263123 82.0926589966
21.0356044769 42.0344009399 81.9055404663
21.0710086823 42.1007156372 81.7182769775
21.1027259827 42.1601295471 81.5306396484
21.1278419495 42.2071876526 81.3422470093
21.1439266205 42.2373504639 81.1527633667
21.1497344971 42.2482757568 80.9619750977
21.1449508667 42.2393836975 80.7698211670
21.1300659180 42.2115898132 80.5763168335
21.1063194275 42.1672096252 80.3815841675
21.0748538971 42.1083869934 80.1857452393
21.0359954834 42.0357284546 79.9888076782
20.9906730652 41.9509696960 79.7908782959
20.9431304932 41.8620643616 79.5925140381
20.9009895325 41.7832641602 79.3947677612
20.8717613220 41.7286262512 79.1987228394
20.8598136902 41.7063255310 79.0050430298
20.8666877747 41.7192535400 78.8140335083
20.8929538727 41.7684631348 78.6258468628
20.9382057190 41.8532028198 78.4404907227
20.9989910126 41.9670143127 78.2575454712
21.0677471161 42.0957412720 78.0759353638
21.1352481842 42.2221183777 77.8943099976
21.1949748993 42.3339500427 77.7116851807
21.2454814911 42.4285240173 77.5277938843
21.2893390656 42.5106582642 77.3430023193
21.3305053711 42.5877532959 77.1578979492
21.3720531464 42.6655616760 76.9729614258
21.4149188995 42.7458419800 76.7883300781
21.4574604034 42.8255081177 76.6037521362
21.4955120087 42.8967742920 76.4185562134
21.5233192444 42.9488716125 76.2317962646
21.5356788635 42.9720611572 76.0425720215
21.5302772522 42.9620132446 75.8504486084
21.5084781647 42.9212760925 75.6555786133
21.4742450714 42.8572731018 75.4585571289
21.4324131012 42.7790527344 75.2601547241
21.3872432709 42.6945838928 75.0610656738
21.3414630890 42.6089744568 74.8617477417
21.2959594727 42.5238800049 74.6623458862
21.2506694794 42.4391860962 74.4628524780
21.2069606781 42.3574523926 74.2635040283
21.1699771881 42.2882995605 74.0652236938
21.1479187012 42.2470817566 73.8694915771
21.1474685669 42.2462997437 73.6775741577
21.1693344116 42.2872772217 73.4896774292
21.2084560394 42.3605461121 73.3049697876
21.2579841614 42.4532928467 73.1222686768
21.3122653961 42.5549316406 72.9405593872
21.3668804169 42.6571922302 72.7590560913
21.4177780151 42.7524986267 72.5769958496
21.4613380432 42.8340721130 72.3936691284
21.4952297211 42.8975601196 72.2086181641
21.5193653107 42.9427833557 72.0217819214
21.5364265442 42.9747695923 71.8336334229
21.5511322021 43.0023498535 71.6450729370
21.5677814484 43.0335617065 71.4569168091
21.5871829987 43.0699272156 71.2693405151
21.6052303314 43.1037597656 71.0815429688
21.6144256592 43.1210289001 70.8920135498
21.6074447632 43.1080245972 70.6992645264
21.5806427002 43.0579299927 70.5024795532
21.5361995697 42.9748191833 70.3020324707
21.4821472168 42.8737297058 70.0994949341
21.4294414520 42.7751617432 69.8970794678
21.3871250153 42.6960296631 69.6966705322
21.3590850830 42.6436157227 69.4991149902
21.3447380066 42.6168289185 69.3043518066
21.3419647217 42.6116981506 69.1119918823
21.3492641449 42.6254158020 68.9217529297
21.3658981323 42.6566047668 68.7335205078
21.3909645081 42.7035713196 68.5471420288
21.4226341248 42.7628936768 68.3622436523
21.4579181671 42.8289833069 68.1782150269
21.4930458069 42.8947792053 67.9942398071
21.5247535706 42.9541740417 67.8095932007
21.5518932343 43.0050201416 67.6240081787
21.5756034851 43.0494499207 67.4377212524
21.5975074768 43.0904998779 67.2510833740
21.6177921295 43.1285209656 67.0641250610
21.6350765228 43.1609230042 66.8765411377
21.6477260590 43.1846542358 66.6879272461
21.6548900604 43.1981201172 66.4980850220
21.6564636230 43.2011260986 66.3069534302
21.6525306702 43.1938247681 66.1145477295
21.6431007385 43.1762351990 65.9208297729
21.6284084320 43.1487998962 65.7258453369
21.6093139648 43.1131286621 65.5297698975
21.5873432159 43.0720748901 65.3329544067
21.5645084381 43.0294036865 65.1358642578
21.5432071686 42.9896011353 64.9390792847
21.5259265900 42.9573211670 64.7431945801
21.5145893097 42.9361648560 64.5487060547
21.5101871490 42.9279861450 64.3558654785
21.5131931305 42.9336738586 64.1648330688
21.5242176056 42.9543609619 63.9757766724
21.5440387726 42.9915122986 63.7889289856
21.5729293823 43.0456390381 63.6043891907
21.6099720001 43.1150169373 63.4219627380
21.6529502869 43.1954994202 63.2411270142
21.6987857819 43.2813339233 63.0611228943
21.7441425323 43.3662719727 62.8811073303
21.7859706879 43.4446067810 62.7002983093
21.8218917847 43.5118827820 62.5180740356
21.8503913879 43.5652732849 62.3340110779
21.8707885742 43.6035041809 62.1479110718
21.8829822540 43.6263809204 61.9597053528
21.8873119354 43.6345443726 61.7694587708
21.8849372864 43.6301574707 61.5774421692
21.8781585693 43.6175308228 61.3842391968
21.8697814941 43.6019172668 61.1905860901
21.8616371155 43.5867347717 60.9969635010
21.8534297943 43.5714378357 60.8032951355
21.8426647186 43.5513496399 60.6089019775
21.8256301880 43.5195350647 60.4127655029
21.7995204926 43.4707336426 60.2140922546
21.7648715973 43.4059562683 60.0129966736
21.7263069153 43.3338470459 59.8107147217
21.6903972626 43.2667083740 59.6090583801
21.6625137329 43.2145881653 59.4095382690
21.6452751160 43.1823883057 59.2129211426
21.6389827728 43.1706771851 59.0193290710
21.6424617767 43.1772422791 58.8284797668
21.6534976959 43.1979560852 58.6397781372
21.6695899963 43.2281265259 58.4525413513
21.6891403198 43.2647743225 58.2663307190
21.7119483948 43.3075141907 58.0811042786
21.7385005951 43.3572616577 57.8970146179
21.7692298889 43.4148216248 57.7141990662
21.8045005798 43.4808845520 57.5327873230
21.8445243835 43.5558433533 57.3528556824
21.8881549835 43.6375503540 57.1740875244
21.9316043854 43.7189178467 56.9953727722
21.9689693451 43.7888946533 56.8149528503
21.9945602417 43.8368453979 56.6311073303
22.0053119659 43.8570213318 56.4428634644
22.0016574860 43.8502426147 56.2502975464
21.9866352081 43.8221931458 56.0542716980
21.9638061523 43.7795295715 55.8558197021
21.9354152679 43.7264633179 55.6556015015
21.9021911621 43.6643524170 55.4538154602
21.8646621704 43.5941810608 55.2506065369
21.8244304657 43.5189552307 55.0464515686
21.7842941284 43.4439086914 54.8422126770
21.7475967407 43.3752975464 54.6389274597
21.7175693512 43.3191680908 54.4376335144
21.6968212128 43.2803993225 54.2391700745
21.6867122650 43.2615432739 54.0440063477
21.6868190765 43.2618026733 53.8520545959
21.6951160431 43.2773857117 53.6627006531
21.7090396881 43.3035011292 53.4751663208
21.7265682220 43.3363609314 53.2888221741
21.7463989258 43.3735313416 53.1032562256
21.7673950195 43.4128837585 52.9181137085
21.7882156372 43.4519004822 52.7329597473
21.8075752258 43.4881896973 52.5473785400
21.8246231079 43.5201530457 52.3610801697
21.8386688232 43.5464935303 52.1738281250
21.8486461639 43.5652236938 51.9852600098
21.8532066345 43.5738182068 51.7949104309
21.8513698578 43.5704421997 51.6024322510
21.8427810669 43.5544281006 51.4076805115
21.8272266388 43.5253791809 51.2105560303
21.8041896820 43.4823303223 51.0108566284
21.7733421326 43.4246673584 50.8084373474
21.7357444763 43.3543701172 50.6036338806
21.6945476532 43.2773399353 50.3974914551
21.6545276642 43.2025070190 50.1916351318
21.6208171844 43.1394882202 49.9878387451
21.5975475311 43.0960006714 49.7875480652
21.5871143341 43.0765380859 49.5916404724
21.5904731750 43.0828857422 49.4004974365
21.6076774597 43.1151351929 49.2141952515
21.6375160217 43.1710357666 49.0323600769
21.6765346527 43.2441101074 48.8538322449
21.7192115784 43.3240280151 48.6766929626
21.7602119446 43.4008140564 48.4990653992
21.7967834473 43.4693069458 48.3199577332
21.8288097382 43.5293006897 48.1393165588
21.8569221497 43.5819664001 47.9573478699
21.8808860779 43.6268653870 47.7739524841
21.8994560242 43.6616783142 47.5886611938
21.9111289978 43.6835784912 47.4009094238
21.9149837494 43.6908531189 47.2103347778
21.9109783173 43.6834182739 47.0168876648
21.8996582031 43.6622924805 46.8207397461
21.8819026947 43.6291275024 46.6221809387
21.8589267731 43.5861930847 46.4216384888
21.8319492340 43.5357704163 46.2195434570
21.8017883301 43.4793930054 46.0161819458
21.7692298889 43.4185256958 45.8118400574
21.7359218597 43.3562545776 45.6071166992
21.7045879364 43.2976799011 45.4030418396
21.6782264709 43.2484130859 45.2007522583
21.6591453552 43.2127647400 45.0011405945
21.6485881805 43.1930656433 44.8047103882
21.6469764709 43.1901130676 44.6116561890
21.6542091370 43.2037048340 44.4219779968
21.6694984436 43.2323760986 44.2354049683
21.6908721924 43.2724342346 44.0512084961
21.7151622772 43.3179435730 43.8681869507
21.7391223907 43.3628425598 43.6851005554
21.7609767914 43.4037971497 43.5012435913
21.7809295654 43.4411926270 43.3166961670
21.8000659943 43.4770622253 43.1318702698
21.8183689117 43.5113754272 42.9467620850
21.8334827423 43.5397148132 42.7604370117
21.8414459229 43.5546760559 42.5713081360
21.8389759064 43.5501136780 42.3780441284
21.8252944946 43.5245704651 42.1802940369
21.8021106720 43.4812469482 41.9786949158
21.7722930908 43.4255104065 41.7743644714
21.7386798859 43.3626708984 41.5684165955
21.7038860321 43.2976226807 41.3618927002
21.6706638336 43.2355155945 41.1559066772
21.6414794922 43.1809654236 40.9514617920
21.6171703339 43.1355323792 40.7489242554
21.5964450836 43.0968132019 40.5477828979
21.5775814056 43.0615730286 40.3473396301
21.5608158112 43.0302581787 40.1477012634
21.5491695404 43.0085258484 39.9501304626
21.5471591949 43.0048255920 39.7565155029
21.5584106445 43.0259399414 39.5684089661
21.5833225250 43.0726127625 39.3860244751
21.6181774139 43.1378974915 39.2078666687
21.6565933228 43.2098426819 39.0312881470
21.6923789978 43.2768669128 38.8536949158
21.7216854095 43.3317680359 38.6734504700
21.7434177399 43.3724937439 38.4900627136
21.7583789825 43.4005508423 38.3038444519
21.7680988312 43.4187965393 38.1154174805
21.7738628387 43.4296455383 37.9253120422
21.7761802673 43.4340438843 37.7337379456
21.7746486664 43.4312362671 37.5405006409
21.7682075500 43.4192428589 37.3451309204
21.7558269501 43.3961334229 37.1471557617
21.7373332977 43.3615875244 36.9464836121
21.7136402130 43.3173141479 36.7434844971
21.6859836578 43.2656173706 36.5386810303
21.6551914215 43.2080574036 36.3324165344
21.6223506927 43.1466674805 36.1251602173
21.5902347565 43.0866279602 35.9181289673
21.5635204315 43.0366973877 35.7133941650
21.5471305847 43.0060882568 35.5131683350
21.5441837311 43.0006332397 35.3188781738
21.5550422668 43.0210113525 35.1307449341
21.5775432587 43.0631790161 34.9478492737
21.6077117920 43.1196899414 34.7684555054
21.6408252716 43.1817169189 34.5904617310
21.6730194092 43.2420158386 34.4121284485
21.7026443481 43.2975158691 34.2327117920
21.7302246094 43.3491859436 34.0524368286
21.7570114136 43.3993682861 33.8718605042
21.7833938599 43.4487953186 33.6911659241
21.8082332611 43.4953384399 33.5098228455
21.8291110992 43.5344657898 33.3267173767
21.8428916931 43.5603141785 33.1403808594
21.8463363647 43.5668182373 32.9492874146
21.8372097015 43.5498008728 32.7523574829
21.8155460358 43.5093231201 32.5495529175
21.7836074829 43.4496192932 32.3418884277
21.7442359924 43.3759994507 32.1306457520
21.6993522644 43.2920722961 31.9167022705
21.6498794556 43.1995582581 31.7004680634
21.5964851379 43.0997047424 31.4822406769
21.5406036377 42.9951934814 31.2626819611
21.4856662750 42.8924522400 31.0434150696
21.4375514984 42.8024787903 30.8272438049
21.4030418396 42.7379608154 30.6174335480
21.3869686127 42.7079429626 30.4163570404
21.3900871277 42.7138404846 30.2244472504
21.4089698792 42.7492332458 30.0401306152
21.4377536774 42.8031578064 29.8606414795
21.4705944061 42.8646697998 29.6831855774
21.5034484863 42.9262084961 29.5058155060
21.5347614288 42.9848632813 29.3277759552
21.5650520325 43.0416069031 29.1493091583
21.5953712463 43.0984001160 28.9709320068
21.6252708435 43.1544075012 28.7924194336
21.6518154144 43.2041397095 28.6123275757
21.6705532074 43.2392616272 28.4284439087
21.6774597168 43.2522468567 28.2387428284
21.6704292297 43.2391510010 28.0421333313
21.6497631073 43.2005386353 27.8387069702
21.6178264618 43.1408386230 27.6295928955
21.5783538818 43.0670356750 27.4166126251
21.5357952118 42.9874572754 27.2019691467
